# .PCD v0.7 - Point Cloud Data file format
VERSION 0.7
FIELDS x y z intensity
SIZE 4 4 4 4
TYPE F F F F
COUNT 1 1 1 1
WIDTH 1379
HEIGHT 1
VIEWPOINT 0 0 0 1 0 0 0
POINTS 1379
DATA ascii
13.805253 -3.2176626 0.14349991 43
13.779582 -1.154682 0.058405105 44
11.103132 -1.7486327 -0.018636616 2
10.611278 -2.4732261 -0.082153134 0
13.794403 -1.155924 -0.18604441 31
10.796878 -1.7004007 -0.21139255 0
10.22266 -2.3826489 -0.26496524 0
13.812874 -1.1574718 -0.4314917 39
9.920701 -2.3122697 -0.43763179 0
13.783219 -1.1549869 -0.6752646 39
9.993659 -1.5739018 -0.55410665 7
9.172842 -2.1379623 -0.57112253 14
13.808957 -1.1571436 -0.92210484 43
9.4622517 -1.4902104 -0.69418496 8
8.7460585 -2.0384896 -0.70362484 16
13.830375 -1.1589383 -1.1690985 37
9.763566 -1.5376644 -0.89115769 3
8.5736914 -1.9983151 -0.84550881 4
12.709352 -1.0650004 -1.3002164 255
9.5895004 -1.5102508 -1.0470511 1
9.4444923 -1.4874134 -1.2007028 3
9.3520422 -1.4728535 -1.3565027 1
9.2998991 -1.4646416 -1.5172333 2
8.4948444 -1.3378534 -1.5380077 4
7.8664756 -1.2388915 -1.5662611 4
7.2363324 -1.1396502 -1.5705901 4
6.7472148 -1.0626191 -1.5855836 7
6.3521256 -1.0003965 -1.6062642 7
4.7601542 -0.74967688 -1.6577497 6
1.6903856 -0.26621887 -0.7976644 3
6.563765 -1.0807401 1.7559575 11
5.2586026 -0.86584187 1.0298519 17
8.9980373 -1.4815489 1.2757765 20
13.766162 -2.2666323 1.2112764 33
13.748457 -2.2637172 0.71681631 57
13.778527 -2.2686684 0.47128692 35
13.770058 -3.3109825 0.3938635 67
13.768 -1.2505625 0.30310395 37
13.788549 -2.2703185 0.22391559 22
13.805787 -3.3195734 0.14374284 42
13.787119 -1.2522992 0.058472686 45
11.106441 -1.8287027 -0.018663146 0
10.671534 -2.5659487 -0.082756311 0
13.793963 -1.252921 -0.18615192 34
10.441431 -1.7192073 -0.20466326 8
10.209665 -2.4548931 -0.26506615 0
13.796494 -1.2531507 -0.43124279 39
10.104907 -1.6637979 -0.37963572 10
9.9237452 -2.3861444 -0.43849021 0
13.782778 -1.2519048 -0.67565471 40
9.7814388 -1.610538 -0.54295015 16
9.1538105 -2.201015 -0.57088041 12
13.792592 -1.2527964 -0.92157364 40
9.3374577 -1.5374353 -0.68580037 12
8.7471228 -2.1032279 -0.70487463 16
13.825916 -1.2558231 -1.1694342 38
9.2494364 -1.5229423 -0.84518099 7
8.5672741 -2.0599837 -0.84627366 12
12.721422 -1.1555008 -1.3022449 45
9.2098579 -1.5164257 -1.0067303 3
9.1558342 -1.5075306 -1.1653148 3
9.1579056 -1.5078716 -1.3298379 2
9.2972412 -1.5308136 -1.5185062 2
8.5124931 -1.4016029 -1.5429373 4
7.8615069 -1.2944164 -1.5670329 4
7.2436361 -1.1926825 -1.5739443 4
6.7588549 -1.1128621 -1.5901061 8
6.3449869 -1.0447177 -1.6062642 6
4.7548041 -0.7828902 -1.6577497 6
1.7027949 -0.28036937 -0.80442423 2
6.5793242 -1.1281708 1.7620829 21
5.27597 -0.90468186 1.0344054 19
8.9762993 -1.5391853 1.2741139 19
13.762609 -2.3599041 1.2123142 34
13.752827 -2.3582268 0.71784383 40
13.774999 -2.3620286 0.47169167 34
13.778847 -3.4099193 0.3947531 55
13.763382 -1.3422363 0.30319163 37
13.792898 -2.3650978 0.22423603 23
13.806763 -3.4168277 0.14398579 45
13.786472 -1.3444881 0.058506474 43
11.027046 -1.8908312 -0.018550398 0
10.70864 -2.65012 -0.083178535 0
13.793312 -1.3451551 -0.18625942 35
10.235856 -2.5331178 -0.26617649 0
13.815734 -1.3473418 -0.43211398 41
9.9309759 -2.4576676 -0.43952033 0
13.782125 -1.3440641 -0.67604482 38
9.61308 -1.6483754 -0.53419995 11
9.1428871 -2.2626355 -0.57112253 14
13.807814 -1.3465693 -0.92316717 46
9.1972942 -1.5770798 -0.67625934 15
8.7445946 -2.164068 -0.70581192 16
13.825217 -1.3482666 -1.1701057 39
9.0938492 -1.5593418 -0.83189082 23
8.7041616 -2.1540618 -0.86118764 6
13.596688 -1.3259799 -1.3927124 4
8.9957724 -1.5425243 -0.98442531 24
8.9656954 -1.5373669 -1.1423873 21
8.9955006 -1.5424778 -1.3077117 14
9.3024521 -1.5951114 -1.5210518 2
8.5146523 -1.4600257 -1.5450499 4
7.8372755 -1.3438745 -1.5639452 4
7.2586956 -1.2446641 -1.5789756 4
6.7474852 -1.1570058 -1.5892016 7
6.3417435 -1.0874324 -1.6072335 6
4.7420511 -0.81312966 -1.6551472 6
1.7151912 -0.29410753 -0.81118411 3
6.5827098 -1.1761155 1.7651457 20
5.2656598 -0.94080162 1.0336465 18
8.945838 -1.5983294 1.2713429 19
13.761491 -2.4587295 1.2136983 33
13.755692 -2.4576933 0.71887141 48
13.77785 -2.4616523 0.4723663 33
13.774078 -3.5109687 0.39530909 67
13.765609 -1.4395363 0.30345467 39
13.795737 -2.4648483 0.22455645 24
13.794201 -3.516098 0.14410727 43
13.784707 -1.4415334 0.058540266 44
11.005703 -1.9663601 -0.018537132 0
10.740265 -2.7376595 -0.083570607 0
13.791542 -1.4422482 -0.18636693 37
10.385565 -1.8555617 -0.20404448 0
10.276045 -2.6193314 -0.26769057 0
13.817921 -1.4450067 -0.43248737 39
10.081322 -1.8012034 -0.37963572 0
9.9910269 -2.5466809 -0.44295409 0
13.792274 -1.4423248 -0.67702007 39
9.5344982 -1.7035038 -0.5304811 7
9.1423435 -2.3303545 -0.57209092 12
13.794107 -1.4425166 -0.92290157 19
9.0918045 -1.6244088 -0.66932034 12
8.7370024 -2.2270341 -0.70643681 16
12.598438 -1.3174796 -1.067029 2
8.9572468 -1.6003679 -0.82039666 32
8.6387539 -2.2019908 -0.85621631 5
12.395805 -1.2962893 -1.2706015 1
8.8986559 -1.5898995 -0.97498852 28
8.8805113 -1.5866578 -1.1329172 8
8.8558855 -1.5822579 -1.2889897 21
9.3027525 -1.6620984 -1.522961 2
8.5120049 -1.5208176 -1.5464584 4
7.8238397 -1.3978649 -1.5631733 4
7.2613807 -1.2973719 -1.5814912 4
6.7430792 -1.2047683 -1.5901061 7
6.3339977 -1.1316787 -1.6072335 6
4.7511535 -0.84887612 -1.6603521 6
1.6881136 -0.30161083 -0.79935437 4
6.5743384 -1.2220428 1.7651457 21
5.2744083 -0.98041081 1.0366821 18
8.9305668 -1.6600201 1.2707887 19
13.763579 -2.5583842 1.2154281 33
13.753908 -2.5565863 0.71969342 30
13.787842 -2.5628941 0.47331077 32
13.772437 -3.6131306 0.39597628 79
13.771121 -1.5373782 0.30380538 36
13.789989 -2.5632932 0.2247487 26
13.784793 -3.6163721 0.14426923 40
13.774307 -1.5377338 0.058540266 37
10.948447 -2.0351052 -0.018464178 0
10.836959 -2.8430226 -0.084475376 0
13.789086 -1.5393838 -0.18647444 33
10.35663 -1.9250979 -0.20373508 0
10.717781 -2.8117568 -0.27970234 1
13.807495 -1.5414389 -0.43248737 33
10.060641 -1.8700793 -0.37933937 0
9.9304838 -2.6052129 -0.44106552 0
12.300843 -1.3732395 -0.60426623 3
9.4870329 -1.7634565 -0.5285123 7
9.149025 -2.4002013 -0.57354355 9
12.141556 -1.3554571 -0.81295013 3
9.0488634 -1.6820092 -0.66700739 12
8.7289562 -2.2899983 -0.70706171 15
11.967013 -1.3359715 -1.0143155 3
8.7040482 -2.283464 -0.8642469 2
12.046341 -1.3448274 -1.2357128 2
8.7895908 -1.6338154 -0.96426493 37
8.8614149 -1.6471661 -1.1319203 0
8.7706594 -1.6302965 -1.2782102 17
9.3064518 -1.72989 -1.5255067 2
8.5089235 -1.5816449 -1.5478668 4
7.8254662 -1.4546033 -1.5654891 4
7.229075 -1.3437457 -1.5764599 5
6.742166 -1.2532387 -1.5919151 6
6.3259425 -1.1758708 -1.6072335 6
4.7413921 -0.88133341 -1.6590508 6
1.69666 -0.3153764 -0.80442423 5
6.40236 -1.2363771 1.7212467 17
5.2481542 -1.0134853 1.0328876 19
8.9304276 -1.7245791 1.2724513 19
13.753208 -2.6559193 1.2161201 33
13.759258 -2.6570876 0.72092646 28
13.789239 -2.6628773 0.47398537 30
13.758458 -3.712317 0.39630985 62
13.767995 -1.6344223 0.30398074 35
13.799247 -2.6648099 0.2251973 26
13.739902 -3.7073102 0.14406678 43
13.775152 -1.635272 0.058590949 40
10.949683 -2.1145229 -0.018490708 0
10.859328 -2.9300716 -0.084807128 5
13.789919 -1.6370249 -0.1866357 31
10.315451 -1.9920446 -0.20319365 0
10.34271 -2.7906773 -0.27041593 0
12.307578 -1.4610537 -0.38581607 2
10.004169 -1.931932 -0.37770939 0
9.9699287 -2.6900933 -0.44364086 0
11.878349 -1.4100993 -0.58398098 10
9.4784117 -1.8304018 -0.52873105 9
9.1513195 -2.4692154 -0.57475406 11
11.69583 -1.388432 -0.78373599 6
8.9977283 -1.7375758 -0.66411614 12
8.728157 -2.3550375 -0.7083115 15
11.644706 -1.3823631 -0.98779082 7
8.9653215 -1.7313175 -0.8232702 11
8.7301807 -2.3555837 -0.86845344 3
11.625689 -1.3801055 -1.1935216 2
8.7584467 -1.6913674 -0.96212023 54
8.7795563 -1.6954439 -1.1229488 18
8.7124109 -1.6824772 -1.2714021 6
9.2980261 -1.7955669 -1.5261432 2
8.4938078 -1.6402622 -1.5471625 4
7.818974 -1.5099432 -1.5662611 4
7.2310376 -1.3964052 -1.5789756 4
6.7447295 -1.302493 -1.5946286 7
6.3290105 -1.2222124 -1.6101418 6
4.7388377 -0.91512984 -1.6603521 6
1.7015363 -0.32858828 -0.80780417 5
6.4087415 -1.2840831 1.7253302 17
5.2563543 -1.0531858 1.0359232 31
8.9142866 -1.786105 1.2718971 22
13.761683 -2.7573502 1.218542 39
13.756041 -2.7562196 0.72174853 29
13.789912 -2.7630064 0.47465998 33
13.720648 -3.8050714 0.39597628 65
13.77212 -1.7324977 0.30433145 38
13.78815 -2.7626534 0.22532548 27
13.748375 -3.8127608 0.1444312 47
13.775307 -1.7328986 0.058641635 43
10.938576 -2.1917005 -0.01849734 0
13.752543 -3.8139167 -0.10760733 47
13.797996 -1.7357528 -0.18690448 34
10.356192 -2.0750113 -0.20427652 0
10.450134 -2.898078 -0.27374694 0
11.963866 -1.5050241 -0.37536168 0
10.017873 -2.0072243 -0.37874666 0
9.9663095 -2.7639015 -0.44432759 0
11.523346 -1.4496077 -0.56701159 5
9.4849825 -1.9004523 -0.52982485 7
9.1530952 -2.5383775 -0.57596457 11
11.087897 -1.3948294 -0.74363291 12
8.9579964 -1.794863 -0.66209227 22
8.7191887 -2.4180446 -0.70893639 16
11.219525 -1.4113879 -0.95253658 3
8.5638866 -2.3749752 -0.85353941 0
11.066962 -1.3921958 -1.1371316 5
8.71523 -1.7462212 -0.95868868 45
8.72859 -1.7488981 -1.1179645 35
8.6810398 -1.7393707 -1.2685655 0
9.2813911 -1.8596598 -1.5255067 2
8.5130358 -1.7057086 -1.5527962 4
7.8082418 -1.5644932 -1.5662611 4
7.2249479 -1.4476218 -1.5798141 5
6.7125492 -1.3449553 -1.5892016 8
6.308908 -1.2640802 -1.6072335 7
4.7397509 -0.94967693 -1.6629546 7
1.7027557 -0.3411715 -0.80949414 5
6.4071941 -1.3303651 1.7273721 19
5.264255 -1.0930495 1.0389589 20
8.8977213 -1.8474886 1.2713429 20
13.757706 -2.8565969 1.2199259 38
13.759931 -2.857059 0.72298157 31
13.789858 -2.8632729 0.47533461 35
13.720668 -3.9084349 0.39675465 90
13.767618 -1.8296552 0.30450681 54
13.788107 -2.8629093 0.2256459 23
13.748349 -3.9163203 0.14471464 46
13.778733 -1.8311324 0.058709212 45
10.962173 -2.2761433 -0.018563662 0
13.76405 -3.9207928 -0.10790892 45
13.706247 -1.8214992 -0.18582939 1
10.345368 -2.1480722 -0.20435387 0
10.437339 -2.9731541 -0.27394882 0
11.469556 -1.5242529 -0.36017796 0
10.011443 -2.0787375 -0.37904301 0
9.9967356 -2.847645 -0.44655952 0
11.101063 -1.4752818 -0.54672635 7
9.451932 -1.9625626 -0.52873105 11
9.1812305 -2.6153424 -0.57886982 10
10.789073 -1.4338198 -0.72424537 5
8.9139977 -1.8508681 -0.65977931 17
8.7481174 -2.4919667 -0.7126857 17
10.743164 -1.4277188 -0.91291749 4
8.7179375 -1.810159 -0.80279624 7
8.5470972 -2.4347045 -0.85353941 0
10.690117 -1.4206691 -1.099403 7
8.6677818 -1.7997447 -0.9548282 69
8.6850815 -1.8033369 -1.1139771 37
8.6415482 -1.7942977 -1.2645941 6
9.2991152 -1.9308324 -1.5305982 2
8.4816437 -1.7610958 -1.5492752 3
7.812501 -1.6221576 -1.5693488 4
7.2261539 -1.5004107 -1.5823298 5
6.7220712 -1.3957449 -1.5937241 8
6.2999296 -1.3080931 -1.6072335 5
4.7367091 -0.98351198 -1.6642557 6
1.6825837 -0.34936517 -0.80104434 4
6.4615455 -1.3911344 1.7447275 18
5.2752976 -1.1357419 1.0427535 19
8.876194 -1.9109946 1.2702345 19
13.775353 -2.9657562 1.2233857 35
13.750334 -2.9603696 0.72359812 48
13.791947 -2.9693289 0.47614413 33
13.722347 -4.0178952 0.39764422 66
13.761756 -1.931639 0.30468217 48
13.801939 -2.9714799 0.22622268 27
13.749981 -4.0259867 0.14503856 48
13.784746 -1.934866 0.058793686 41
10.941284 -2.3555968 -0.018557029 0
13.76565 -4.0305748 -0.10815019 45
11.632904 -1.6328273 -0.15787703 0
10.282428 -2.2137489 -0.20342569 0
10.399914 -3.0450888 -0.27354506 1
11.062148 -1.5527145 -0.34773228 0
9.9998446 -2.1529102 -0.37919119 0
10.033122 -2.9376926 -0.44913486 0
10.757607 -1.5099682 -0.5303421 5
9.4294825 -2.0301144 -0.52829355 9
9.2001305 -2.6937931 -0.58129084 11
10.414649 -1.4618295 -0.6998117 6
8.8884907 -1.913642 -0.65891194 13
8.7334423 -2.557147 -0.71299815 15
10.317955 -1.4482573 -0.87766325 5
8.6654892 -1.865631 -0.79920429 33
8.5519466 -2.5040052 -0.85583389 1
10.352335 -1.4530829 -1.0657312 5
8.627141 -1.8573749 -0.95182562 28
8.6405897 -1.8602704 -1.1099898 37
8.6513872 -1.8625951 -1.2679981 1
9.2808523 -1.9981153 -1.5299617 3
8.4800549 -1.8257082 -1.5513879 2
7.8003998 -1.6793822 -1.5693488 4
7.2149611 -1.5533406 -1.5823298 5
6.70785 -1.4441624 -1.5928196 10
6.3015532 -1.356689 -1.6101418 7
4.7293725 -1.0182073 -1.6642557 6
1.6835217 -0.36245275 -0.80273432 3
6.455451 -1.4370501 1.7457484 18
5.2787414 -1.1751024 1.0450302 17
8.8587704 -1.9720538 1.2696803 21
13.769873 -3.065316 1.2247696 35
13.760527 -3.0632355 0.7252422 39
13.782589 -3.0681469 0.47654891 35
13.720769 -4.1216483 0.39842263 71
13.767716 -2.0305848 0.30512056 68
13.796474 -3.0712378 0.22647902 23
13.756016 -4.1322365 0.14540298 46
13.782774 -2.0328054 0.058844369 43
11.00266 -2.4493058 -0.018689675 0
13.771652 -4.1369338 -0.10842162 45
11.193884 -1.650973 -0.15207155 0
10.313567 -2.2959068 -0.20435387 0
13.775318 -4.1380348 -0.36307806 45
10.750439 -1.5855699 -0.33827356 0
9.9845715 -2.2226686 -0.37919119 0
10.12719 -3.0421557 -0.45428547 0
10.462224 -1.5430614 -0.51629847 2
9.395587 -2.0915549 -0.5271998 7
9.2269859 -2.7717392 -0.58419609 12
10.088314 -1.4879138 -0.67856503 8
8.902174 -1.9817159 -0.66093576 10
8.7459316 -2.6272328 -0.71549773 15
9.9172134 -1.4626784 -0.84442347 4
8.6483641 -1.9252154 -0.79884511 30
8.7554321 -2.6300869 -0.87801367 5
9.8459024 -1.4521608 -1.0146151 18
8.6256094 -1.9201499 -0.95311242 5
8.6041479 -1.9153724 -1.1069992 40
8.6188498 -1.918645 -1.2651615 7
9.2859497 -2.0671484 -1.5331439 3
8.4709454 -1.88572 -1.5520921 3
7.769331 -1.7295334 -1.5654891 4
7.2115769 -1.6053716 -1.5840068 5
6.7052116 -1.4926494 -1.5946286 9
6.2995043 -1.4023348 -1.6120805 6
4.7221489 -1.0511992 -1.6642557 6
1.6809503 -0.37419692 -0.80273432 3
6.4490304 -1.4829495 1.7467693 22
5.2665815 -1.2110462 1.0442713 16
8.8447866 -2.0338516 1.2696803 22
13.775322 -3.1676245 1.2271914 34
13.762163 -3.1645987 0.72647524 45
13.788105 -3.1705639 0.47749338 34
13.726051 -4.2279305 0.39942342 48
13.765062 -2.1284838 0.30538359 53
13.801982 -3.1737547 0.22692762 26
13.75359 -4.236413 0.14568642 47
13.791965 -2.1326437 0.058945738 41
11.05936 -2.5430911 -0.018815687 1
13.769195 -4.2412195 -0.10863274 49
10.885634 -1.6832396 -0.14803995 0
10.320672 -2.3732305 -0.20481797 0
13.765202 -4.2399893 -0.36358276 44
13.951357 -2.1572905 -0.43945694 0
10.027244 -2.3057568 -0.38141388 0
10.117163 -3.116312 -0.45480055 0
10.182712 -1.5745471 -0.50303507 1
9.4041109 -2.1624677 -0.5285123 4
9.2493849 -2.8490169 -0.58685923 6
9.7818575 -1.5125632 -0.65864629 10
8.8881216 -2.0438166 -0.66093576 10
8.7616758 -2.698792 -0.7183097 15
9.6704159 -1.495331 -0.82427824 4
8.6153011 -1.9810817 -0.79704911 22
8.7634935 -2.6993518 -0.88069057 3
9.5720387 -1.480119 -0.98743427 1
8.5848637 -1.9740826 -0.95010984 15
8.5828304 -1.9736152 -1.1060023 45
8.6013861 -1.9778819 -1.2645941 5
9.2751408 -2.1328113 -1.5337802 3
8.4805984 -1.950107 -1.5563173 3
7.791492 -1.7916474 -1.5724366 3
7.2268748 -1.6618141 -1.5898767 5
6.7060194 -1.5420438 -1.597342 8
6.2933426 -1.4471492 -1.6130499 7
4.7110085 -1.0832926 -1.6629546 6
1.7277626 -0.39729765 -0.82639384 3
6.4121795 -1.521685 1.739623 19
5.2809258 -1.2532252 1.0488248 16
8.8265181 -2.0946355 1.2691261 21
13.77226 -3.2683177 1.2289213 36
13.766944 -3.2670562 0.7279138 44
13.788974 -3.2722843 0.47830293 35
13.753396 -4.3417072 0.40109137 40
13.765657 -2.2270846 0.30573431 56
13.798945 -3.2746506 0.22724804 29
13.811407 -4.3600202 0.14661771 42
13.792534 -2.2314332 0.059013318 42
11.084147 -2.6303973 -0.018888643 1
13.849866 -4.3721609 -0.10950735 40
10.549857 -1.7068148 -0.14363208 8
10.331092 -2.4516885 -0.2053594 0
13.853476 -4.3733006 -0.36671185 39
10.194442 -1.6493137 -0.3214719 7
10.02646 -2.3793957 -0.38200662 0
10.239976 -3.2325819 -0.46132466 31
10.025544 -1.6219884 -0.4958182 5
9.4004431 -2.2308347 -0.52916861 5
9.3016109 -2.9363565 -0.59145921 4
9.5346632 -1.5425709 -0.64271134 12
8.8736372 -2.1058176 -0.66093576 14
8.7844524 -2.7730985 -0.72174662 13
9.2308569 -1.4934195 -0.78768092 14
8.6051369 -2.0420992 -0.79740834 17
8.6457138 -2.7293012 -0.87074786 1
9.1490011 -1.4801764 -0.94483745 6
8.5708733 -2.033968 -0.95010984 19
8.5765667 -2.0353191 -1.1069992 39
8.5912209 -2.0387969 -1.2651615 4
9.260025 -2.1975119 -1.5337802 2
8.4514532 -2.0056283 -1.5535005 3
7.7749753 -1.8450923 -1.5716646 3
7.2150974 -1.7122266 -1.5898767 5
6.691299 -1.5879233 -1.5964376 11
6.290638 -1.4928417 -1.6149886 6
4.7143722 -1.1187755 -1.6668582 6
1.6967269 -0.40265307 -0.81287408 3
6.3826165 -1.5618163 1.7345184 20
5.272048 -1.2900618 1.0488248 14
8.4615211 -2.0705211 1.2186935 6
13.783944 -3.3729095 1.2320352 40
13.759321 -3.3668842 0.72873586 38
13.789092 -3.3741691 0.47911245 32
13.79123 -4.4597631 0.40309295 36
13.78132 -2.3284612 0.30643573 65
13.791287 -3.3747065 0.22750439 26
13.811078 -4.4661813 0.14694163 41
13.780564 -2.3283336 0.059030212 39
13.828007 -3.3836915 -0.023604169 22
13.838035 -4.4748983 -0.10965814 37
10.321493 -2.5256534 -0.20551409 0
13.849239 -4.4785218 -0.36741844 36
10.021253 -2.4521847 -0.38245115 0
10.201949 -3.2990727 -0.46063793 19
9.8367033 -1.6619875 -0.48704094 8
9.3923988 -2.2983053 -0.5296061 5
9.3226728 -3.0147355 -0.59412235 4
9.3701811 -1.583165 -0.63235354 16
8.8470936 -2.16487 -0.66006839 13
8.7990274 -2.8454008 -0.72455859 13
9.1140909 -1.5398966 -0.77861553 18
8.5945396 -2.1030705 -0.79776752 15
8.5961409 -2.7797921 -0.8676886 0
9.0050373 -1.521471 -0.93104422 22
8.5641909 -2.0956442 -0.95096773 80
8.5621481 -2.0951443 -1.1069992 33
8.7498522 -2.1410751 -1.2906916 4
9.2482939 -2.2630432 -1.5344167 2
8.4525442 -2.0683243 -1.5563173 3
7.7809663 -1.9039903 -1.5755243 3
7.2029681 -1.762555 -1.5898767 4
6.6914048 -1.6373763 -1.599151 11
6.2725239 -1.5348768 -1.6130499 7
4.6990986 -1.1498621 -1.6642557 6
1.7009176 -0.4162119 -0.81625402 5
6.3678074 -1.6053919 1.7334975 19
5.2781458 -1.3306766 1.0518605 14
13.783245 -3.4749026 1.2341111 45
13.770342 -3.4716494 0.7305854 33
13.788458 -3.4762168 0.479922 33
13.778739 -4.5622177 0.40364894 36
13.780482 -2.4273911 0.30678645 39
13.810051 -3.4816606 0.22820933 27
13.809939 -4.5725484 0.14726557 41
13.791549 -2.4293406 0.059148476 45
13.823441 -3.4850361 -0.023637332 29
13.836834 -4.5814538 -0.10989942 37
10.528937 -1.8546412 -0.14368585 0
10.350144 -2.6093812 -0.20644227 0
13.851801 -4.5864091 -0.3683269 36
10.186171 -1.7942637 -0.32196972 0
10.023268 -2.5269723 -0.38319203 0
13.832064 -4.579874 -0.62597311 52
9.8130569 -1.7285409 -0.48645577 2
9.4071083 -2.3716319 -0.53135616 4
9.3658352 -3.1010807 -0.59823811 3
9.2567034 -1.630541 -0.62544841 10
8.8433695 -2.2295074 -0.66093576 11
8.7940912 -2.9117732 -0.72580838 11
9.0049829 -1.5862011 -0.77022165 13
8.5951004 -2.1669161 -0.79920429 13
8.6483431 -2.8635149 -0.8749544 1
8.888381 -1.565662 -0.92009073 24
8.6264772 -2.1748264 -0.95954657 6
8.5550089 -2.1568089 -1.107996 4
8.7500486 -2.2059803 -1.292961 3
9.2360983 -2.3285184 -1.5350531 2
8.4493523 -2.1301715 -1.55843 4
7.7598724 -1.9563463 -1.5739805 3
7.1753173 -1.8089738 -1.5865225 3
6.6722546 -1.6821462 -1.597342 5
6.2691813 -1.5805273 -1.6149886 6
4.6982918 -1.1844893 -1.6668582 6
1.6909395 -0.42630383 -0.81287408 5
6.3339834 -1.6439779 1.7273721 17
5.264926 -1.3665053 1.0511016 13
7.4501877 -1.9336873 1.0768174 3
13.770222 -3.5740445 1.235149 32
13.757369 -3.5707088 0.73120195 28
13.79481 -3.5804265 0.48100138 32
13.79957 -4.6762662 0.4052057 36
13.782866 -2.5271423 0.30722484 69
13.816378 -3.5860243 0.22872202 28
13.815562 -4.6816859 0.14767048 40
13.782122 -2.5270057 0.059182264 42
13.829747 -3.5894942 -0.023690389 29
13.831031 -4.6869278 -0.11011053 35
10.507865 -1.9266579 -0.14357834 0
10.343288 -2.6845882 -0.20667432 0
13.857317 -4.6958351 -0.36933628 34
10.13407 -1.8581212 -0.32072514 0
10.044073 -2.6069272 -0.38467383 0
13.830032 -4.6865892 -0.62734663 50
9.7339449 -1.7847567 -0.48313993 2
9.3980541 -2.4392536 -0.53179365 5
13.836318 -4.6887188 -0.88585728 42
9.1940594 -1.6857666 -0.62199581 13
8.8430367 -2.2951996 -0.66209227 11
8.8528624 -2.9999733 -0.73236972 10
8.919199 -1.6353698 -0.76384234 7
8.5759068 -2.2258663 -0.79884511 13
8.6771641 -2.9404347 -0.87992573 0
8.8146076 -1.6161926 -0.91359979 32
8.5456438 -2.2180119 -0.95225453 12
8.5320606 -2.2144861 -1.1069992 34
8.7459335 -2.2699964 -1.294663 2
9.2463751 -2.3998854 -1.5395081 2
8.4418983 -2.1910846 -1.5598384 4
7.7498255 -2.0114579 -1.5747523 3
7.1776567 -1.8629522 -1.5898767 3
6.6641197 -1.7296643 -1.5982466 5
6.2617512 -1.6252301 -1.615958 6
4.7008915 -1.2201108 -1.6707618 7
1.6879222 -0.43809819 -0.81287408 6
6.3447719 -1.6941438 1.7334975 20
5.2856131 -1.4113334 1.0571729 9
8.8258286 -2.356621 1.2779933 19
13.725685 -3.6649518 1.2334191 38
13.766842 -3.6759412 0.73305154 27
13.78879 -3.6818018 0.48167601 33
13.79681 -4.7829671 0.4060953 33
13.784531 -2.6270468 0.30766323 68
13.760093 -3.6741395 0.22820933 22
13.820333 -4.7911215 0.14807539 35
13.78772 -2.6276546 0.059283633 41
13.765704 -3.6756377 -0.023624066 33
13.835765 -4.7964716 -0.11041212 35
10.502016 -2.0014675 -0.14368585 0
11.104798 -2.9651382 -0.22229865 0
13.8582 -4.8042493 -0.37024474 14
10.148343 -1.9340645 -0.32159635 0
10.0488 -2.6831717 -0.3855629 0
13.827184 -4.7934966 -0.6287201 54
9.7212477 -1.852669 -0.48313993 2
9.419384 -2.5151086 -0.5339812 3
13.852288 -4.8021998 -0.88900459 20
9.1389408 -1.7416933 -0.6190744 15
8.8306513 -2.357909 -0.66238141 12
8.9221306 -3.0930524 -0.7398684 9
8.848834 -1.6864049 -0.75880599 9
8.6063471 -2.2980163 -0.80315542 11
8.8934336 -3.0831039 -0.90401757 54
8.7679291 -1.6709862 -0.90994865 34
8.6413784 -2.3073702 -0.9646939 3
8.5355654 -2.2791166 -1.1094912 30
8.7336979 -2.3320208 -1.2952303 1
9.2370253 -2.4664164 -1.5407809 2
8.4225912 -2.248951 -1.5591342 4
7.750762 -2.0695629 -1.5778401 4
7.1644759 -1.9130163 -1.5898767 3
6.6518817 -1.7761465 -1.5982466 8
6.2427535 -1.6669035 -1.6140193 6
4.6995673 -1.254851 -1.6733643 7
1.7023363 -0.45454785 -0.82132393 5
6.3402491 -1.7404441 1.7355393 19
5.2566953 -1.4430008 1.0533783 8
8.851182 -2.4297132 1.2840896 21
13.715136 -3.7649038 1.234803 42
13.702321 -3.7613859 0.73099643 33
13.73962 -3.7716248 0.48086646 39
13.789463 -4.8885226 0.40687367 35
13.785469 -2.7270954 0.30810162 82
13.745679 -3.7732878 0.22840159 28
13.816707 -4.898181 0.14839931 40
13.784735 -2.7269499 0.059351213 45
13.76671 -3.7790611 -0.023670493 40
13.847182 -4.9089851 -0.11077403 15
10.530947 -2.0832729 -0.14427714 0
10.51691 -2.8869674 -0.21092847 0
10.122828 -2.0025373 -0.32122299 0
11.086 -3.0431871 -0.42616406 0
9.7355118 -1.9259169 -0.48450527 2
9.4285564 -2.5882068 -0.53551245 3
12.82118 -4.5452557 -0.82484716 2
9.0599985 -1.7922843 -0.61455947 19
8.837059 -2.4258363 -0.66411614 14
9.0130768 -3.1952391 -0.74924171 8
8.8016539 -1.7411774 -0.75578421 25
8.6054611 -2.3622611 -0.80459219 10
8.8829508 -3.1491079 -0.90516478 0
8.7287245 -1.7267503 -0.9071089 11
8.6212244 -2.3665884 -0.96426493 3
8.5232744 -2.3397002 -1.1099898 20
8.709568 -2.3908393 -1.2940956 1
9.2271986 -2.5329325 -1.5420538 2
8.4104834 -2.3087382 -1.5598384 4
7.7399096 -2.124661 -1.5786121 4
7.1471748 -1.961951 -1.5890381 3
6.6505923 -1.8256356 -1.60096 8
6.2421913 -1.7135265 -1.6169274 7
4.6761031 -1.2836239 -1.6681594 6
1.7026178 -0.46738085 -0.8230139 5
6.3093324 -1.779416 1.7304348 21
5.2842917 -1.4903246 1.0609676 8
8.8263788 -2.4892967 1.2829812 21
13.719201 -3.8692153 1.2375709 43
13.714175 -3.8677979 0.73305154 36
13.73604 -3.8739643 0.48167601 40
13.800109 -5.00102 0.40820804 36
13.77393 -2.8248768 0.30827698 62
13.745946 -3.8767581 0.22885019 26
13.819779 -5.0081482 0.14880422 44
13.788872 -2.8279412 0.059452582 44
13.77464 -3.8848507 -0.023730183 37
10.516147 -2.1567423 -0.14427714 0
10.523442 -2.9679179 -0.2114699 0
12.462674 -4.5163469 -0.33461323 0
10.089018 -2.0691431 -0.32060069 0
10.098844 -2.8481688 -0.38897103 0
12.451398 -4.5122604 -0.56897283 0
9.6944332 -1.9882182 -0.48313993 1
9.4563856 -2.6669769 -0.53813756 3
12.458803 -4.5149441 -0.80354202 1
9.0198965 -1.8498783 -0.6127004 14
8.8544655 -2.4972179 -0.66671824 11
12.58602 -4.5610466 -1.0488759 3
8.7697601 -1.7985783 -0.75410545 23
8.6155996 -2.4298506 -0.80710655 10
8.8944397 -3.2232552 -0.90860647 3
8.5509062 -2.4116054 -0.95825976 3
8.5334702 -2.406688 -1.1134787 28
8.6888533 -2.4505105 -1.2935283 1
9.2092896 -2.5972886 -1.5420538 2
8.405529 -2.3706045 -1.561951 4
7.7248878 -2.1786439 -1.5786121 5
7.1445961 -2.0149848 -1.5915537 3
6.6301847 -1.8699057 -1.599151 8
6.2300763 -1.7570635 -1.6169274 7
4.6706676 -1.3172647 -1.6694607 6
1.6888453 -0.47630367 -0.81794399 6
6.270752 -1.8158891 1.7232884 21
5.2737589 -1.5271791 1.0609676 8
8.8316164 -2.557466 1.2863064 21
13.737787 -3.978199 1.2417226 42
13.721373 -3.9734457 0.73490113 35
13.735539 -3.9775481 0.48262048 41
13.794858 -5.1083474 0.40909764 38
13.773432 -2.9251201 0.30871537 89
13.756963 -3.9837518 0.22949106 29
13.796183 -2.9299517 0.059570845 46
12.614493 -4.6712489 -0.10142474 0
10.46171 -2.2217963 -0.1437396 0
10.525515 -3.0479865 -0.211934 1
12.202099 -4.5185361 -0.32845592 0
10.093881 -2.1436787 -0.32122299 0
10.147824 -2.9386146 -0.39163828 0
12.224718 -4.5269122 -0.56004506 2
9.6685925 -2.0533586 -0.48255476 1
9.4682283 -2.7418168 -0.53988761 4
12.243515 -4.5338726 -0.79167897 1
9.0028582 -1.9119738 -0.6124348 12
8.8636408 -2.5667398 -0.66874212 11
12.292099 -4.5518637 -1.0270048 3
8.7374954 -1.8556178 -0.75242668 22
8.6060791 -2.4921548 -0.80782491 9
12.067931 -4.4688525 -1.2359495 1
8.6453762 -1.836054 -0.90102363 1
8.5529613 -2.476773 -0.96040446 3
8.524085 -2.468411 -1.1144755 23
8.7323866 -2.5287313 -1.3026057 6
9.2174854 -2.6692066 -1.5465088 2
8.3774281 -2.4259419 -1.5598384 4
7.7170296 -2.2347033 -1.580156 4
7.1491389 -2.0702531 -1.5957464 4
6.6094837 -1.9139794 -1.597342 7
6.221386 -1.8015937 -1.6178968 7
4.6649914 -1.3508917 -1.6707618 6
1.6819965 -0.48707381 -0.81625402 6
6.2696934 -1.8607395 1.7263511 20
5.2861047 -1.5688269 1.065521 5
8.8106623 -2.6148562 1.2857522 21
13.741663 -4.0782943 1.2444905 42
13.725355 -4.0734544 0.73654521 35
13.743349 -4.078795 0.48383477 37
13.801818 -5.2152715 0.41032082 36
13.769353 -3.0198317 0.30906609 90
13.764747 -4.085145 0.23006782 32
12.650297 -4.780148 0.13689989 0
13.795982 -3.0256717 0.059655316 45
13.770329 -4.086802 -0.023816403 35
12.306353 -4.6501822 -0.09919297 0
10.458465 -2.2937028 -0.14390086 0
13.737102 -4.0769405 -0.2771385 40
11.999795 -4.5343442 -0.32381272 0
10.075537 -2.2097206 -0.32109854 0
10.22008 -3.0331478 -0.39519456 0
11.981341 -4.5273709 -0.55025887 0
9.6664686 -2.1200058 -0.48313993 2
9.4957829 -2.8181884 -0.54251266 3
11.944262 -4.5133595 -0.77424747 1
8.9938774 -1.9724962 -0.6127004 11
8.8846693 -2.6368203 -0.67163336 9
11.989326 -4.5303879 -1.0041964 1
8.7016363 -1.9084033 -0.75041217 20
8.6008186 -2.5525782 -0.8089025 10
12.049201 -4.5530128 -1.2370968 2
8.6252346 -1.891647 -0.90021223 4
8.5592222 -2.5402331 -0.96297812 3
8.5341597 -2.532795 -1.1179645 24
8.7230158 -2.5888443 -1.3037404 2
9.1957941 -2.729157 -1.5458723 2
8.3762531 -2.4859309 -1.5626553 4
7.7020388 -2.2858355 -1.580156 4
7.1202531 -2.1131713 -1.5923922 4
6.6153207 -1.963316 -1.6018646 6
6.2093005 -1.8428159 -1.6178968 7
4.6486769 -1.379649 -1.6681594 6
1.6995828 -0.50440758 -0.82639384 5
6.2417507 -1.8999593 1.7222676 20
8.7203197 -2.654424 1.761449 21
8.811141 -2.6820695 1.2885232 21
13.743355 -4.1834121 1.2472583 12
13.723333 -4.1773176 0.73798376 34
13.74896 -4.1851182 0.48504907 38
13.798645 -5.3244543 0.41132161 69
13.779137 -3.1229563 0.30976751 65
13.751197 -4.1857991 0.23032416 32
12.344208 -4.7632337 0.13394405 0
13.794027 -3.1263311 0.059739791 42
13.775903 -4.1933198 -0.023876093 37
12.072076 -4.6582265 -0.097564384 0
10.442197 -2.3666594 -0.14390086 0
13.746564 -4.1843886 -0.27791199 49
11.751471 -4.5345154 -0.31795827 0
10.094956 -2.2879593 -0.32221863 0
10.217777 -3.1102428 -0.39593548 1
11.79285 -4.5504827 -0.54304796 0
9.6748114 -2.1927361 -0.48431024 1
9.5981464 -2.9216304 -0.5495128 3
11.763463 -4.5391426 -0.76456332 0
8.9954586 -2.0387652 -0.61376274 10
8.8813114 -2.703429 -0.67278987 10
11.704416 -4.5163589 -0.98295015 0
8.6764393 -1.9664613 -0.74940485 20
8.6056566 -2.6195211 -0.81105763 8
9.5728359 -3.69385 -0.98547095 0
8.6040564 -1.9500562 -0.89940089 5
8.6896591 -2.6450911 -0.97970694 4
8.5580349 -2.6050253 -1.1234472 28
8.6933661 -2.6462193 -1.3020383 1
9.172739 -2.7921383 -1.5452359 2
8.343627 -2.5397606 -1.5598384 4
7.6896486 -2.3406925 -1.5809278 4
7.1053271 -2.162828 -1.5923922 4
6.6014533 -2.0094512 -1.6018646 6
6.188859 -1.8838593 -1.615958 7
4.6461692 -1.4142718 -1.6707618 6
1.7029568 -0.51837194 -0.82977378 6
6.2424216 -1.9502757 1.7263511 22
8.7306175 -2.7276449 1.7675203 29
8.7988062 -2.7489488 1.2896316 22
13.780787 -4.3054338 1.2534859 36
13.719035 -4.2861414 0.73942232 35
13.752255 -4.2965198 0.48626339 43
13.792723 -5.4386611 0.41232237 56
13.775342 -3.2284405 0.31020591 58
13.796494 -4.3103409 0.23160589 30
12.089423 -4.7670264 0.13155508 0
13.794107 -3.2328386 0.05984116 43
13.84788 -4.3263955 -0.024055162 30
9.432868 -3.7195101 -0.076453082 8
10.471297 -2.4540925 -0.14454591 0
13.734609 -4.2910066 -0.27829874 53
9.3966522 -3.70523 -0.25497225 15
10.128517 -2.3737574 -0.32383657 0
10.301535 -3.2184355 -0.4000845 1
9.4430313 -3.7235177 -0.4360866 0
9.677927 -2.2681551 -0.48528549 1
9.6145945 -3.0038199 -0.55170035 2
9.4529848 -3.7274425 -0.61615378 16
8.9763861 -2.1037395 -0.61349714 15
8.910759 -2.7839255 -0.67654842 9
9.4006052 -3.7067883 -0.79173416 16
8.6695528 -2.0318289 -0.75007635 19
8.6242485 -2.6944129 -0.81464958 10
9.3491831 -3.686512 -0.96520317 15
8.5817814 -2.0112584 -0.89858949 16
8.6244841 -2.6944864 -0.97455961 2
8.5728045 -2.6783404 -1.1279329 30
8.63972 -2.6992466 -1.2969323 2
9.1708727 -2.865191 -1.548418 2
8.332303 -2.6032023 -1.5612469 4
7.6797757 -2.399338 -1.5824717 4
7.089282 -2.2148542 -1.5923922 4
6.5977035 -2.0612738 -1.604578 10
6.1897001 -1.9338042 -1.6198355 7
4.6392875 -1.4494197 -1.672063 6
1.7025717 -0.53192246 -0.83146369 6
6.2360215 -1.9961659 1.728393 21
8.7151022 -2.7897258 1.7682792 26
8.8020382 -2.8175542 1.2929568 23
13.792142 -4.4148989 1.2572917 39
13.787696 -4.4134755 0.74476558 32
13.817111 -4.4228916 0.48963648 34
9.3402443 -3.7585413 0.27999669 39
13.779677 -3.3311098 0.31081966 90
13.815585 -4.4224029 0.232439 30
9.3025589 -3.743377 0.10151079 17
13.786754 -3.3328204 0.059908736 48
13.844007 -4.4315009 -0.024101589 32
9.2545319 -3.7240508 -0.075216562 23
10.504449 -2.5393536 -0.14524472 0
13.810966 -4.4209247 -0.28046447 44
9.218461 -3.7095356 -0.25083375 20
10.111699 -2.4444098 -0.32383657 0
13.849751 -4.4333396 -0.53907681 49
9.301878 -3.7431028 -0.43076426 16
9.6735067 -2.3384809 -0.48587063 1
9.6466446 -3.0879147 -0.5547629 2
9.2674599 -3.7292531 -0.60574335 29
8.9498415 -2.1635416 -0.6127004 13
8.9253035 -2.8570118 -0.67915058 8
9.2117214 -3.7068236 -0.77798659 29
8.6667805 -2.0951142 -0.75108367 18
8.6279936 -2.761842 -0.81680477 11
9.1680784 -3.6892614 -0.94914198 24
8.583003 -2.0748618 -0.90021223 7
8.6281881 -2.7619045 -0.97713327 1
8.584136 -2.7478034 -1.1319203 1
8.6470633 -2.7679465 -1.3009037 1
9.1581688 -2.9315526 -1.5496908 3
8.3101759 -2.6601079 -1.5605427 4
7.6740527 -2.4564834 -1.5847875 4
7.0922718 -2.2702537 -1.5965849 5
6.5720196 -2.1037197 -1.6018646 8
6.1575685 -1.971053 -1.6149886 6
4.6290555 -1.4817722 -1.672063 6
1.6884581 -0.5404796 -0.82639384 7
6.2329588 -2.043267 1.7314557 22
5.2918873 -1.7347683 1.0761459 5
8.7972107 -2.8838711 1.2951736 19
13.802638 -4.5247331 1.2610976 34
13.786917 -4.5195794 0.74640965 29
13.812488 -4.5279622 0.49058095 33
9.1806164 -3.76899 0.27599356 22
13.775488 -3.432061 0.31125805 61
13.837581 -4.5361881 0.2333362 28
9.1392946 -3.7520256 0.10001263 22
13.798081 -3.43769 0.060060792 43
13.839338 -4.5367641 -0.024148015 32
9.0840006 -3.7293253 -0.074040361 22
10.505871 -2.61746 -0.14551349 0
13.810168 -4.5272017 -0.28108326 44
9.0406742 -3.7115383 -0.24669524 21
10.152579 -2.5294402 -0.32570344 0
13.845051 -4.5386372 -0.54011405 47
9.1239462 -3.7457247 -0.42372507 26
9.6685753 -2.408854 -0.48645577 1
13.849009 -4.5399342 -0.79823732 41
9.0934572 -3.7332077 -0.5960592 24
8.957757 -2.2317588 -0.61429393 14
8.9544249 -2.9354086 -0.68290913 8
9.0454359 -3.7134929 -0.7661137 22
8.6635447 -2.1584582 -0.75209093 20
8.6425734 -2.8331785 -0.82003748 8
8.9947643 -3.6926904 -0.93384558 24
8.5992002 -2.142427 -0.9034577 8
8.5784645 -2.8121626 -0.97370172 0
8.5949144 -2.8175554 -1.1359078 0
8.6237659 -2.8270133 -1.3003364 1
9.1675005 -3.0052583 -1.5547823 2
8.3175936 -2.7266448 -1.5654721 4
7.6753635 -2.5161111 -1.5886472 4
7.0613837 -2.3148384 -1.5932308 5
6.5608759 -2.1507638 -1.602769 11
6.1620965 -2.0200372 -1.6198355 6
4.6365695 -1.5199442 -1.6785691 6
1.7018691 -0.55790085 -0.83484364 8
6.2148762 -2.0855007 1.7304348 22
5.2945409 -1.7766675 1.0791816 2
8.7881298 -2.948997 1.2968363 25
13.797159 -4.6298566 1.2635194 37
13.781538 -4.6246147 0.74784821 29
13.810861 -4.6344543 0.49166033 37
8.9881124 -3.7634954 0.27098966 20
13.774433 -3.5341113 0.31178412 63
13.828326 -4.6403151 0.2337207 28
8.9653006 -3.7539439 0.098392993 25
13.804743 -3.5418878 0.060195949 45
13.849043 -4.6472669 -0.02422097 31
8.9175425 -3.7339466 -0.07289432 24
10.549327 -2.7066448 -0.14637357 0
13.81614 -4.6362262 -0.28185675 47
8.874383 -3.7158749 -0.24285956 22
10.1734 -2.610193 -0.32694799 0
13.843346 -4.6453552 -0.54129952 54
8.9648705 -3.7537637 -0.41754434 26
9.6708727 -2.4812593 -0.48743102 1
13.866201 -4.6530247 -0.80108118 44
8.9161768 -3.7333748 -0.58613294 24
8.9574213 -2.298209 -0.61535627 13
8.975318 -3.011811 -0.68608952 7
8.8795128 -3.7180231 -0.75424081 5
8.6598482 -2.2218604 -0.75309819 20
8.6527977 -2.903584 -0.82291102 11
8.8145113 -3.6908057 -0.91778433 19
8.5801792 -2.2014196 -0.90305203 10
8.618948 -2.8922253 -0.98056483 0
8.6201868 -2.8926411 -1.1418889 12
8.6300964 -2.8959665 -1.3043077 0
9.131321 -3.0641601 -1.5522366 2
8.3020887 -2.785898 -1.5661764 4
7.6427269 -2.5646389 -1.5855595 4
7.0672984 -2.3715446 -1.5982621 4
6.5493946 -2.1977537 -1.6036736 8
6.1404858 -2.0605378 -1.6178968 7
4.6222591 -1.5510727 -1.6772679 7
1.6910586 -0.56746167 -0.83146369 7
6.1965075 -2.1275818 1.7294139 21
8.7067709 -2.9894853 1.7789041 27
8.7898083 -3.0179963 1.3001615 19
13.805961 -4.7403011 1.2673252 33
13.790477 -4.7349849 0.75010878 32
13.808418 -4.7411451 0.49273971 30
8.8218822 -3.7664921 0.26676413 22
13.780358 -3.6383543 0.31248555 67
13.81829 -4.7445345 0.23410523 27
8.806447 -3.7599022 0.096935317 40
13.799017 -3.6432805 0.060280424 43
13.831394 -4.7490339 -0.024247499 29
8.7956123 -3.7552764 -0.072110184 47
10.549511 -2.7853308 -0.14664234 0
13.825045 -4.7468538 -0.28270757 43
8.7967386 -3.7557571 -0.24144641 43
11.171582 -2.949573 -0.35968015 0
13.855946 -4.7574635 -0.54307765 47
8.8061333 -3.7597682 -0.41136357 47
9.6842175 -2.5568721 -0.48899144 1
13.844712 -4.7536063 -0.80173743 38
8.7834082 -3.7500656 -0.57911193 16
8.9334412 -2.3586488 -0.61482507 12
9.082366 -3.1184466 -0.69591969 4
8.8129978 -3.7626991 -0.75080395 2
8.6518335 -2.2842972 -0.7537697 20
8.6812992 -2.9807396 -0.82758051 12
8.7995167 -3.7569432 -0.91893154 9
8.6723318 -2.2897093 -0.91441119 3
8.6662512 -2.9755728 -0.98828578 0
8.6485806 -2.9695055 -1.1483684 35
8.6546087 -2.9715753 -1.3111157 0
9.1395864 -3.1380932 -1.557328 3
8.2526445 -2.8335602 -1.5605427 4
7.6246367 -2.6179326 -1.5855595 4
7.05057 -2.4208257 -1.5982621 5
6.5412626 -2.2459543 -1.6054826 8
6.1443033 -2.1096575 -1.6227436 7
4.6005859 -1.5796193 -1.6733643 6
1.6836268 -0.57807624 -0.82977378 8
6.1669073 -2.1656632 1.7253302 21
8.730154 -3.0658114 1.7880111 26
8.7872133 -3.085849 1.3029325 22
13.798851 -4.8458104 1.269747 31
13.787238 -4.8417325 0.75175285 29
13.820246 -4.8533239 0.49435878 30
8.7587099 -3.8120308 0.26565215 46
13.731466 -3.7281835 0.31195948 77
13.822567 -4.8541389 0.23474608 28
8.7763166 -3.8196938 0.09689483 48
13.738503 -3.7300942 0.060128368 54
13.839418 -4.8600569 -0.024320453 30
8.7838516 -3.8229735 -0.072230816 47
10.603147 -2.8788242 -0.14766368 0
13.821756 -4.8538542 -0.28332636 45
8.7886372 -3.8250563 -0.24195109 41
10.197699 -2.7687423 -0.32893932 0
8.7760067 -3.8195591 -0.41119188 51
9.7008324 -2.6338401 -0.49074689 1
8.7899628 -3.8256333 -0.58129084 49
8.9475708 -2.4293244 -0.61694974 12
9.1732998 -3.2214329 -0.70459342 1
8.8047981 -3.8320899 -0.75236619 52
8.651062 -2.3488202 -0.75511271 19
8.7129021 -3.0597529 -0.83260924 14
8.8095827 -3.8341725 -0.92275566 52
8.5486059 -2.321003 -0.90305203 4
8.6865425 -3.0504959 -0.99300414 19
8.7137661 -3.0600562 -1.1598321 22
8.6971626 -3.0542257 -1.3207605 8
9.1100044 -3.1992052 -1.5560551 3
8.2623825 -2.9015415 -1.5661764 4
7.6024718 -2.6697977 -1.5847875 4
7.0408783 -2.47258 -1.5999391 5
6.5364528 -2.2954383 -1.608196 7
6.1257639 -2.1512148 -1.6217743 6
4.6001525 -1.6154583 -1.6772679 7
1.6795501 -0.58981591 -0.82977378 8
6.1370769 -2.2034359 1.7212467 19
8.7270193 -3.1333203 1.7918056 34
8.7915545 -3.1564908 1.3068119 22
13.787187 -4.9501061 1.2718229 29
13.786938 -4.9500165 0.75360245 28
13.812364 -4.9591455 0.49530324 32
8.7574673 -3.8844335 0.26643053 41
13.720511 -3.8282537 0.31231019 75
13.825984 -4.9640355 0.23538694 29
8.7786865 -3.8938453 0.097218759 47
13.74295 -3.8345149 0.060263529 49
8.7935114 -3.9004211 -0.072532408 43
10.636725 -2.9678257 -0.14841624 5
8.7982721 -3.9025328 -0.2429605 40
10.21663 -2.8506119 -0.33018386 0
12.584291 -4.5182223 -0.49566025 0
8.7783518 -3.8936968 -0.41256538 53
9.7322359 -2.7154577 -0.49328256 0
12.762043 -4.5820417 -0.74267358 2
8.7922382 -3.8998566 -0.58322769 50
8.9534597 -2.4981661 -0.61854327 11
12.541222 -4.502759 -0.96567172 0
8.8106375 -3.9080174 -0.75517815 46
8.6382933 -2.4102292 -0.75544846 19
8.9612923 -3.2174327 -0.8584711 18
8.8153572 -3.9101107 -0.92619735 47
8.5475264 -2.3849039 -0.90467477 5
8.7511234 -3.1419744 -1.0028698 24
8.8901644 -3.1918955 -1.1862485 5
8.8433275 -3.1750791 -1.3462906 0
9.0762978 -3.258724 -1.5541458 3
8.2604532 -2.965806 -1.5696975 4
7.5947289 -2.7267866 -1.5871034 4
7.0308065 -2.5243177 -1.6016163 5
6.4945974 -2.3317988 -1.6018646 7
6.1105962 -2.1939282 -1.6217743 7
4.5923223 -1.6488123 -1.6785691 7
1.6753914 -0.60152704 -0.82977378 8
6.0997601 -2.2382336 1.7151213 20
8.7196798 -3.1995814 1.7948413 29
8.787899 -3.2246137 1.3095829 22
13.782222 -5.0572205 1.2745907 28
13.797047 -5.0626602 0.75606859 29
13.814936 -5.0692244 0.49665248 29
8.7556419 -3.9570034 0.26720893 44
13.712673 -3.929456 0.31274858 102
13.824782 -5.0728374 0.23596372 27
8.7731571 -3.9649193 0.0974617 45
13.746608 -3.9391801 0.060398687 51
13.822783 -5.072104 -0.024413304 1
8.7915831 -3.9732463 -0.07274352 44
13.753179 -3.9410632 -0.19227993 44
12.547451 -4.604136 -0.2584976 0
8.8036079 -3.9786808 -0.24386895 44
10.342528 -2.9637191 -0.33491322 0
12.323533 -4.5219722 -0.48662129 0
8.7910137 -3.9729891 -0.41445395 49
9.7668114 -2.7987435 -0.49601325 0
12.474773 -4.5774679 -0.72779822 1
8.7975435 -3.9759402 -0.5854066 46
8.9780045 -2.572706 -0.62146467 10
12.352176 -4.5324821 -0.95352852 3
8.8013096 -3.9776421 -0.75674039 46
8.6442461 -2.4770651 -0.75746298 18
12.502836 -4.5877652 -1.2007819 1
8.8059874 -3.9797564 -0.92810941 44
8.5842237 -2.4598653 -0.91035438 0
8.8932495 -3.2632709 -1.0217434 11
8.9794407 -3.2948978 -1.2012012 0
10.055059 -3.6895833 -1.5346465 3
9.0866919 -3.3342524 -1.5598736 1
8.2469406 -3.0261154 -1.571106 4
7.5644541 -2.7756853 -1.5847875 4
6.9873104 -2.5639095 -1.5957464 5
6.5110812 -2.389163 -1.610005 4
6.0987744 -2.2378719 -1.6227436 6
4.5771484 -1.6795295 -1.6772679 7
1.6643441 -0.61071104 -0.82639384 8
6.0767426 -2.2780471 1.7130795 19
5.6853123 -2.1313078 1.1732874 10
8.7985563 -3.2983997 1.3145708 23
13.776432 -5.1645041 1.2773585 23
13.787551 -5.1686721 0.75750715 47
13.816644 -5.1795788 0.49800172 32
8.7495966 -4.0280643 0.26787612 39
13.727107 -4.0375037 0.31371304 83
8.7743301 -4.0394511 0.097785629 47
13.737959 -4.0406952 0.060483158 47
12.528563 -4.6967034 -0.022184869 0
8.7817974 -4.0428886 -0.07289432 48
13.759864 -4.0471382 -0.19276372 41
12.282827 -4.6045818 -0.25370201 0
8.7937794 -4.0484047 -0.24437363 41
10.321586 -3.0358503 -0.33491322 0
12.078319 -4.5279155 -0.47817504 0
8.7957344 -4.049305 -0.41599914 54
9.7853632 -2.8781331 -0.49796376 0
12.008689 -4.5018129 -0.70242262 1
8.794961 -4.0489488 -0.58710134 48
8.9789696 -2.6409514 -0.6227926 10
12.066208 -4.5233755 -0.93386817 1
8.7950602 -4.0489945 -0.75861508 46
8.6458607 -2.5429754 -0.75914174 18
12.142235 -4.5518765 -1.169173 1
8.8250074 -4.0627813 -0.93308073 45
8.5553885 -2.5163651 -0.90913731 0
12.173322 -4.5635304 -1.4022162 3
11.271459 -4.2254405 -1.5117192 4
10.066133 -3.7735884 -1.5403199 4
9.0484018 -3.3920617 -1.557328 1
8.2256136 -3.0836151 -1.571106 4
7.5522423 -2.8311818 -1.5863314 4
6.9875522 -2.6194911 -1.5999391 5
6.4796495 -2.4290888 -1.606387 5
6.09027 -2.2831182 -1.6246824 6
4.5653114 -1.7114424 -1.6772679 7
1.66004 -0.62231517 -0.82639384 8
6.0570788 -2.3190324 1.7120585 19
8.699831 -3.3308449 1.8001537 24
8.7753153 -3.359745 1.3145708 22
13.721434 -5.2534318 1.2756287 29
13.784707 -5.2776566 0.75935674 38
13.813748 -5.2887754 0.49921602 32
8.7538443 -4.1043262 0.26887688 46
13.7407 -4.1459455 0.31467751 77
12.497617 -4.7848773 0.2144309 0
8.7676439 -4.1107969 0.098028578 46
13.74005 -4.1457496 0.060618319 51
12.192887 -4.6682076 -0.021647658 0
8.7787094 -4.1159849 -0.073105432 48
13.761907 -4.1523442 -0.19319376 38
12.097252 -4.6315923 -0.25053072 0
8.7978868 -4.1249762 -0.2452821 44
13.775624 -4.1564832 -0.44791999 35
11.89336 -4.5535297 -0.47209969 0
8.7853422 -4.1190944 -0.41685757 50
9.8338804 -2.9671512 -0.50147468 0
11.801659 -4.5184202 -0.69214112 0
8.7917843 -4.1221151 -0.58879608 48
9.0061665 -2.7174072 -0.6259796 12
11.766077 -4.5047975 -0.91305125 0
8.7990751 -4.1255331 -0.76142704 45
8.6660566 -2.6147869 -0.76249933 19
12.013428 -4.5994992 -1.159834 2
8.8180599 -4.1344347 -0.93537521 45
8.6519041 -2.6105165 -0.9213078 2
12.156021 -4.6540928 -1.403932 2
11.256511 -4.3097034 -1.513713 5
10.069126 -3.8550973 -1.5448586 3
9.0281887 -3.4565611 -1.5579643 2
8.2112398 -3.1437812 -1.5725143 4
7.5432887 -2.8880475 -1.5886472 4
6.9727468 -2.6696079 -1.6007776 5
6.4843664 -2.4826252 -1.611814 5
6.0596857 -2.3200305 -1.6208049 7
4.5532522 -1.7432727 -1.6772679 6
1.6658124 -0.63777822 -0.83146369 7
6.0263333 -2.3556294 1.7079749 20
5.3770061 -2.1018143 1.1156096 1
8.7885427 -3.4353476 1.3201127 21
13.69927 -5.3548985 1.2770126 18
13.781012 -5.3868508 0.76120633 52
13.821171 -5.4025483 0.50083512 35
8.7646694 -4.184289 0.27010006 41
13.734344 -4.2488627 0.31520358 68
12.251583 -4.7890134 0.21077801 0
8.7784367 -4.1908617 0.098473974 46
13.748986 -4.2533922 0.060787264 54
9.4552946 -3.6959739 -0.016832646 1
8.7930765 -4.1978502 -0.073467337 44
13.766973 -4.2589564 -0.19367754 39
11.900733 -4.6518698 -0.24712741 0
8.7977428 -4.2000785 -0.24608961 45
13.807383 -4.2714581 -0.4499113 42
11.649075 -4.5534987 -0.46365348 0
8.7780094 -4.1906576 -0.41788769 55
9.9159784 -3.0676115 -0.50674105 0
9.4597569 -3.6977184 -0.5562942 0
8.7952194 -4.198874 -0.59097499 50
9.0174789 -2.7896512 -0.62810421 13
9.4640169 -3.6993835 -0.73639697 19
8.8060455 -4.204042 -0.76455152 44
8.6780539 -2.6846464 -0.76518536 19
11.832608 -4.6252403 -1.1454663 2
8.8069468 -4.2044725 -0.93728727 44
8.6410723 -2.6732059 -0.9221192 1
9.4637527 -3.69928 -1.0959506 1
9.4629383 -3.6989615 -1.2759649 19
9.4224119 -3.6831203 -1.449546 16
9.0038385 -3.5195043 -1.5579643 2
8.1927595 -3.2024624 -1.5732186 4
7.5192881 -2.9392095 -1.5878752 4
6.9575825 -2.7196448 -1.6016163 5
6.459619 -2.524996 -1.610005 5
6.0614138 -2.3693421 -1.6256518 6
4.548017 -1.7777715 -1.6798704 6
1.6714494 -0.65335172 -0.83653361 7
6.0169258 -2.4005103 1.7100167 17
5.2819505 -2.107285 1.0989134 5
8.7496271 -3.4907477 1.3178959 37
9.3162079 -3.7167909 0.87083191 21
9.3908491 -3.7465696 0.52014393 12
9.3904905 -3.7464266 0.34122089 19
8.7604179 -4.2576103 0.27087846 45
13.761528 -4.3627706 0.31651872 39
9.3426247 -3.72733 0.16117565 14
8.7849398 -4.2695284 0.098878883 45
13.814281 -4.3794947 0.061209634 44
9.3215189 -3.7189097 -0.016640309 15
8.7887383 -4.2713742 -0.073678449 44
13.843657 -4.3888078 -0.19518268 33
9.4015093 -3.7508223 -0.19576822 16
8.8077679 -4.280623 -0.24719994 43
13.853449 -4.391912 -0.45240045 41
9.3596859 -3.7341366 -0.37356037 12
8.7736998 -4.2640657 -0.41908953 51
10.035234 -3.1814363 -0.51395792 3
9.3224211 -3.7192695 -0.54973155 16
8.7872381 -4.2706456 -0.59242761 19
9.0320253 -2.8633924 -0.63049448 13
9.2823277 -3.703274 -0.72425377 32
8.8015881 -4.2776194 -0.76673859 10
8.689496 -2.7548015 -0.76787138 17
9.3578777 -3.7334154 -0.90839893 22
8.8131914 -4.2832584 -0.94111133 4
8.6108198 -2.7298591 -0.92090213 1
9.3231878 -3.7195754 -1.0826534 24
9.2820606 -3.7031672 -1.255031 19
9.2456837 -3.6886544 -1.4262851 22
9.0010548 -3.5910573 -1.561783 6
8.1665449 -3.2581215 -1.5725143 4
7.5131655 -2.9974496 -1.590963 4
6.9420586 -2.7696011 -1.6024548 5
6.4454527 -2.5714753 -1.6109096 8
6.0591426 -2.4173532 -1.6295294 7
4.5390081 -1.8108809 -1.6811715 7
1.6735821 -0.66769165 -0.83991355 6
6.0179315 -2.449748 1.7151213 20
5.1943603 -2.1144929 1.0837351 5
8.7800798 -3.5741491 1.3262089 24
9.1497793 -3.7246442 0.85768467 19
9.2423677 -3.7623346 0.51336211 20
9.2197027 -3.7531083 0.3359589 21
8.7555685 -4.3310761 0.27165684 37
13.787788 -4.4772625 0.3178339 41
9.1756115 -3.7351601 0.15874039 17
8.7764301 -4.3413954 0.099121831 7
13.813806 -4.4857111 0.061344791 41
9.1434336 -3.7220612 -0.016368387 18
13.843114 -4.4952283 -0.19561271 33
9.2417479 -3.7620823 -0.19298369 25
13.849069 -4.4971619 -0.45327163 38
9.189002 -3.7406108 -0.36778137 23
8.7974482 -4.3517923 -0.42166483 7
10.210375 -3.3155811 -0.52410054 1
9.1482592 -3.7240255 -0.54098135 27
8.7929974 -4.3495908 -0.59484869 16
9.0459795 -2.9374709 -0.63288474 9
9.1084442 -3.707818 -0.71268886 25
9.1968594 -4.5493679 -0.80391949 1
8.6927996 -2.8227837 -0.7698859 16
9.1913729 -3.7415757 -0.89474958 25
9.2149105 -4.5582967 -0.98738301 1
8.6029072 -2.7935934 -0.9221192 0
9.1533394 -3.7260935 -1.0659245 30
9.1052685 -3.7065248 -1.2345957 21
9.0583439 -3.6874232 -1.4013224 21
8.9977112 -3.6627412 -1.5656015 7
8.154542 -3.3195083 -1.574627 5
7.5065975 -3.0557466 -1.5940508 4
6.9442897 -2.8268452 -1.607486 5
6.4381704 -2.6208167 -1.613623 8
6.0313363 -2.4552047 -1.6266211 6
4.5122423 -1.83682 -1.6759666 6
1.7259644 -0.7025966 -0.86864299 3
5.9979787 -2.4881248 1.7141004 21
5.1149254 -2.1218102 1.0700746 6
8.7708178 -3.6383741 1.3284258 23
8.9702787 -3.7211156 0.84315354 20
9.058548 -3.7577322 0.50452524 17
9.0358257 -3.7483063 0.33015719 19
13.813328 -6.9473791 0.43000287 36
13.807129 -4.5849929 0.31897372 40
8.9954796 -3.7315695 0.15604879 16
10.505509 -5.28372 0.11904337 1
13.821712 -4.5898356 0.061513737 42
8.9670639 -3.7197819 -0.016096465 19
10.219878 -5.1400623 -0.086254753 0
13.839565 -4.5957646 -0.195989 33
9.0540562 -3.7558687 -0.18958037 26
9.9061203 -4.9822588 -0.27990422 0
13.85688 -4.6015143 -0.4545162 41
9.0236883 -3.7432714 -0.36215055 28
9.3896065 -4.7224793 -0.45153847 0
13.828142 -4.5919714 -0.71134895 46
8.9684134 -3.7203417 -0.53179365 25
9.0755396 -3.0137539 -0.63633734 8
8.9362507 -3.707 -0.70112389 26
9.1272984 -4.5905519 -0.80048257 0
8.7268448 -2.8979611 -0.7745865 16
9.0118036 -3.7383413 -0.87966353 25
9.0742064 -4.5638499 -0.97552824 1
8.6408377 -2.8694005 -0.92820442 1
8.9741421 -3.7227185 -1.0479089 28
8.9118528 -3.6968791 -1.2116681 16
8.8581352 -3.6745956 -1.3740902 1
8.9586306 -3.7162838 -1.5630558 10
8.1541681 -3.3825707 -1.5788523 5
7.4825411 -3.1039617 -1.5932789 4
6.8964872 -2.8608506 -1.6007776 5
6.4134483 -2.6604729 -1.611814 8
6.0185041 -2.4966393 -1.6275905 7
4.5104423 -1.8710541 -1.6798704 7
1.7648007 -0.73208731 -0.89061254 1
5.9555292 -2.5193894 1.706954 15
5.0710516 -2.1452258 1.0640032 1
8.745204 -3.6995161 1.3284258 23
8.8119583 -3.7277551 0.83069825 22
8.8922901 -3.7617381 0.49671587 17
8.8584824 -3.7474365 0.32462534 19
13.807203 -7.0655031 0.43133724 56
13.789928 -4.6864185 0.31932443 38
8.8181868 -3.7303901 0.15342127 15
10.49329 -5.369688 0.11932682 0
