# .PCD v0.7 - Point Cloud Data file format
VERSION 0.7
FIELDS x y z intensity
SIZE 4 4 4 4
TYPE F F F F
COUNT 1 1 1 1
WIDTH 1378
HEIGHT 1
VIEWPOINT 0 0 0 1 0 0 0
POINTS 1378
DATA ascii
6.6196136 1.2927185 -1.5656847 11
6.2312164 1.2168701 -1.5859072 6
4.7109241 0.91997808 -1.6512436 6
1.6759367 0.32728714 -0.79597443 3
5.9066062 1.110727 1.5864872 20
5.2877817 0.99435806 1.0397178 2
7.4009418 1.3917341 1.0535408 13
13.738608 2.5835214 1.2136983 30
13.748523 2.5853858 0.71969342 29
13.762799 2.5880704 0.47263613 33
13.758183 1.5626831 0.38507885 39
5.6987581 1.5067409 0.12923785 45
5.8094172 1.0924507 0.094718732 8
13.77472 1.5645614 0.14034161 44
5.7232795 1.5132242 0.025004212 61
5.8258791 1.0955464 -0.0098289913 4
13.794907 1.5668541 -0.10468191 40
5.7421474 1.5182129 -0.079825468 36
5.8130064 1.0931257 -0.11439795 66
6.0312862 0.68504602 -0.1532256 10
5.7476163 1.5196589 -0.18506725 4
5.8297443 1.0962733 -0.2198983 9
13.782586 1.5654547 -0.59592777 37
5.7474222 1.5196075 -0.29023504 24
5.8485694 1.0998133 -0.32594508 40
13.809678 1.568532 -0.84276283 47
5.74157 1.5180602 -0.3951878 48
5.8420143 1.0985806 -0.43079367 7
13.792772 1.5666118 -1.0876191 45
5.7802019 1.5282744 -0.50363231 2
5.8532476 1.100693 -0.53699344 23
5.7861509 1.5298474 -0.61014837 1
5.8782778 1.1053998 -0.64513099 65
5.8545904 1.1009455 -0.74813408 1
5.9031868 1.1100839 -0.86065018 48
6.0078216 1.1297603 -0.98518336 36
6.1528163 1.1570263 -1.1197034 17
7.648828 1.4383488 -1.5307519 5
7.1070881 1.3364755 -1.5504651 5
6.6284771 1.2464736 -1.5656847 7
6.2433739 1.1740556 -1.5868765 6
4.7097979 0.88566929 -1.6486411 6
1.6710547 0.31423891 -0.79259449 3
5.894815 1.0680814 1.5813826 18
5.2710738 0.95506567 1.0351644 2
7.4061117 1.3419131 1.0529866 12
13.735835 2.4887955 1.2119683 31
13.753575 2.4920099 0.71907693 31
13.763927 2.4938853 0.47209644 32
13.764271 1.4709759 0.38496765 38
5.7047529 1.4679161 0.12915017 9
5.8244052 1.0553238 0.094846904 35
13.772863 1.4718941 0.14022014 41
5.7215681 1.472243 0.024953527 7
5.8172731 1.0540315 -0.0098024625 48
13.789087 1.4736279 -0.10456128 40
5.7520905 1.4800967 -0.079825468 40
5.8161931 1.0538357 -0.1143206 37
13.777136 1.4723506 -0.3497541 39
5.7459526 1.4785174 -0.18469389 6
5.8368869 1.0575854 -0.2198983 73
13.788692 1.4735857 -0.59575611 45
5.734159 1.4754827 -0.28906474 3
5.843945 1.0588642 -0.32528883 59
13.788018 1.4735136 -0.84082597 42
5.7515116 1.4799478 -0.3951878 54
5.8452468 1.0591 -0.43050453 4
13.79493 1.4742523 -1.0869942 44
5.7709098 1.4849392 -0.50195354 3
5.8643394 1.0625594 -0.53735262 55
13.793622 1.4741126 -1.3323169 17
5.8077312 1.494414 -0.61136544 1
5.8854799 1.0663899 -0.64513099 63
5.9086266 1.0705838 -0.75411516 1
5.9065232 1.0702027 -0.86008286 65
5.9530096 1.0786256 -0.97500056 43
8.2912951 1.5022995 -1.5070223 4
7.6466136 1.3854897 -1.5284361 5
7.1196442 1.2900081 -1.5513036 5
6.6289306 1.2010957 -1.5638757 8
6.2319303 1.1291631 -1.5820297 7
4.7192898 0.855088 -1.6499424 7
1.6873715 0.30573478 -0.79935437 3
5.8986759 1.0241799 1.5803617 19
5.2740641 0.91572928 1.0344054 1
7.3884282 1.2828438 1.0491072 19
13.718374 2.3819046 1.2088546 33
13.743923 2.3863406 0.71763831 28
13.766083 2.3901882 0.47155675 34
13.766726 1.3692495 0.38474527 38
5.7270002 1.4289633 0.1294132 17
5.8398662 1.0139688 0.094975077 25
13.767363 1.3693128 0.14005817 39
5.7244444 1.4283255 0.024919737 15
5.8406072 1.0140976 -0.0098289913 53
13.783598 1.3709276 -0.10444064 42
5.7589045 1.4369239 -0.079771712 41
5.8198218 1.0104885 -0.11424325 14
13.783579 1.3709257 -0.34965315 37
5.7449985 1.433454 -0.18432051 11
5.8444829 1.0147705 -0.2198983 62
13.799123 1.3724718 -0.59575611 45
5.7293148 1.4295409 -0.28828454 5
5.8515501 1.0159975 -0.32528883 61
13.802422 1.3727999 -0.84106809 40
5.7622056 1.4377475 -0.3951878 63
5.8528533 1.0162238 -0.43050453 8
13.801398 1.3726981 -1.0866817 38
5.7661705 1.4387368 -0.50061053 2
5.8719707 1.0195432 -0.53735262 58
13.808019 1.3733566 -1.3326993 17
5.8069468 1.4489111 -0.61014837 1
5.8970571 1.0238988 -0.64555997 63
5.8850327 1.0218111 -0.75012773 2
5.9103084 1.0261997 -0.85951555 61
5.9413023 1.031581 -0.97181845 54
8.3020849 1.441481 -1.5070223 4
7.6681652 1.3314142 -1.5307519 4
7.1173487 1.2357767 -1.5487881 4
6.6413956 1.1531374 -1.5647801 6
6.2515106 1.0854422 -1.5849378 7
4.717978 0.81917679 -1.6473399 6
1.6717073 0.2902565 -0.79090452 3
5.894237 0.98107016 1.577299 19
5.2687058 0.87695324 1.0321286 1
7.408927 1.2331837 1.0507698 14
13.734669 2.2860758 1.2088546 35
13.748425 2.2883656 0.71702182 26
13.76666 2.2914007 0.47101706 32
13.760022 1.2716343 0.38430047 36
5.7368369 1.3889471 0.1294132 29
5.8507476 0.97383147 0.095039159 24
13.772603 1.272797 0.14001769 38
5.7342763 1.3883272 0.024919737 9
5.8514905 0.97395515 -0.0098356241 53
13.784865 1.2739303 -0.10438032 41
5.7726831 1.3976259 -0.079825468 46
5.8346243 0.97114784 -0.11439795 36
13.780868 1.2735608 -0.34935033 41
5.7548661 1.3933122 -0.18432051 26
5.8474822 0.973288 -0.21975011 65
13.796431 1.274999 -0.59524101 42
5.7430382 1.3904486 -0.2884796 7
5.8624401 0.97577769 -0.32550758 64
13.795766 1.2749375 -0.84009969 43
5.7721024 1.3974854 -0.3951878 51
5.8794823 0.97861421 -0.43195015 5
13.810644 1.2763126 -1.0866817 38
5.7876959 1.4012607 -0.50161779 47
5.8828754 0.97917902 -0.5377118 55
13.801411 1.2754593 -1.3311697 20
5.8014503 1.4045907 -0.60852563 46
5.9001389 0.98205245 -0.64513099 61
5.9037681 0.98265654 -0.75162303 45
5.9329519 0.98751408 -0.86178488 1
5.9405684 0.98878181 -0.97054559 32
6.024219 1.0027051 -1.092239 26
6.0202522 1.0020448 -1.2003627 30
6.0686994 1.0101087 -1.3190274 30
6.0919743 1.0139827 -1.4336281 29
5.9947977 0.99780798 -1.5180506 20
4.727313 0.78684074 -1.6486411 6
1.6808454 0.27976942 -0.79428446 5
5.9314976 0.9447636 1.5854663 20
8.6683493 1.3806868 1.696182 15
7.4095316 1.1801834 1.0496614 14
13.738487 2.1882536 1.2078166 32
13.756177 2.1910713 0.71661079 32
13.770477 2.1933491 0.47061229 33
13.760598 1.1748601 0.38407809 41
5.7463937 1.3488626 0.1294132 28
5.849504 0.93170369 0.094910987 22
13.761227 1.1749138 0.13981523 44
5.7710881 1.3546592 0.025038 53
5.8581471 0.93308038 -0.0098356241 41
13.785454 1.1769823 -0.10432 44
5.755043 1.3508929 -0.079449184 8
5.8531108 0.93227816 -0.11462999 13
13.785439 1.1769811 -0.34924939 40
5.760561 1.3521881 -0.18419605 36
5.8659763 0.93432742 -0.22019465 50
13.793051 1.1776309 -0.59472597 42
5.7681637 1.3539728 -0.28925979 51
5.8612208 0.93356997 -0.32507008 16
13.80831 1.1789336 -0.84034175 42
5.7817183 1.3571544 -0.3951878 3
5.8664713 0.93440628 -0.43050453 53
13.803326 1.1785082 -1.0854319 42
5.789577 1.3589991 -0.50094628 46
5.8895679 0.93808502 -0.5377118 6
13.813947 1.179415 -1.3315521 21
5.8072405 1.3631454 -0.60811996 55
5.918633 0.94271451 -0.64641786 2
5.9222426 0.94328946 -0.75311828 48
5.9162397 0.94233328 -0.85838085 1
5.9395266 0.94604242 -0.96927273 18
5.9960752 0.95504946 -1.085901 34
6.0309772 0.96060854 -1.2011347 32
6.0485663 0.96341014 -1.3131576 26
6.0719695 0.96713781 -1.4272966 48
6.0054493 0.95654255 -1.5190198 27
4.7401614 0.75500864 -1.6512436 6
1.6899183 0.26916865 -0.7976644 6
5.9341254 0.90274984 1.5844454 19
8.6777763 1.3201375 1.696182 23
7.3980083 1.1254482 1.0468904 15
13.725851 2.0880938 1.2053947 32
13.739544 2.0901768 0.71496671 29
13.777551 2.0959587 0.47034246 36
13.756506 1.0778291 0.38374448 40
5.7556705 1.3087124 0.1294132 30
5.8637738 0.89204741 0.095039159 19
13.781057 1.0797527 0.1399367 45
5.772604 1.3125626 0.025004212 67
5.8566093 0.89095747 -0.0098223593 15
13.781371 1.0797772 -0.10422952 41
5.7799339 1.3142294 -0.079664201 8
5.8594766 0.89139366 -0.11462999 79
13.785347 1.0800889 -0.34904751 40
5.7659616 1.3110523 -0.1840716 30
5.8723564 0.89335304 -0.22019465 48
13.788983 1.0803738 -0.59421092 43
5.7696843 1.3118988 -0.28886968 53
5.8873391 0.89563233 -0.32616386 4
13.800282 1.0812589 -0.83937335 43
5.7832685 1.3149875 -0.39465663 5
5.8965168 0.89702857 -0.43223929 61
13.80724 1.0818042 -1.0851195 39
5.7911501 1.3167796 -0.50027478 51
5.880219 0.89454919 -0.53627503 9
13.801996 1.0813934 -1.32964 20
5.8360171 1.3269814 -0.61014837 51
5.9093437 0.89897984 -0.64470208 3
5.9169126 0.90013134 -0.75162303 61
5.9344182 0.90279442 -0.86008286 1
5.9655075 0.90752393 -0.97245491 9
6.0337386 0.9179039 -1.0915349 36
6.0608172 0.9220233 -1.2057663 33
6.0667448 0.92292506 -1.3156732 34
6.0978336 0.92765456 -1.4318191 52
6.0733671 0.92393249 -1.53453 16
4.7340989 0.72019154 -1.6473399 6
1.6810036 0.25572863 -0.79259449 6
5.924973 0.85908002 1.5803617 19
8.6867809 1.2595232 1.696182 25
7.4056849 1.073773 1.0468904 17
13.736151 1.9916468 1.2050487 33
13.74194 1.9924861 0.71435016 28
13.772064 1.9968539 0.46966782 34
13.755718 0.98119533 0.38352209 42
5.7607608 1.2676395 0.12932552 24
5.8856907 0.85338438 0.095295504 19
13.768311 0.98209351 0.13973425 41
5.7777195 1.2713714 0.024987316 79
5.870604 0.85119694 -0.0098356241 5
13.780594 0.9829697 -0.1041692 44
5.7811561 1.2721275 -0.079556696 11
5.8615985 0.84989113 -0.11455265 74
13.784574 0.9832536 -0.34884563 43
5.7866879 1.2733448 -0.18444496 19
5.8863621 0.85348171 -0.22049101 36
13.792203 0.98379779 -0.5940392 43
5.7748003 1.2707289 -0.28867465 57
5.8815894 0.85278976 -0.32550758 9
13.799527 0.98432022 -0.83888912 40
5.7884097 1.2737236 -0.39439103 3
5.910532 0.85698617 -0.43281752 61
13.8065 0.98481762 -1.0844946 41
5.8040943 1.2771749 -0.50061053 51
5.8823781 0.85290408 -0.53591585 4
13.813181 0.98529416 -1.3300225 22
5.8218207 1.2810756 -0.6077143 15
5.923347 0.85884422 -0.64555997 3
5.9348359 0.86051005 -0.75311828 48
5.9405761 0.86134237 -0.86008286 33
5.9677892 0.86528808 -0.97181845 4
6.0438967 0.87632316 -1.092239 27
6.0671062 0.87968838 -1.2057663 14
7.1606908 1.0382506 -1.5513036 4
6.6748595 0.96780843 -1.5656847 8
6.2755399 0.90990984 -1.5839684 7
4.7390113 0.68712378 -1.6473399 6
1.7078635 0.24762838 -0.80442423 6
5.9267092 0.81923622 1.5793408 20
8.6871634 1.2008079 1.6946641 24
7.3969469 1.022464 1.0446736 16
13.729321 1.8977745 1.2033188 34
13.746939 1.9002098 0.71393919 30
13.773125 1.9038295 0.46926305 34
13.749953 0.88916951 0.38318849 38
5.761219 1.2277384 0.12915017 18
5.8991446 0.81542611 0.095423676 20
13.766539 0.89024198 0.13965327 41
5.7860246 1.2330246 0.024987316 79
5.8681951 0.81114799 -0.0098223593 17
13.78681 0.89155293 -0.1041692 43
5.781642 1.2320906 -0.079449184 15
5.8789911 0.81264031 -0.11478469 62
13.790792 0.89181042 -0.34884563 38
5.7989159 1.2357718 -0.18456942 55
5.8958526 0.81497103 -0.22063918 49
13.794437 0.89204615 -0.59386754 46
5.7948236 1.2348996 -0.28925979 55
5.8989854 0.81540412 -0.32616386 11
13.797784 0.89226258 -0.83840495 40
5.7928267 1.2344741 -0.39412546 53
5.9081817 0.81667525 -0.43223929 30
13.800791 0.89245701 -1.0835572 41
5.8124371 1.2386532 -0.50061053 8
5.899744 0.81550896 -0.53699344 5
13.815439 0.89340425 -1.32964 23
5.849649 1.2465831 -0.6097427 2
5.924973 0.81899631 -0.64513099 22
11.110261 1.5357475 -1.4085455 2
10.044928 1.3884887 -1.45295 2
9.1028776 1.2582712 -1.4809572 3
8.3625336 1.155935 -1.5098391 4
7.7173634 1.0667546 -1.5322958 4
7.1790419 0.99234349 -1.5538193 5
6.6888509 0.92458552 -1.5674937 11
6.2929692 0.86986363 -1.5868765 7
4.7397175 0.6551609 -1.6460387 6
1.6771463 0.23182833 -0.78921455 4
5.9361186 0.77834284 1.5803617 19
8.6641827 1.1360461 1.6885928 19
7.3999772 0.97028369 1.0441194 15
13.738283 1.8013612 1.2029729 29
13.747987 1.8026335 0.71332264 31
13.770226 1.8055495 0.46872336 34
13.755825 0.79315674 0.38318849 38
5.76965 1.1874876 0.12915017 14
5.8927975 0.77266252 0.095231414 3
13.784397 0.79480416 0.13977474 46
5.7944918 1.1926005 0.024987316 34
5.8856134 0.77172059 -0.0098422561 1
13.796691 0.79551303 -0.10419936 43
5.8136077 1.1965349 -0.079771712 48
5.8805561 0.77105743 -0.11470734 76
13.792689 0.7952823 -0.34874469 39
5.8034859 1.1944516 -0.18444496 49
5.9965181 0.78626239 -0.2241955 32
13.800328 0.79572278 -0.59386754 45
5.7837372 1.190387 -0.28828454 9
11.230892 1.4725925 -0.62038946 3
13.799691 0.79568601 -0.83816284 43
5.8013034 1.1940024 -0.39412546 58
11.336974 1.4865019 -0.82862729 2
13.802703 0.79585969 -1.0832448 38
5.8365588 1.2012585 -0.50195354 15
11.115382 1.4574469 -1.0107689 1
13.809413 0.79624659 -1.3284929 25
5.854311 1.2049122 -0.60933697 1
12.275126 1.6095123 -1.335301 3
11.179739 1.4658853 -1.4160219 3
10.042598 1.3167835 -1.4512479 3
9.1388493 1.1982841 -1.4854121 4
8.343071 1.0939419 -1.5049096 4
7.7207313 1.0123409 -1.5315238 4
7.1702828 0.94016618 -1.5504651 5
6.6758261 0.87533313 -1.5629711 9
6.3065844 0.82691818 -1.5888153 7
4.7404256 0.62156373 -1.6447375 6
1.6679399 0.21869998 -0.78414464 3
5.9375696 0.73640662 1.5793408 20
8.6874924 1.0774655 1.6916285 27
7.4026394 0.91811174 1.0435652 16
13.742615 1.7044268 1.2022809 33
13.752308 1.7056289 0.71291161 33
13.774561 1.7083888 0.46845353 32
13.761027 0.69710362 0.38318849 36
5.8523259 1.1619769 0.13081606 8
13.760789 1.7066808 0.22218527 31
13.777626 0.69794446 0.13965327 45
5.7948294 1.150561 0.024953527 15
13.778415 1.7088667 -0.023020532 40
13.79392 0.69876987 -0.10413904 42
5.8257427 1.1566987 -0.079825468 53
5.9334216 0.73589212 -0.11563552 23
13.793912 0.69876951 -0.34864375 39
5.8156047 1.1546859 -0.18456942 61
6.0216956 0.7468403 -0.2249364 25
13.805547 0.69935888 -0.59386754 45
5.795825 1.1507586 -0.2884796 12
12.037591 1.4929613 -0.66435921 3
13.800921 0.69912463 -0.83792073 45
5.817327 1.1550279 -0.39465663 56
12.194345 1.5124027 -0.89049965 12
13.799957 0.69907576 -1.0826199 40
5.8487124 1.1612594 -0.5022893 27
11.829019 1.4670931 -1.0747052 4
13.838495 0.70102799 -1.3307873 24
5.8430643 1.1601379 -0.60730857 3
12.286064 1.5237781 -1.335301 2
11.166069 1.3848708 -1.4130313 2
10.055475 1.2471296 -1.4518154 2
9.1313162 1.1325108 -1.4828664 3
8.3856726 1.0400324 -1.5112475 4
7.7665601 0.963247 -1.5392432 4
7.1844349 0.89104897 -1.5521423 5
6.7011085 0.83110446 -1.5674937 7
6.3006496 0.78143758 -1.5859072 7
4.7521563 0.58938581 -1.6473399 6
1.6730239 0.20749666 -0.78583461 3
5.9425659 0.69493663 1.5793408 21
8.6596956 1.0126836 1.6847982 26
7.4009991 0.86548895 1.0424567 17
13.75022 1.6079807 1.2019349 30
13.755944 1.6086502 0.71250063 30
13.770268 1.6103252 0.46791384 34
13.761564 0.60084212 0.38307729 38
5.8406563 1.1173346 0.13037767 2
13.768395 1.6101062 0.22212119 23
13.770175 0.6012181 0.13953179 40
5.826293 1.1145867 0.025054896 41
13.782063 1.6117045 -0.023007268 30
13.794466 0.60227865 -0.10410888 44
5.8297472 1.1152476 -0.079771712 40
5.9582753 0.69677371 -0.11602226 32
13.798454 0.60245281 -0.34864375 40
5.8195972 1.1133059 -0.18444496 51
6.0227923 0.70431846 -0.22478822 22
13.798115 0.60243797 -0.59335244 45
5.7919455 1.108016 -0.28789443 10
13.777324 1.6111504 -0.75973648 44
13.805467 0.60275894 -0.83792073 41
5.8252487 1.114387 -0.39465663 57
13.801508 1.6139784 -1.0070163 44
13.804502 0.6027168 -1.0826199 38
5.8527622 1.1196505 -0.50195354 23
12.606606 1.474244 -1.1443887 8
13.827141 0.60370529 -1.3292576 25
5.8549299 1.1200651 -0.6077143 56
12.576854 1.4707648 -1.365756 10
11.179406 1.3073442 -1.4135298 2
10.071802 1.1778185 -1.45295 2
9.1389999 1.0687345 -1.4828664 5
8.3731756 0.97917742 -1.5077264 3
7.7458081 0.90581167 -1.5338397 5
7.1904802 0.84087044 -1.5521423 5
6.702877 0.78384912 -1.5665891 12
6.3059516 0.73743176 -1.5859072 7
4.748642 0.55531651 -1.6447375 6
1.6960373 0.1983383 -0.79597443 3
5.951117 0.65385586 1.5803617 20
8.682169 0.95391953 1.6878339 26
7.4068608 0.81379998 1.0424567 17
13.729423 1.5084668 1.199167 33
13.743015 1.5099603 0.71126753 30
13.769253 1.5128431 0.46750906 35
13.753436 0.50431579 0.38274369 38
5.9977674 1.1040424 0.13370945 1
13.763398 1.5121999 0.22186485 23
13.78203 0.5053643 0.13961278 40
5.8221307 1.071712 0.025004212 10
13.789002 1.515013 -0.023000635 31
13.786342 0.50552237 -0.10401841 42
5.829524 1.0730729 -0.079664201 28
6.0265999 0.66214919 -0.11725983 2
13.798327 0.50596189 -0.34854281 39
5.8390241 1.0748217 -0.18481834 19
13.811343 1.5174676 -0.51507175 49
13.797991 0.50594956 -0.59318078 42
5.8191862 1.07117 -0.28886968 57
13.812057 1.5175459 -0.76104897 45
13.805347 0.50621927 -0.83767861 42
5.8211112 1.0715244 -0.39385986 9
13.808474 1.5171523 -1.0067272 43
13.808372 0.50633019 -1.0826199 37
5.8525963 1.07732 -0.50128204 9
13.840234 1.5206419 -1.2553793 36
13.82704 0.50701469 -1.3288752 25
5.8743472 1.0813239 -0.6089313 53
12.618441 1.386402 -1.3691876 8
11.184316 1.2288332 -1.4130313 2
10.07978 1.1074766 -1.45295 5
9.1462383 1.0049074 -1.4828664 5
8.3915491 0.92198879 -1.5098391 3
7.7558441 0.85214323 -1.5346116 4
7.2000628 0.79107893 -1.5529808 5
6.7236781 0.738738 -1.5702071 12
6.2993731 0.69211912 -1.582999 6
4.759922 0.52297795 -1.6473399 7
1.7045882 0.18728499 -0.79935437 6
5.9555368 0.6122933 1.5803617 20
8.6808043 0.89248008 1.686316 27
7.4123616 0.76207054 1.0424567 18
13.735655 1.4121732 1.1988211 34
13.753222 1.4139793 0.71126753 32
13.763573 1.4150435 0.46696937 35
13.768612 0.40864223 0.38307729 39
6.0998387 1.0788597 0.13581371 1
13.765663 1.4152583 0.22173667 23
13.769232 0.40866062 0.13945082 41
5.8452263 1.0338271 0.02507179 71
13.787306 1.4174834 -0.022980738 32
13.789536 0.40926322 -0.10401841 42
5.8408117 1.0330464 -0.079717956 10
13.772812 1.4159933 -0.26777938 47
13.797527 0.40950039 -0.3484419 39
5.838511 1.0326394 -0.18456942 9
13.80172 1.4189652 -0.51433086 50
13.801188 0.40960905 -0.59318078 42
5.8304563 1.0312148 -0.28906474 56
13.798476 1.4186319 -0.75973648 43
13.808546 0.40982744 -0.83767861 41
5.8441706 1.0336404 -0.3949222 8
13.798885 1.418674 -1.0052816 44
13.811571 0.40991724 -1.0826199 38
5.8756747 1.0392125 -0.50262505 7
13.84655 1.4235743 -1.2550201 36
13.822282 0.41023511 -1.3281105 26
5.8778348 1.0395945 -0.60852563 53
12.611987 1.296648 -1.3674718 7
11.172882 1.1486925 -1.4105393 4
10.087266 1.0370795 -1.45295 4
9.1608868 0.94183779 -1.4841392 3
8.4056149 0.86418766 -1.5112475 4
7.7850299 0.80038482 -1.5392432 4
7.2170825 0.74199373 -1.5554963 5
6.7092919 0.68978745 -1.5656847 6
6.3156333 0.64931506 -1.5859072 7
4.7672205 0.49012154 -1.6486411 6
1.6986413 0.1746386 -0.79597443 7
5.971415 0.56972265 1.5834244 19
8.6832037 0.82844979 1.6855571 26
7.4019752 0.70620996 1.0402399 19
13.74167 1.3110695 1.1984751 31
13.751287 1.3119872 0.71065104 32
13.765616 1.3133543 0.46669951 35
13.755247 0.30734685 0.38263249 39
13.776563 2.3326042 0.30634806 36
13.779649 1.314693 0.22180076 26
13.787852 0.30807537 0.13961278 52
5.8526473 0.99095178 0.02507179 70
13.793344 1.3159996 -0.022974107 31
13.788167 0.3080824 -0.10398825 41
5.8521709 0.99087113 -0.079771712 28
13.782822 1.3149958 -0.26777938 47
13.800159 0.30835032 -0.3484419 37
5.8459239 0.98981339 -0.18456942 15
13.811749 1.3177557 -0.51433086 48
13.795829 0.30825359 -0.59283739 43
5.8378587 0.98844784 -0.28906474 59
13.808505 1.3174461 -0.75973648 38
13.803196 0.30841821 -0.83719444 42
5.8476553 0.99010652 -0.39465663 11
13.800971 1.3167273 -1.0047034 44
13.818192 0.30875328 -1.0829324 38
5.8634849 0.99278671 -0.50094628 4
13.836784 1.3201442 -1.2532241 35
13.83288 0.30908147 -1.3288752 27
5.8892207 0.99714428 -0.6089313 48
12.629071 1.2049184 -1.3683298 7
11.192855 1.0678914 -1.4120345 4
10.094597 0.96310842 -1.45295 2
9.1596832 0.87390989 -1.4828664 3
8.3960447 0.80105245 -1.5084307 4
7.7750597 0.74180532 -1.5361555 4
7.2145405 0.68832713 -1.5538193 5
6.7296834 0.64206773 -1.5693027 7
6.3124967 0.60226464 -1.5839684 7
4.763154 0.45444447 -1.6460387 6
1.7070938 0.16287094 -0.79935437 7
5.9906569 0.52938282 1.5875081 20
8.6809511 0.76711899 1.6840392 27
7.4027786 0.65416932 1.0396857 18
13.73064 1.2133503 1.1967452 35
13.748174 1.2148997 0.71003449 29
13.766485 1.2165178 0.46642968 36
13.757057 0.21130963 0.38263249 39
13.776722 2.2338102 0.30599734 35
13.768571 1.2167022 0.22148034 23
13.789666 0.21181051 0.13961278 56
5.8633714 0.95070934 0.025088685 76
13.782273 1.217913 -0.022940945 30
13.789981 0.21181534 -0.10398825 44
5.8589458 0.94999182 -0.079771712 10
13.783698 1.2180389 -0.26762468 47
13.797976 0.21193814 -0.34834096 38
5.856638 0.94961762 -0.18469389 37
13.800704 1.2195417 -0.51358992 53
13.797644 0.21193305 -0.59283739 45
5.8446174 0.94766849 -0.28906474 64
13.809408 1.2203109 -0.75929892 45
13.805012 0.21204622 -0.83719444 41
5.8701835 0.95181394 -0.39571896 32
13.797904 1.2192943 -1.003836 47
13.812036 0.21215411 -1.0823075 40
5.874207 0.95246631 -0.50128204 46
13.837727 1.2228132 -1.2525058 38
13.830718 0.21244107 -1.3284929 30
5.9274635 0.96110147 -0.61217678 2
12.653022 1.1181232 -1.3700455 5
11.215851 0.9911232 -1.4140282 2
10.101074 0.89261252 -1.45295 3
9.1576929 0.80924773 -1.4815936 3
8.409277 0.74311167 -1.5098391 5
7.7995963 0.68923533 -1.5400152 4
7.2386494 0.63966554 -1.558012 6
6.7340016 0.59507078 -1.5693027 11
6.3204126 0.55852276 -1.5849378 7
4.7624431 0.42084792 -1.6447375 6
1.6937438 0.14967288 -0.79259449 7
5.9903522 0.48723373 1.5864872 20
8.6782665 0.70585907 1.6825215 26
7.4111137 0.6027934 1.0402399 20
13.734804 1.1171397 1.1963992 36
13.75632 1.1188897 0.71003449 31
13.766673 1.1197318 0.46615982 36
13.7542 0.11523026 0.3825213 41
13.76827 2.1339011 0.30547127 34
13.780717 1.120874 0.22154441 27
13.790809 0.11553697 0.13961278 60
5.8777714 0.91097742 0.025122475 52
13.77848 1.1206921 -0.022921048 31
13.799123 0.11560662 -0.10404857 42
5.8891501 0.91274095 -0.080094241 59
13.779908 1.1208084 -0.26739264 47
13.791121 0.11553959 -0.34813908 41
5.871027 0.90993214 -0.1849428 71
13.796929 1.1221927 -0.51314539 52
13.802783 0.11563728 -0.59300905 46
5.8471432 0.90623045 -0.28886968 16
13.805649 1.1229019 -0.75864267 42
13.798171 0.11559865 -0.83671021 40
5.8609095 0.90836406 -0.39465663 59
13.798128 1.1222903 -1.0032578 47
13.809193 0.11569098 -1.081995 37
5.8767748 0.91082293 -0.50094628 53
13.837984 1.125532 -1.2517874 39
13.815938 0.1157475 -1.3269632 29
5.8947043 0.91360182 -0.60811996 3
12.680338 1.0313731 -1.3721902 8
11.242276 0.91440636 -1.4165204 2
10.103113 0.821751 -1.4523827 2
9.1749277 0.74625576 -1.4835029 2
8.4064112 0.68374729 -1.5084307 5
7.8003063 0.63444895 -1.5392432 5
7.2351427 0.58848053 -1.556335 5
6.7341084 0.54772818 -1.5683981 8
6.335762 0.51532817 -1.5878459 8
4.7765751 0.38850945 -1.6486411 6
1.6839068 0.13696294 -0.78752458 5
6.0051785 0.44626191 1.5895499 19
8.675149 0.64467508 1.6810036 26
7.4151416 0.55104029 1.0402399 19
13.738295 1.0209318 1.1960533 31
13.771764 1.023419 0.71044552 31
13.774155 1.0235968 0.46615982 36
13.762666 0.0192162 0.38274369 41
13.77492 2.0365605 0.30529591 31
13.772252 1.0234553 0.22128807 26
13.78328 0.019244984 0.13953179 46
5.8681593 0.86758119 0.025054896 13
13.785968 1.0244746 -0.022921048 33
13.795594 0.019262176 -0.10401841 42
5.8874655 0.87043554 -0.079986729 44
13.787397 1.0245808 -0.26739264 47
13.79959 0.019267755 -0.34834096 41
5.8772359 0.86892313 -0.1849428 49
13.800441 1.0255501 -0.51299721 53
13.799258 0.019267293 -0.59283739 42
5.8612313 0.86655694 -0.28925979 6
13.809169 1.0261987 -0.75842392 43
13.806627 0.019277582 -0.83719444 45
5.8671079 0.86742574 -0.39465663 59
13.805627 1.0259355 -1.0032578 46
13.809664 0.019281821 -1.081995 40
5.875104 0.86860794 -0.50027478 51
13.837559 1.0283084 -1.2510689 37
13.832336 0.019313477 -1.3284929 34
5.9048753 0.8730095 -0.60852563 2
12.635672 0.9389928 -1.366614 8
11.232553 0.83472306 -1.4145266 1
10.108604 0.75119919 -1.4523827 2
9.1720381 0.68160027 -1.4822299 3
8.4109793 0.62504387 -1.5084307 5
7.8045454 0.57997799 -1.5392432 5
7.2468753 0.53853595 -1.558012 5
6.7455397 0.50128025 -1.5702071 7
6.3469458 0.47165963 -1.5897847 7
4.779171 0.3551538 -1.6486411 6
1.692053 0.12574127 -0.79090452 3
6.0042887 0.40406731 1.588529 20
8.6794386 0.58409542 1.6810036 26
7.4069495 0.49846143 1.0385774 23
13.737135 0.92446047 1.1953613 33
13.754659 0.92563969 0.70921248 31
13.768999 0.92660475 0.46575505 35
13.754468 -0.076819494 0.3825213 38
5.8647947 0.82528692 0.12985159 7
13.77507 0.92701334 0.221224 25
13.783078 -0.076979287 0.13953179 46
5.8740735 0.82659262 0.025054896 8
13.784801 0.92766821 -0.022907784 31
13.791392 -0.077025719 -0.10398825 41
5.90132 0.83042675 -0.080094241 42
13.778254 0.92722756 -0.26708323 46
13.795389 -0.077048041 -0.34824002 40
5.8871183 0.82842833 -0.18506725 52
13.787323 0.92783791 -0.51225632 52
13.803052 -0.077090837 -0.59300905 47
5.8829632 0.82784361 -0.29003999 9
13.804042 0.92896301 -0.75776768 44
13.806425 -0.077109672 -0.83719444 42
5.8809252 0.82755685 -0.3951878 59
13.804492 0.92899328 -1.0026795 46
13.809462 -0.077126637 -1.081995 39
5.8849721 0.82812625 -0.50061053 51
13.832476 0.93087655 -1.2499914 40
13.840097 -0.07729774 -1.3292576 33
5.8911238 0.82899189 -0.60649723 14
12.633984 0.85022223 -1.365756 6
11.257906 0.75761712 -1.4170188 2
10.125454 0.68140715 -1.4540846 2
9.184453 0.61808109 -1.4835029 2
8.4269247 0.56710213 -1.5105433 5
7.816236 0.52600497 -1.5407871 4
7.2543602 0.48819271 -1.5588505 5
6.7410994 0.45365205 -1.5683981 10
6.3423395 0.42681697 -1.5878459 7
4.7739859 0.32127231 -1.6460387 6
1.6820376 0.11319517 -0.78583461 3
6.0145569 0.36470518 1.5905708 21
8.6792011 0.52628142 1.6802447 28
7.4100928 0.4493264 1.0385774 20
13.742964 0.83333319 1.1953613 34
13.756507 0.83415443 0.70900697 30
13.770851 0.83502418 0.46562013 33
13.757653 -0.16809012 0.38263249 36
13.777585 1.8456656 0.30476984 36
13.760956 0.83442414 0.22090356 26
13.782265 -0.16839083 0.13953179 43
5.8873558 0.78867882 0.025088685 20
13.790651 0.83622479 -0.022907784 32
13.790579 -0.16849239 -0.10398825 41
5.9106617 0.79180098 -0.080147997 55
13.780107 0.83558547 -0.26700589 46
13.798573 -0.16859008 -0.34834096 39
5.9955125 0.80316764 -0.18830313 22
13.805143 0.83710355 -0.51270086 52
13.802238 -0.16863485 -0.59300905 46
5.8883243 0.78880858 -0.29003999 26
13.809899 0.83739197 -0.75776768 45
13.801618 -0.16862726 -0.83695233 39
5.8981519 0.79012507 -0.39598453 4
13.802384 0.8369363 -1.0021013 42
13.800672 -0.16861571 -1.0813701 39
11.045859 1.4797195 -0.93877059 1
13.826416 0.83839345 -1.2489139 38
13.839281 -0.16908744 -1.3292576 30
11.461676 1.5354229 -1.1789171 1
12.639344 0.76641291 -1.365756 7
11.262683 0.68293625 -1.4170188 2
10.117893 0.61351949 -1.4523827 2
9.1922913 0.55739367 -1.4841392 2
8.4187088 0.51048589 -1.5084307 5
7.8078003 0.4734422 -1.5384713 5
7.2535348 0.43983316 -1.558012 5
6.7439599 0.40893403 -1.5683981 6
6.352778 0.38521391 -1.5897847 7
4.7873378 0.29029021 -1.6499424 6
1.6863703 0.10225657 -0.78752458 3
6.0130949 0.32249966 1.5895499 9
8.6826639 0.46567634 1.6802447 24
7.4051375 0.39715892 1.037469 16
13.760386 0.73800921 1.1963992 35
13.754018 0.73766774 0.70859593 29
13.776345 0.7388652 0.46562013 36
13.760142 -0.26420766 0.38274369 39
13.762363 1.745912 0.30415609 33
13.762451 0.73812002 0.22083947 26
13.780753 -0.26460341 0.13953179 41
13.76158 1.7458124 0.058590949 42
13.792159 0.73971331 -0.022901151 32
13.797064 -0.2649166 -0.10404857 42
5.9319167 0.75253093 -0.080363013 22
13.781612 0.73914766 -0.26692855 47
13.79706 -0.26491651 -0.34834096 39
5.9890742 0.75978202 -0.18792976 19
13.802669 0.74027699 -0.5124045 51
13.80472 -0.26506358 -0.59318078 45
11.379137 1.4435726 -0.55998981 0
13.81142 0.74074638 -0.75754887 43
13.808088 -0.26512825 -0.83743656 42
11.458617 1.4536556 -0.76859772 1
13.807891 0.74055707 -1.0021013 44
13.81112 -0.26518646 -1.0823075 38
11.819078 1.4993842 -1.0035713 4
13.831932 0.74184644 -1.2489139 48
13.817858 -0.26531586 -1.3273456 30
12.17876 1.5450138 -1.2515343 2
12.632472 0.67751598 -1.3644692 6
11.279066 0.60492891 -1.418514 2
10.129838 0.54329246 -1.4535173 2
9.1841288 0.49257135 -1.4822299 2
8.4417267 0.4527542 -1.5119518 5
7.8226724 0.41955251 -1.5407871 5
7.2408066 0.38834536 -1.5546578 5
6.7466502 0.36184233 -1.5683981 7
6.3591881 0.34106162 -1.590754 7
4.789248 0.25686121 -1.6499424 6
1.6979039 0.091063485 -0.79259449 4
5.9805269 0.27680427 1.5803617 19
8.6740751 0.40147316 1.6779679 26
7.3999357 0.34250057 1.0363606 16
13.753483 0.6365698 1.1953613 34
13.751074 0.63645834 0.7081849 31
13.78139 0.63786149 0.46562013 33
13.761834 -0.36517334 0.38285491 39
13.76685 1.6440337 0.30398074 36
13.759501 0.63684839 0.22071131 22
13.790439 -0.36593238 0.13965327 44
13.758121 1.6429912 0.058523368 43
13.789219 0.63822383 -0.022887887 29
13.786756 -0.36583462 -0.10398825 46
5.9730167 0.71329606 -0.080846801 4
13.782664 0.63792044 -0.26685119 48
13.798745 -0.36615279 -0.3484419 38
5.9905133 0.71538556 -0.18780529 17
13.80373 0.63889545 -0.51225632 52
13.802406 -0.36624992 -0.59318078 46
12.2701 1.4652921 -0.60329098 12
13.816479 0.63948554 -0.75754887 44
13.809765 -0.36644518 -0.83767861 44
12.507276 1.4936156 -0.83818054 4
13.808963 0.63913769 -1.0018121 44
13.808805 -0.36641973 -1.0823075 40
13.836998 0.64043522 -1.2489139 35
13.823503 -0.36680973 -1.3281105 29
12.648108 1.5104338 -1.2985938 62
12.649018 0.58545047 -1.365756 6
11.283197 0.52223444 -1.418514 1
10.145414 0.46957302 -1.4552194 2
9.1993265 0.42578405 -1.4841392 2
8.4251518 0.38995194 -1.5084307 5
7.8255372 0.36219922 -1.5407871 5
7.2551794 0.33580062 -1.5571735 5
6.7802591 0.31381929 -1.5756341 7
6.3537641 0.29407927 -1.5888153 6
4.7910018 0.22174799 -1.6499424 6
1.7057688 0.078950249 -0.79597443 7
5.9861779 0.2351974 1.5813826 20
8.6727419 0.34075272 1.677209 26
7.4061046 0.29098645 1.0369148 21
13.75361 0.54038042 1.1950153 34
13.739216 0.53981489 0.70736289 28
13.773524 0.54116291 0.46521536 35
13.754952 -0.46110615 0.38274369 40
13.770044 1.5469917 0.30380538 36
13.767609 0.54093045 0.2207754 24
13.78355 -0.46206483 0.13961278 43
13.78118 1.5482427 0.058574054 44
13.785345 0.54162729 -0.022874624 31
13.795858 -0.46247745 -0.10407873 42
13.772109 1.5472237 -0.18625942 33
13.786782 0.54168373 -0.26685119 49
13.807842 -0.46287918 -0.34874469 38
6.0072803 0.67488623 -0.18817867 9
13.787884 0.54172707 -0.51151544 50
13.791525 -0.46233216 -0.59283739 44
13.796671 1.5499831 -0.67780024 36
13.808633 0.54254228 -0.75689262 46
13.80288 -0.46271282 -0.83743656 44
13.790556 1.549296 -0.92343277 43
13.801129 0.54224747 -1.0009447 41
13.813881 -0.46308163 -1.0829324 41
13.803965 1.5508025 -1.1701057 40
13.841132 0.54381919 -1.2489139 34
13.824584 -0.46344042 -1.3284929 32
12.65439 1.4216539 -1.298188 97
12.656771 0.49728552 -1.3661849 8
11.282603 0.44329438 -1.4180156 1
10.156359 0.39904413 -1.456354 2
9.1941833 0.36124021 -1.4828664 2
8.4434071 0.33174214 -1.5112475 4
7.8357191 0.30786604 -1.542331 5
7.2612548 0.28529528 -1.558012 5
6.774498 0.26617056 -1.5738251 6
6.3711734 0.25032389 -1.5926929 6
4.784874 0.18799809 -1.6473399 7
1.7099012 0.067182153 -0.7976644 7
5.9644814 0.19265185 1.5752572 20
7.3913369 0.23873909 1.4290428 3
7.4039965 0.23914799 1.0363606 17
13.745099 0.44396466 1.1939774 34
13.754628 0.44427246 0.70797938 29
13.76498 0.44460681 0.46481058 32
13.759388 -0.55744469 0.3829661 38
13.7646 1.449146 0.30345467 35
13.767053 0.44467375 0.22071131 26
13.783985 -0.55844122 0.13965327 42
13.763807 1.4490626 0.058455791 40
13.784792 0.44524673 -0.022867991 30
13.792294 -0.55877781 -0.10407873 43
13.782576 1.4510385 -0.18625942 33
13.786231 0.44529322 -0.26677385 47
13.804274 -0.55926317 -0.34874469 39
13.789075 1.4517229 -0.43161616 40
13.803315 0.44584501 -0.51195997 52
13.799939 -0.55908757 -0.59335244 46
13.77537 1.4502798 -0.67623985 39
13.808092 0.44599932 -0.75667387 45
13.807292 -0.55938542 -0.83792073 46
13.797066 1.452564 -0.92316717 41
13.812554 0.44614345 -1.001523 46
13.81828 -0.55983067 -1.0835572 42
13.814455 1.4543948 -1.1701057 35
13.824682 0.44653517 -1.2471179 32
13.840904 -0.56074721 -1.3304049 31
12.667964 1.3336915 -1.2985938 209
12.636085 0.40814367 -1.3636113 7
11.293356 0.36477372 -1.4190124 3
10.147024 0.32774737 -1.454652 2
9.2201633 0.2978099 -1.4866849 2
8.457324 0.27317032 -1.5133601 5
7.8376775 0.25315583 -1.542331 5
7.2747974 0.23497488 -1.5605277 5
6.7684026 0.21861841 -1.5720161 7
6.3766441 0.20596465 -1.5936623 7
4.7936311 0.15483357 -1.6499424 6
1.663222 0.053721823 -0.77569479 8
5.9579482 0.15081149 1.5732154 20
5.264884 0.13326821 1.0177091 1
7.4054861 0.18745252 1.0363606 18
13.747864 0.34799495 1.1939774 35
13.757395 0.34823623 0.70797938 32
13.775742 0.34870064 0.46508044 36
13.755161 -0.65348977 0.3829661 40
13.770402 1.3526264 0.30336699 35
13.785814 0.3489556 0.22096765 39
13.787741 -0.65503758 0.13973425 45
13.773588 1.3529394 0.058455791 46
13.787564 0.34899989 -0.022867991 32
13.796046 -0.65543216 -0.10413904 45
13.776447 1.3532202 -0.18604441 33
13.781009 0.34883395 -0.26661915 48
13.800034 -0.65562159 -0.34874469 39
13.786937 1.3542507 -0.43124279 39
13.802095 0.34936771 -0.51181179 54
13.807676 -0.65598464 -0.59386754 45
13.785158 1.3540759 -0.67623985 40
13.802884 0.34938768 -0.75623637 45
13.795074 -0.65538597 -0.83743656 40
13.794954 1.3550382 -0.92237043 40
13.811343 0.34960181 -1.0012338 44
13.810052 -0.65609753 -1.0832448 45
13.808405 1.3563594 -1.1687627 33
13.831447 0.35011065 -1.2474771 38
13.836652 -0.65736127 -1.3304049 34
12.676967 1.2452215 -1.2985938 209
12.646578 0.32011849 -1.3644692 6
11.303563 0.28612322 -1.4200093 3
10.153024 0.257 -1.4552194 2
9.2220182 0.23343378 -1.4866849 2
8.4629622 0.21422005 -1.5140644 4
7.8157129 0.19783646 -1.5376993 4
7.2723508 0.18408252 -1.559689 5
6.777554 0.1715579 -1.5738251 9
6.3740473 0.16134408 -1.5926929 7
4.7983766 0.12145966 -1.6512436 6
1.6744294 0.042384259 -0.7807647 7
5.9588556 0.10921422 1.5732154 19
5.3206596 0.097517326 1.028334 1
7.4145355 0.13589399 1.037469 19
13.753942 0.25208297 1.1943233 34
13.759491 0.25218466 0.70797938 30
13.777841 0.25252098 0.46508044 37
13.758249 -0.74993658 0.38318849 41
13.767562 1.2553685 0.30310395 31
13.787914 0.2527056 0.22096765 37
13.782832 -0.75127655 0.13973425 47
13.778714 1.2563854 0.058438897 44
13.785666 0.25266442 -0.022861358 31
13.799123 -0.75216448 -0.10419936 45
13.781576 1.2566464 -0.18599065 32
13.779109 0.25254422 -0.26654181 46
13.79512 -0.75194633 -0.34874469 39
13.796056 1.2579666 -0.43124279 41
13.808194 0.25307733 -0.51195997 53
13.80276 -0.75236279 -0.59386754 47
13.794276 1.2578044 -0.67623985 43
13.804987 0.25301853 -0.75623637 44
13.806109 -0.75254536 -0.83840495 46
13.800103 1.2583357 -0.92210484 42
13.80547 0.25302738 -1.0006557 45
13.813099 -0.75292635 -1.0838697 44
13.813569 1.2595636 -1.168427 34
13.82957 0.25346908 -1.2471179 38
13.843654 -0.75459176 -1.3315521 33
13.192607 1.2029424 -1.3505212 5
12.720077 0.23313423 -1.3721902 4
11.309254 0.20727658 -1.4205077 3
10.158529 0.18618606 -1.4557867 3
9.2155256 0.16890264 -1.4854121 2
8.456377 0.15498891 -1.512656 4
7.836524 0.14362822 -1.5415591 5
7.2812796 0.13345167 -1.5613662 5
6.7591085 0.12388129 -1.5693027 8
6.3750186 0.11684167 -1.5926929 7
4.8028893 0.088027611 -1.6525447 6
1.6928087 0.031025888 -0.78921455 3
5.6384668 0.065937385 1.4884802 14
6.7035208 0.078392349 1.2954732 16
7.4113121 0.086669408 1.0369148 17
13.743358 0.16071765 1.1932853 36
13.740889 0.16068877 0.70695186 29
13.779212 0.16113694 0.46508044 37
13.752973 -0.84116864 0.38318849 42
13.77957 1.1643689 0.30319163 38
13.785289 0.16120799 0.22090356 35
13.777546 -0.84267157 0.13973425 43
13.774787 1.1639647 0.058388211 45
13.799038 0.16136879 -0.022881255 33
13.797823 -0.84391171 -0.10422952 45
13.777652 1.1642069 -0.18582939 33
13.78048 0.16115177 -0.26654181 45
13.805795 -0.84439933 -0.34914845 37
13.792144 1.1654314 -0.43086943 41
13.809569 0.16149195 -0.51195997 51
13.805445 -0.84437788 -0.59421092 46
13.786391 1.1649452 -0.67545962 38
13.814349 0.16154784 -0.75667387 43
13.8048 -0.84433848 -0.83864707 44
13.804169 1.1664475 -0.92183924 43
13.806845 0.16146009 -1.0006557 44
13.807801 -0.84452206 -1.0838697 42
13.817647 1.1675864 -1.1680912 37
13.818995 0.16160217 -1.2460403 36
13.846292 -0.84687626 -1.3323169 32
12.653092 1.0691819 -1.2945368 208
12.74918 0.14909153 -1.3751928 4
11.326253 0.13245153 -1.4225014 3
10.147662 0.11866885 -1.4540846 3
9.2124949 0.1077328 -1.4847757 2
8.4690304 0.099038579 -1.5147686 5
7.8294549 0.091559254 -1.5400152 4
7.2820044 0.085157253 -1.5613662 5
6.7987423 0.079505891 -1.5783477 4
6.3678923 0.074467443 -1.590754 8
4.7920213 0.056038879 -1.6486411 7
1.6893522 0.019755632 -0.78752458 3
4.5056171 0.021232512 1.1893549 19
6.3465199 0.029907683 1.2264117 19
7.4156985 0.034946136 1.037469 17
13.740159 0.064749867 1.1929394 35
13.753659 0.06481348 0.70756841 30
13.780002 0.064937621 0.46508044 35
13.758734 -0.93797624 0.38352209 41
13.775402 1.0672145 0.3029286 35
13.786078 0.064966254 0.22090356 72
13.779309 -0.93937892 0.13981523 43
13.782577 1.0677702 0.058388211 43
13.795829 0.065012202 -0.022874624 31
13.791595 -0.94021654 -0.10422952 48
13.777468 1.0673745 -0.18572187 35
13.777271 0.064924754 -0.26646444 46
13.803554 -0.94103175 -0.34924939 37
13.795958 1.068807 -0.43074495 39
13.806363 0.065061852 -0.51181179 51
13.795226 -0.94046408 -0.5940392 42
13.786221 1.0680525 -0.67506957 42
13.811146 0.065084383 -0.75645512 44
13.802552 -0.94096351 -0.83888912 44
13.804017 1.0694313 -0.9213081 43
13.811625 0.06508664 -1.0009447 43
13.821463 -0.9422527 -1.0854319 40
13.805592 1.0695533 -1.1664125 33
13.835723 0.065200202 -1.2474771 36
13.847988 -0.94406104 -1.3330817 34
12.668182 0.98143536 -1.2953483 255
12.797633 0.060308255 -1.3803401 4
11.334839 0.053414904 -1.4234983 4
10.175961 0.04795374 -1.458056 3
9.2248697 0.043471768 -1.4866849 2
8.4577036 0.039856534 -1.512656 4
7.8259788 0.036879562 -1.5392432 5
7.2785106 0.034299642 -1.5605277 5
6.7835464 0.031967148 -1.5747297 5
6.38766 0.030101553 -1.595601 6
4.79986 0.022619119 -1.6512436 6
1.689449 0.0079614501 -0.78752458 3
4.3818913 -0.011471813 1.1566859 20
6.1973305 -0.016224641 1.1975728 18
7.4038711 -0.019383371 1.0358064 13
13.76019 -0.036024243 1.1946694 34
13.753765 -0.036007423 0.70756841 30
13.784105 -0.036086854 0.46521536 36
13.767435 -1.040012 0.38396686 42
13.774876 0.96564949 0.30275324 37
13.774185 -0.036060885 0.22071131 23
13.780029 -1.0409634 0.13989621 43
13.770083 0.96531349 0.05830374 43
13.799934 -0.036128294 -0.022881255 33
13.79231 -1.0418911 -0.10428984 45
13.784922 0.96635371 -0.18572187 35
13.777377 -0.03606924 -0.26646444 45
13.808246 -1.043095 -0.34955221 38
13.787469 0.96653223 -0.43024713 39
13.798475 -0.036124475 -0.51151544 51
13.799915 -1.0424657 -0.59455425 46
13.789694 0.96668822 -0.67487448 38
13.815247 -0.036168382 -0.75667387 45
13.799265 -1.0424166 -0.83913124 43
13.807504 0.96793675 -0.9210425 40
13.807742 -0.036148734 -1.0006557 44
13.81816 -1.0438439 -1.0857444 40
13.817037 0.96860498 -1.1667482 33
13.823878 -0.036190979 -1.2463995 41
13.852607 -1.046446 -1.334229 29
12.663127 0.88771337 -1.2941312 255
12.769894 -0.033431642 -1.3773376 3
11.342865 -0.029695675 -1.4244951 3
10.160201 -0.026599456 -1.4557867 3
9.2367878 -0.024181955 -1.4885942 2
8.4735184 -0.022183713 -1.5154729 4
7.8417382 -0.02052971 -1.542331 5
7.2824774 -0.019065561 -1.5613662 5
6.7874951 -0.017769694 -1.5756341 4
6.3799481 -0.016702734 -1.5936623 6
4.7998972 -0.012566154 -1.6512436 6
1.7148401 -0.0044894596 -0.79935437 4
4.3236942 -0.041505512 1.1413723 19
6.1617212 -0.059149735 1.1907425 17
7.4114776 -0.071146831 1.0369148 11
13.759603 -0.13208596 1.1946694 35
13.74519 -0.13194761 0.70715737 28
13.783517 -0.13231553 0.46521536 35
13.763824 -1.136429 0.38407809 39
13.781281 0.86945915 0.30275324 34
13.773598 -0.1322203 0.22071131 22
13.76844 -1.1368101 0.13985573 42
13.776486 0.86915666 0.05830374 40
13.803345 -0.13250586 -0.022887887 30
13.796659 -1.1391399 -0.10438032 43
13.779357 0.86933774 -0.18556061 33
13.780787 -0.13228934 -0.26654181 49
13.808599 -1.1401258 -0.3497541 38
13.79388 0.87025404 -0.43024713 43
13.805881 -0.13253021 -0.51181179 51
13.792302 -1.1387802 -0.59455425 47
13.79212 0.87014294 -0.67467946 40
13.814657 -0.13261446 -0.75667387 44
13.811547 -1.1403692 -0.84034175 43
13.801975 0.87076473 -0.92024577 42
13.811142 -0.13258071 -1.0009447 46
13.81451 -1.1406139 -1.0860568 40
13.823462 0.87212032 -1.1667482 33
13.827271 -0.13273555 -1.2467587 39
13.840996 -1.1428007 -1.3338466 28
12.669016 0.79928648 -1.2941312 255
12.781278 -0.12269449 -1.3786243 3
11.318568 -0.10865314 -1.4215045 3
10.183523 -0.09775722 -1.4591907 2
9.2521887 -0.088816829 -1.4911399 2
8.4810314 -0.081414066 -1.5168812 4
7.8492532 -0.075349279 -1.5438749 4
7.2743449 -0.069830425 -1.559689 5
6.7794127 -0.065079294 -1.5738251 4
6.3913174 -0.061353758 -1.5965704 8
4.7921281 -0.046002261 -1.6486411 7
1.6930151 -0.016252179 -0.78921455 7
4.2962298 -0.071240716 1.134226 20
6.1611581 -0.10216522 1.1907425 16
7.4108005 -0.12288697 1.0369148 10
13.766315 -0.22827503 1.1953613 35
13.743934 -0.2279039 0.70715737 29
13.77826 -0.22847311 0.46508044 35
13.771485 -1.2339182 0.38452286 42
13.767052 0.7721085 0.30231485 37
13.772339 -0.22837493 0.22071131 23
13.780087 -1.234689 0.14005817 44
13.774231 0.77251112 0.058269948 41
13.794086 -0.22873552 -0.022874624 30
13.792354 -1.2357881 -0.10441048 44
13.78509 0.77312016 -0.18556061 33
13.779529 -0.22849415 -0.26654181 44
13.808267 -1.2372139 -0.34995598 36
13.791636 0.77348727 -0.42999822 39
13.808616 -0.22897647 -0.51195997 50
13.795957 -1.2361109 -0.59506935 43
13.78988 0.7733888 -0.67428935 40
13.813395 -0.22905572 -0.75667387 42
13.811202 -1.2374768 -0.84082597 42
13.807718 0.77438921 -0.92024577 40
13.805891 -0.22893129 -1.0006557 45
13.834013 -1.2395207 -1.088244 37
13.829214 0.77559477 -1.1667482 35
13.826008 -0.22926487 -1.2467587 33
13.836645 -1.2397566 -1.334229 27
12.674288 0.71082211 -1.2941312 255
12.819874 -0.21258101 -1.3829138 4
11.337376 -0.18799801 -1.4239967 6
10.186552 -0.16891488 -1.459758 2
9.2355499 -0.15314522 -1.4885942 2
8.4881296 -0.14075141 -1.5182897 4
7.8563843 -0.13027571 -1.5454187 5
7.2893229 -0.12087261 -1.5630432 5
6.7865849 -0.11253614 -1.5756341 7
6.3790927 -0.10577904 -1.5936623 7
4.8030357 -0.079644643 -1.6525447 6
1.6964854 -0.028131368 -0.79090452 7
4.2762957 -0.10077672 1.1291214 19
6.1563683 -0.14508319 1.1899836 15
7.413722 -0.17471445 1.037469 9
13.752433 -0.32409477 1.1943233 40
13.749994 -0.32403731 0.70756841 28
13.776329 -0.32465792 0.46508044 32
13.770495 -1.3307989 0.38474527 41
13.772106 0.67597753 0.30231485 36
13.770409 -0.32451841 0.22071131 27
13.791039 -1.3327842 0.14026064 46
13.771298 0.67593789 0.058236159 43
13.804149 -0.32531354 -0.02289452 31
13.799315 -1.3335841 -0.10453112 42
13.794147 0.67705935 -0.18561436 34
13.781596 -0.32478204 -0.26661915 48
13.807255 -1.3343513 -0.35015786 38
13.792706 0.67698866 -0.42987376 40
13.80668 -0.32537317 -0.51195997 54
13.798924 -1.3335463 -0.59558439 48
13.782971 0.67651081 -0.67370421 36
13.811459 -0.3254858 -0.75667387 46
13.818124 -1.3354018 -0.84179437 41
13.804815 0.67758298 -0.91971457 39
13.819909 -0.32568496 -1.0018121 46
13.828993 -1.3364521 -1.0885564 38
13.822349 0.67844355 -1.165741 34
13.832036 -0.32597074 -1.2474771 36
13.843506 -1.3378547 -1.3357586 31
12.678941 0.62232161 -1.2941312 255
12.790247 -0.30141956 -1.3799112 4
11.359593 -0.26770425 -1.4269872 5
10.181166 -0.23993301 -1.4591907 2
9.238203 -0.21771082 -1.4892306 2
8.4830046 -0.19991355 -1.5175855 4
7.8592072 -0.1852129 -1.5461906 4
7.3000307 -0.17203516 -1.5655589 5
6.7973199 -0.16018808 -1.5783477 7
6.3781986 -0.15031092 -1.5936623 7
4.7872367 -0.11281775 -1.6473399 6
1.6853743 -0.039718136 -0.78583461 7
4.2445621 -0.12968306 1.1209543 19
6.1473546 -0.18781862 1.1884657 12
7.4044027 -0.22622488 1.0363606 7
13.749835 -0.42009532 1.1943233 36
13.75139 -0.42014283 0.70777386 28
13.777723 -0.42094737 0.46521536 34
13.768824 -1.4277275 0.38496765 42
13.772495 0.57964712 0.30222717 36
13.783798 -0.42113298 0.22096765 24
13.785376 -1.4294437 0.14030112 43
13.775682 0.57978123 0.058236159 44
13.797543 -0.4215529 -0.022887887 32
13.809562 -1.4319516 -0.10468191 46
13.790545 0.58040679 -0.18550687 32
13.78299 -0.42110828 -0.26669651 47
13.801579 -1.431124 -0.3502588 35
13.797097 0.58068258 -0.42987376 40
13.808068 -0.42187449 -0.51210815 52
13.793253 -1.4302605 -0.59575611 49
13.799335 0.58077669 -0.67428935 40
13.804857 -0.42177641 -0.75645512 45
13.820378 -1.4330733 -0.84252071 39
13.809209 0.58119231 -0.91971457 42
13.813312 -0.42203471 -1.001523 43
12.712668 -1.3182118 -1.0013844 5
13.822765 0.58176285 -1.1654052 33
13.821459 -0.42228362 -1.2467587 34
12.679001 0.53362489 -1.2937255 255
12.787831 -0.39070344 -1.3799112 4
11.369349 -0.3473649 -1.4284825 5
10.179242 -0.31100389 -1.4591907 2
9.2482996 -0.282561 -1.4911399 2
8.4892731 -0.25937068 -1.518994 4
7.8420305 -0.23959562 -1.543103 4
7.31038 -0.22335224 -1.5680745 5
6.8038254 -0.20787559 -1.5801566 9
6.3925099 -0.19530879 -1.5975398 8
4.7938943 -0.14646667 -1.6499424 6
1.6959273 -0.051815245 -0.79090452 7
4.2435536 -0.15931253 1.1209543 21
6.1262703 -0.22999395 1.1846712 10
7.4105601 -0.27820909 1.037469 5
13.762497 -0.51667506 1.1957072 39
13.748121 -0.51613539 0.70777386 31
13.778443 -0.51727372 0.4653503 35
13.774417 -1.525576 0.38541245 38
13.776205 0.48348287 0.30222717 37
13.780521 -0.51735175 0.22096765 26
13.786987 -1.5269684 0.1404226 34
13.783391 0.48373505 0.058253054 43
13.790266 -0.5177176 -0.022881255 33
13.80718 -1.5292047 -0.10474223 44
13.790263 0.48397624 -0.1854531 33
13.775718 -0.51717138 -0.26661915 48
13.803176 -1.5287611 -0.35056162 37
13.792823 0.48406607 -0.42962486 41
13.80878 -0.51841265 -0.51225632 53
13.79882 -1.5282788 -0.59644282 23
13.787081 0.48386455 -0.67350912 39
13.81355 -0.5185917 -0.75711137 46
12.286171 -1.3607464 -0.74955291 2
13.81293 0.48477173 -0.91971457 41
13.806041 -0.51830983 -1.0012338 47
12.104661 -1.3406434 -0.95420527 1
13.822506 0.48510784 -1.1650695 34
13.830117 -0.51921368 -1.2478362 39
12.054484 -1.3350861 -1.1648213 3
12.686394 0.44523537 -1.2941312 255
12.673515 -0.47579226 -1.3679007 8
11.38251 -0.42732501 -1.4304762 3
10.184736 -0.38235793 -1.4603254 2
9.2776718 -0.34830463 -1.4962313 2
8.4833202 -0.31848294 -1.5182897 4
7.8440886 -0.29448473 -1.5438749 5
7.3008256 -0.2740894 -1.5663974 5
6.786633 -0.25478548 -1.5765387 11
6.3871126 -0.23978657 -1.5965704 6
4.7965345 -0.18007268 -1.6512436 6
1.7100158 -0.064197838 -0.7976644 3
4.2462015 -0.18910581 1.1219752 21
6.100975 -0.27170867 1.1801176 8
7.4084373 -0.32993689 1.037469 4
13.754573 -0.61256385 1.1953613 38
13.760147 -0.61281204 0.70859593 34
13.77849 -0.61362904 0.46548522 37
13.763431 -1.6217024 0.38541245 39
13.771251 0.38707197 0.30205181 37
13.776574 -0.61354369 0.22096765 24
13.783936 -1.6241186 0.14050357 42
13.774437 0.38716152 0.058202371 42
13.794309 -0.61433351 -0.02289452 34
13.812057 -1.627432 -0.10486286 40
13.789309 0.3875795 -0.18539935 34
13.783757 -0.61386359 -0.26685119 50
13.808051 -1.62696 -0.35096535 38
13.799863 0.38787618 -0.42974931 41
13.808819 -0.61497968 -0.5124045 53
12.073268 -1.4225558 -0.52227378 9
13.78613 0.38749018 -0.67331409 38
13.821565 -0.6155473 -0.75776768 43
11.756926 -1.3852822 -0.71783733 6
13.811988 0.38821697 -0.91944897 40
13.814043 -0.61521238 -1.0021013 43
11.698969 -1.3784534 -0.92296082 8
13.825557 0.38859835 -1.1650695 34
13.822176 -0.61557454 -1.2474771 37
11.590122 -1.3656282 -1.1208441 3
12.689193 0.35665831 -1.2941312 255
12.657967 -0.56372619 -1.366614 9
11.375284 -0.50660157 -1.4299778 3
10.18182 -0.45345023 -1.4603254 2
9.2710686 -0.41288969 -1.4955949 2
8.4887581 -0.37804928 -1.5196981 4
7.8575258 -0.34993714 -1.5469626 5
7.2909198 -0.32470322 -1.5647204 5
6.7924747 -0.30250481 -1.5783477 7
6.3814058 -0.28419775 -1.595601 5
4.7989397 -0.21372214 -1.6525447 6
1.6841729 -0.075005122 -0.78583461 3
4.2409153 -0.21854623 1.1209543 20
6.1067734 -0.31469911 1.1816355 6
7.3940849 -0.38103786 1.0358064 3
13.761901 -0.70918924 1.1963992 42
13.751543 -0.70865548 0.70839041 32
13.785847 -0.71042323 0.46588999 38
13.771613 -1.7202262 0.38596845 42
13.773618 0.29092109 0.30205181 35
13.775949 -0.70991319 0.22103173 25
13.792107 -1.7227861 0.14070603 42
13.776804 0.29098839 0.058202371 54
13.793677 -0.71082675 -0.022901151 29
13.804329 -1.7243128 -0.10489302 42
13.791678 0.29130256 -0.18539935 34
13.775142 -0.70987159 -0.26677385 49
13.840004 -1.7287689 -0.3520757 1
13.79424 0.29135668 -0.4295004 38
