# .PCD v0.7 - Point Cloud Data file format
VERSION 0.7
FIELDS x y z intensity
SIZE 4 4 4 4
TYPE F F F F
COUNT 1 1 1 1
WIDTH 1343
HEIGHT 1
VIEWPOINT 0 0 0 1 0 0 0
POINTS 1343
DATA ascii
-13.47205 -15.443301 -1.9682649 44
-6.2334089 -9.6834908 -1.1740488 45
-7.2736287 -9.6770048 -1.305704 35
-7.2659512 -9.6667919 -1.5186971 37
-7.2727823 -9.6758795 -1.7343491 29
-7.2605863 -9.6596537 -1.9474554 26
-7.1494966 -9.511858 -2.1281407 2
-6.4118829 -8.5305185 -2.0988979 2
-5.8231812 -7.7472963 -2.0779083 4
-5.2979207 -7.0484772 -2.0468771 4
-4.901258 -6.5207481 -2.0376387 5
-3.4248621 -4.5565166 -1.9609331 6
-2.4571466 -3.2690454 -1.9062827 8
-1.6236808 -2.1275313 0.70646662 1
-2.2111006 -2.8972354 0.70427603 12
-2.8263097 -3.7033525 0.65174335 7
-5.272862 -6.9091034 0.75458264 20
-6.1484823 -8.0564404 0.52137697 11
-5.6534877 -7.4078426 0.31450608 21
-6.5467372 -7.3945374 0.27465919 21
-10.256132 -15.678986 0.41077292 2
-9.4970007 -12.444051 0.2508316 1
-12.517211 -14.138186 0.19115774 8
-12.467862 -19.06015 0.096198633 41
-13.01696 -17.056301 -0.035575379 36
-13.607244 -15.369376 -0.15477602 40
-12.442763 -19.021782 -0.30548695 41
-14.974975 -19.621916 -0.47739291 24
-13.590043 -15.349949 -0.51751494 43
-12.418164 -18.984175 -0.70616782 44
-13.114746 -17.184431 -0.80135441 22
-13.603037 -15.364625 -0.881616 49
-12.448768 -19.03096 -1.1102271 48
-15.059554 -19.73274 -1.3595629 11
-13.590622 -15.350603 -1.2432022 59
-6.456193 -9.8698568 -0.78479832 0
-15.098344 -19.783567 -1.803551 18
-13.555481 -15.31091 -1.6022149 45
-6.4214525 -9.8167477 -0.98812658 0
-14.98494 -19.634972 -2.2269962 16
-13.524186 -15.275563 -1.9594696 43
-6.3325448 -9.68083 -1.1793227 52
-7.3877983 -9.6803331 -1.3134249 41
-7.367919 -9.6542845 -1.5251766 39
-7.3963628 -9.691555 -1.7468306 4
-7.3743243 -9.6626778 -1.9589111 19
-7.2142525 -9.4529343 -2.1267323 1
-6.4718614 -8.4801683 -2.0981259 2
-5.8703237 -7.6919656 -2.0745542 4
-5.3589015 -7.0218425 -2.0504951 3
-4.9536343 -6.4908147 -2.0395775 5
-3.4466972 -4.5162544 -1.954427 5
-2.4744456 -3.2422998 -1.9012128 7
-2.9881203 -3.8592112 1.2883828 12
-2.2240596 -2.8724129 0.70199925 15
-3.1989055 -4.131444 0.7309944 7
-5.2721729 -6.8091063 0.74766302 16
-6.1532173 -7.946991 0.51706129 13
-5.7295399 -7.3998036 0.31585532 20
-6.6356006 -7.3903055 0.27621597 21
-12.436199 -18.725073 0.49283984 25
-9.5542603 -12.339499 0.25006258 1
-12.564837 -13.993908 0.19038841 8
-12.532022 -18.869352 0.095674895 45
-13.091636 -16.908083 -0.035455998 45
-13.660764 -15.214481 -0.15417284 41
-12.528788 -18.864483 -0.30435812 30
-15.263394 -19.71295 -0.48218852 19
-13.638101 -15.18924 -0.51529425 46
-12.592422 -18.960299 -0.70853251 17
-13.178108 -17.019764 -0.79794627 22
-13.667253 -15.221707 -0.878869 51
-12.492911 -18.810465 -1.1024251 30
-13.089177 -16.904907 -1.1709961 0
-13.641442 -15.192962 -1.2381181 55
-6.5492296 -9.8611155 -0.78771973 0
-15.382636 -19.866951 -1.8208983 16
-13.614084 -15.162492 -1.596591 43
-6.4942403 -9.7783194 -0.98879808 0
-15.282621 -19.73778 -2.2507029 18
-13.566657 -15.109671 -1.9502918 45
-6.4307971 -9.6827927 -1.1850022 65
-7.5063276 -9.6945572 -1.3224328 45
-7.4837327 -9.6653748 -1.5351452 36
-7.5026259 -9.6897764 -1.7559079 7
-7.4827013 -9.6640434 -1.9697303 3
-7.2993536 -9.427247 -2.1323659 2
-6.5381131 -8.4440908 -2.1004417 2
-5.9238791 -7.6507964 -2.0745542 4
-5.3910933 -6.9626937 -2.0441637 3
-4.9893231 -6.4438009 -2.0356998 7
-3.4920359 -4.5100269 -1.9622343 6
-2.5058985 -3.236413 -1.9079727 7
-3.0412693 -3.8717117 1.2996126 19
-2.2173724 -2.8228433 0.69365114 17
-3.1885169 -4.0591664 0.7221272 10
-5.2654247 -6.7031903 0.74005145 8
-6.1591949 -7.8410115 0.51295114 11
-5.8181024 -7.4067812 0.31787917 20
-6.7220273 -7.3822351 0.27766153 22
-10.693141 -15.859201 0.41936541 0
-9.5833492 -12.200158 0.24858861 0
-12.619138 -13.858533 0.18974057 8
-12.591889 -18.675272 0.095134266 4
-13.145113 -16.734489 -0.035283558 45
-13.702013 -15.047764 -0.15344903 43
-12.841296 -19.045172 -0.30871221 14
-15.546399 -19.791466 -0.48675206 17
-13.679193 -15.022703 -0.51287174 45
-12.851884 -19.060875 -0.71562654 13
-13.224999 -16.836189 -0.79364908 27
-13.708611 -15.055009 -0.87474847 53
-12.666364 -18.785727 -1.106131 5
-13.135327 -16.722033 -1.1646521 0
-13.685347 -15.02946 -1.2325497 59
-6.6647692 -9.8846464 -0.79329699 6
-13.142785 -16.731525 -1.5418944 6
-13.657852 -14.999266 -1.5894047 44
-6.57126 -9.7459612 -0.99014109 0
-15.582463 -19.837378 -2.2744098 19
-13.626236 -14.964544 -1.9437908 41
-6.5316081 -9.6871529 -1.1910875 60
-7.6131315 -9.6919565 -1.3292959 45
-7.6172209 -9.6971626 -1.5486026 3
-7.6361299 -9.7212353 -1.771226 3
-7.5914564 -9.6643629 -1.9805495 3
-7.3601255 -9.3698654 -2.1309576 2
-6.59448 -8.395155 -2.0996697 2
-5.9819789 -7.6154051 -2.0762312 3
-5.4564185 -6.9463367 -2.0504951 3
-5.0413795 -6.4179678 -2.0386081 7
-3.5187635 -4.4795895 -1.9596318 5
-2.5373898 -3.2302439 -1.9147326 7
-3.0947373 -3.8836563 1.3108426 21
-2.2223403 -2.7888656 0.68909764 14
-3.1871529 -3.9996305 0.71547675 6
-4.8998413 -6.1489224 0.68261874 16
-6.1465688 -7.713469 0.50740236 11
-5.8995667 -7.4035001 0.31949824 21
-6.816803 -7.3821273 0.2794407 21
-9.2156944 -13.464227 0.35772756 3
-9.6259174 -12.079782 0.24749914 1
-12.658597 -13.708386 0.18889025 9
-11.797915 -17.236877 0.088224322 2
-13.191824 -16.55472 -0.035097856 64
-13.755174 -14.895905 -0.152876 47
-13.068822 -19.093685 -0.31096992 15
-13.266638 -16.648605 -0.41172433 24
-13.734908 -14.873958 -0.51105481 45
-12.578161 -18.376825 -0.69322431 70
-13.217663 -16.587145 -0.7862401 68
-13.759155 -14.900216 -0.87131476 56
-12.673088 -18.515514 -1.0954032 12
-13.184546 -16.545586 -1.1587458 25
-13.727638 -14.866085 -1.2269813 57
-6.751647 -9.8642273 -0.79542166 28
-13.199602 -16.564482 -1.5349554 9
-13.70001 -14.836166 -1.5822185 42
-6.7089291 -9.801815 -1.0005496 0
-13.193167 -16.556406 -1.9087512 4
-13.679053 -14.813471 -1.936525 46
-6.6462765 -9.7102795 -1.1996069 42
-7.732655 -9.7038851 -1.3383037 43
-7.7243085 -9.6934099 -1.5565774 3
-7.74576 -9.7203302 -1.7808708 14
-7.7030401 -9.6667204 -1.9920051 7
-7.4106374 -9.299777 -2.1267323 3
-6.6455903 -8.3397026 -2.0973539 3
-6.0423117 -7.582634 -2.0787468 3
-5.4950671 -6.895885 -2.0468771 4
-5.0884809 -6.3856502 -2.0395775 7
-3.5640945 -4.4726634 -1.9674392 6
-2.5553606 -3.2067802 -1.9113526 8
-3.1387939 -3.8830106 1.317989 21
-2.2392871 -2.7702284 0.6883387 9
-3.1876042 -3.9433939 0.70938051 9
-4.9150929 -6.0804753 0.67881298 10
-6.1550665 -7.61445 0.50370318 13
-5.9812665 -7.3994412 0.32111734 23
-6.9146361 -7.3839731 0.28133106 24
-10.922653 -15.721495 0.41971612 23
-9.6823587 -11.978073 0.24679419 0
-12.704779 -13.567127 0.18816142 8
-11.792439 -16.973419 0.087295108 10
-13.271873 -16.418669 -0.035005003 36
-13.801416 -14.7382 -0.15224266 45
-12.713438 -18.299057 -0.29946646 52
-13.347345 -16.512037 -0.41064146 3
-13.791947 -14.728088 -0.50933886 44
-12.683337 -18.255732 -0.69197977 52
-13.275345 -16.422964 -0.78283197 4
-13.808211 -14.745457 -0.867881 50
-12.699461 -18.27894 -1.0866259 30
-16.252439 -20.105938 -1.4160018 13
-13.781963 -14.717427 -1.2226235 60
-6.8567834 -9.8692951 -0.79967099 1
-16.281876 -20.142353 -1.8769883 16
-13.754189 -14.687767 -1.5765946 43
-6.7885656 -9.7711058 -1.0022283 0
-16.17598 -20.011349 -2.3200271 17
-13.724983 -14.656579 -1.9284943 44
-6.7388806 -9.6995916 -1.2040694 66
-7.850214 -9.7115211 -1.3468826 41
-7.841692 -9.7009783 -1.5665458 3
-7.8034749 -9.6536999 -1.7786014 1
-7.8398495 -9.698699 -2.009825 8
-7.4877577 -9.2631254 -2.1302533 6
-6.7085853 -8.2992096 -2.0988979 4
-6.100018 -7.546349 -2.0804241 3
-5.5577722 -6.8755355 -2.0523043 5
-5.1304975 -6.3469524 -2.0386081 4
-3.590477 -4.4417892 -1.9648367 6
-2.5754068 -3.1860428 -1.9096626 8
-3.1682775 -3.8639948 1.3190099 20
-2.2610621 -2.7575653 0.68909764 6
-3.1874263 -3.8873484 0.70328426 12
-4.9852152 -6.0799112 0.68261874 10
-6.1523509 -7.5033364 0.49918199 13
-6.0758681 -7.4100595 0.32341102 21
-7.0100713 -7.3819108 0.28311023 24
-11.066713 -15.693879 0.4210313 21
-11.989725 -14.622531 0.30299741 17
-12.763379 -13.440394 0.18763503 8
-11.919869 -16.903755 0.087362684 7
-13.322762 -16.248289 -0.034839198 35
-13.857149 -14.592182 -0.15172996 47
-13.583075 -19.262371 -0.31677541 17
-16.479834 -20.098616 -0.50268579 17
-13.842115 -14.576351 -0.50742102 45
-12.782829 -18.127531 -0.69048631 18
-13.351653 -16.283524 -0.78060931 10
-13.858532 -14.593638 -0.8646189 54
-12.81525 -18.173508 -1.0856507 3
-16.567142 -20.205097 -1.4310958 14
-13.829387 -14.562948 -1.2177814 61
-13.563526 -19.234648 -1.5661441 18
-16.596636 -20.241068 -1.8969377 15
-13.79598 -14.527769 -1.5697207 44
-6.9186358 -9.8114262 -1.0112936 0
-16.492104 -20.113581 -2.3451707 17
-13.774877 -14.505546 -1.9212285 44
-6.8591781 -9.727108 -1.2134001 50
-7.9859028 -9.7395153 -1.358464 29
-8.0325308 -9.796382 -1.5909686 2
-7.9585485 -9.7061548 -1.7984582 4
-7.9223895 -9.662055 -2.0136435 4
-7.5522418 -9.2106276 -2.1302533 4
-6.7887559 -8.2794886 -2.1058452 4
-6.1500711 -7.5005565 -2.0795856 3
-5.6031647 -6.8335552 -2.0513997 5
-5.1869841 -6.3259859 -2.0434549 4
-3.630991 -4.4283152 -1.9700416 6
-2.5975859 -3.1679862 -1.9096626 7
-3.2199066 -3.8715172 1.329219 22
-2.2677019 -2.7266154 0.68530303 7
-3.1916897 -3.8375902 0.69829643 12
-5.0402808 -6.0602794 0.68434864 10
-6.1688228 -7.4172039 0.49630487 11
-6.1555715 -7.4012709 0.32489517 22
-7.1141334 -7.3875136 0.28522301 17
-11.231865 -15.694286 0.42313558 27
-9.7514715 -11.724872 0.24435894 0
-12.790313 -13.281816 0.18666326 8
-12.12605 -16.943731 0.088004686 5
-13.387277 -16.096453 -0.034713186 35
-13.897645 -14.431701 -0.15106647 45
-13.842917 -19.34271 -0.31967816 17
-16.791084 -20.189087 -0.50786811 18
-13.893614 -14.427514 -0.50560409 44
-12.825307 -17.920803 -0.68600583 18
-13.372993 -16.079279 -0.77527481 1
-13.910181 -14.444718 -0.86152852 45
-12.839507 -17.940645 -1.0770684 0
-13.349382 -16.05089 -1.1434329 11
-13.883637 -14.417155 -1.2136656 59
-13.818264 -19.308264 -1.5799544 22
-13.324216 -16.02063 -1.5100908 39
-13.850044 -14.382271 -1.5644093 44
-7.0403171 -9.8374367 -1.019016 0
-16.800251 -20.200108 -2.3688774 16
-13.834381 -14.366006 -1.9154924 46
-6.957026 -9.7210531 -1.2186739 55
-8.1452513 -9.793601 -1.373906 9
-8.0702734 -9.7034492 -1.5849875 32
-8.0919456 -9.7295084 -1.8132089 14
-8.6386204 -10.386812 -2.1772044 1
-7.6264315 -9.1697874 -2.1330702 3
-6.8664703 -8.2560339 -2.1120207 3
-6.1947823 -7.4484167 -2.0770698 3
-5.6607018 -6.8062549 -2.0550177 5
-5.2359848 -6.295588 -2.0453937 4
-3.6545622 -4.3941336 -1.9661379 5
-2.6150029 -3.1441994 -1.9062827 8
-3.2643125 -3.8696368 1.3363653 21
-2.2892144 -2.7137194 0.68606198 7
-3.1877522 -3.7788792 0.69164598 12
-5.1184397 -6.0675874 0.68919235 12
-6.161212 -7.3037281 0.49157816 10
-6.2509131 -7.4100628 0.32718888 24
-7.2186108 -7.3920221 0.28733575 23
-11.369358 -15.65432 0.42418772 29
-12.084411 -14.325306 0.30030578 19
-12.857573 -13.166448 0.18629883 9
-12.342768 -16.994595 0.088714264 5
-13.42195 -15.910875 -0.034514219 37
-13.947752 -14.282816 -0.1505236 47
-14.106888 -19.423588 -0.32263464 17
-13.445246 -15.938491 -0.40329337 57
-13.938119 -14.272951 -0.50358534 42
-12.884321 -17.740252 -0.68252105 13
-13.433375 -15.924418 -0.77231127 53
-13.946464 -14.281496 -0.85757971 55
-12.882271 -17.737429 -1.0702417 0
-13.407032 -15.89319 -1.138839 51
-13.922577 -14.257036 -1.2083393 57
-14.074684 -19.379248 -1.5937647 15
-13.381716 -15.86318 -1.5040193 50
-13.888815 -14.222464 -1.5575354 44
-7.0479245 -9.704195 -1.0102865 15
-13.403707 -15.889249 -1.8742688 50
-13.875915 -14.209252 -1.9074618 48
-7.064476 -9.726984 -1.2255707 57
-13.375344 -15.855626 -2.2373693 37
-8.2171507 -9.7409134 -1.6004387 28
-8.2107353 -9.7333088 -1.8245558 9
-8.7160168 -10.332288 -2.178477 1
-7.6877241 -9.1133118 -2.1323659 2
-6.9036956 -8.1838951 -2.1058452 4
-6.2592406 -7.4199352 -2.0812626 3
-5.7131052 -6.7725258 -2.0568266 5
-5.2748041 -6.2529473 -2.0434549 4
-3.690028 -4.3742952 -1.9687403 7
-2.6485782 -3.1397223 -1.9147326 7
-3.3214202 -3.8820176 1.3486161 22
-2.2927847 -2.6797667 0.68150848 5
-3.1934528 -3.7324519 0.68721235 14
-5.1865816 -6.0619855 0.69265217 12
-6.1653056 -7.2059011 0.48787898 7
-6.3388777 -7.4087696 0.32907781 20
-7.312243 -7.3840632 0.28900373 22
-11.53056 -15.64539 0.42611665 30
-12.124323 -14.170696 0.29883182 21
-12.906961 -13.033732 0.18569148 8
-12.577388 -17.065792 0.089542106 7
-13.478092 -15.752958 -0.034374941 37
-13.990835 -14.128251 -0.14992042 42
-12.937046 -17.553797 -0.29306966 12
-13.49119 -15.768267 -0.40135968 53
-13.978336 -14.11563 -0.50146562 45
-12.910603 -17.517918 -0.67741835 59
-13.479254 -15.754316 -0.76860678 53
-13.995212 -14.132671 -0.85448933 50
-12.896749 -17.499121 -1.0612694 20
-13.46573 -15.738509 -1.1344639 49
-13.982439 -14.119773 -1.2049499 56
-12.928607 -17.542347 -1.4500842 16
-13.429888 -15.696617 -1.4970803 45
-13.948485 -14.085485 -1.5531613 53
-7.2408295 -9.8248129 -1.0280814 12
-13.452147 -15.722635 -1.8656482 54
-13.918742 -14.05545 -1.8998135 52
-7.181787 -9.7447004 -1.23409 26
-13.431417 -15.698404 -2.2283614 56
-13.406609 -15.66941 -2.5898099 3
-10.322367 -12.064602 -2.2750213 1
-8.7982063 -10.28319 -2.1810229 1
-7.7665181 -9.0773706 -2.1365914 2
-6.9708676 -8.1474285 -2.108933 3
-6.3108888 -7.3760567 -2.0812626 2
-5.7703795 -6.7443185 -2.0604446 4
-5.3208523 -6.2189193 -2.0444243 4
-3.7204762 -4.3484273 -1.9687403 5
-2.668076 -3.1184006 -1.9130425 8
-3.3611138 -3.8733413 1.3537207 20
-2.3140104 -2.6666613 0.68226737 7
-3.1882761 -3.6741633 0.6805619 12
-5.2810102 -6.0858264 0.69957179 12
-6.1866603 -7.1294961 0.48561838 7
-6.421886 -7.4005694 0.33069688 20
-7.4146137 -7.3836193 0.29100531 22
-11.706563 -15.654181 0.42857164 31
-12.181014 -14.037378 0.29780644 21
-12.946623 -12.892505 0.18496263 8
-12.820789 -17.144142 0.090420634 14
-13.530062 -15.592018 -0.034229033 39
-14.040946 -13.982252 -0.14940771 45
-12.999395 -17.382977 -0.29172578 13
-13.559003 -15.62537 -0.40012211 53
-14.031205 -13.972553 -0.49985057 45
-12.99667 -17.379332 -0.67555147 255
-13.533892 -15.596432 -0.765495 56
-14.0369 -13.978223 -0.85105562 50
-12.997067 -17.379864 -1.0595139 19
-13.517685 -15.577755 -1.1296513 47
-14.021259 -13.962648 -1.1998657 61
-12.936028 -17.298241 -1.4373362 19
-13.486845 -15.542215 -1.4912978 42
-13.984316 -13.925859 -1.5462874 48
-12.957076 -17.326385 -1.8224775 9
-13.517195 -15.57719 -1.8595419 53
-13.971386 -13.912983 -1.893695 45
-7.2996893 -9.7612476 -1.2426094 29
-13.483337 -15.538174 -2.2189248 62
-12.545436 -14.457337 -2.4038978 3
-10.416719 -12.004209 -2.2772906 2
-8.8749552 -10.227483 -2.1822956 1
-7.8322797 -9.0259047 -2.1372955 2
-7.0404377 -8.1133871 -2.1127927 3
-6.3724813 -7.3436356 -2.0846167 2
-5.7994456 -6.6832705 -2.0541131 3
-5.3641376 -6.181622 -2.0444243 4
-3.7581792 -4.3309188 -1.972644 6
-2.6850286 -3.0942221 -1.9096626 7
-3.4008482 -3.8642981 1.3588252 21
-2.3325708 -2.6504414 0.68226737 5
-3.1824429 -3.6161299 0.67391145 11
-5.3575935 -6.0876985 0.7040695 13
-6.2336435 -7.0831323 0.48541287 5
-6.5156536 -7.403573 0.33285564 19
-7.5230379 -7.3877072 0.29322925 22
-11.902586 -15.68676 0.43172807 28
-12.220586 -13.885943 0.29639655 21
-13.030607 -12.796201 0.18488166 5
-13.046551 -17.194424 0.091164 34
-13.580446 -15.431119 -0.034083121 36
-14.083994 -13.830639 -0.14883469 42
-14.933652 -19.68149 -0.33204168 17
-13.604347 -15.458278 -0.39826575 50
-14.068496 -13.81542 -0.49773085 41
-13.083851 -17.243584 -0.67380905 12
-13.584348 -15.435552 -0.76223505 52
-14.088523 -13.835086 -0.84830862 45
-13.13016 -17.304615 -1.0604892 3
-13.554863 -15.40205 -1.123745 45
-14.072815 -13.819661 -1.195992 60
-14.902044 -19.639833 -1.6405073 19
-13.526492 -15.369812 -1.4837806 43
-14.038516 -13.785978 -1.5416007 45
-14.935298 -19.683659 -2.0813444 16
-13.554551 -15.401695 -1.8498436 92
-14.014199 -13.7621 -1.8864292 47
-7.4085493 -9.7639408 -1.249506 36
-13.544193 -15.389925 -2.2112036 64
-12.703746 -14.434946 -2.4148631 2
-10.529046 -11.96389 -2.2835314 1
-8.9644032 -10.186026 -2.1867507 1
-7.8898988 -8.9650936 -2.1358871 2
-7.0969081 -8.0640383 -2.1127927 3
-6.4055071 -7.2784166 -2.0787468 2
-5.8022013 -6.592895 -2.0387368 5
-5.4148536 -6.1527619 -2.0473325 4
-3.7783277 -4.2932186 -1.9674392 5
-2.7161455 -3.0862877 -1.9164225 7
-3.4457705 -3.8606596 1.3659716 22
-2.3457873 -2.6282325 0.68074954 5
-3.2023354 -3.5879135 0.67280304 7
-5.4158845 -6.067986 0.70614541 17
-6.1712213 -6.914269 0.47678149 15
-6.6044497 -7.3996606 0.33474457 19
-7.6232595 -7.3822951 0.29511964 24
-12.043523 -15.644478 0.43286785 28
-12.274619 -13.752549 0.2953712 22
-10.729011 -10.389877 0.15119319 0
-13.100391 -17.017345 0.090707846 30
-13.623921 -15.264314 -0.03392395 35
-14.137102 -13.690241 -0.14838231 56
-15.229278 -19.782759 -0.33553573 17
-13.653349 -15.297284 -0.39656407 52
-14.110022 -13.664017 -0.49581301 44
-13.116116 -17.037771 -0.66932863 21
-13.638543 -15.280697 -0.75927144 59
-14.138829 -13.691915 -0.84556156 44
-13.006937 -16.895948 -1.0409842 0
-13.60887 -15.24745 -1.1193699 48
-14.102981 -13.657198 -1.1904236 62
-15.192175 -19.734562 -1.6572391 21
-13.590961 -15.227385 -1.4791546 45
-14.074257 -13.629383 -1.5350394 51
-15.235257 -19.790525 -2.1038401 16
-13.611343 -15.250222 -1.843019 60
-14.072748 -13.627922 -1.8814579 48
-7.5226545 -9.7718925 -1.257214 32
-13.587749 -15.223786 -2.2009091 65
-12.796284 -14.337024 -2.4133677 2
-10.612313 -11.890093 -2.2835314 1
-9.0484447 -10.137926 -2.1899328 2
-7.9654045 -8.9244814 -2.1394081 2
-7.1504192 -8.0113678 -2.1120207 4
-6.4691854 -7.2481098 -2.0829396 2
-5.8143578 -6.5144377 -2.0269783 4
-5.4602609 -6.1177053 -2.0483019 4
-3.8132453 -4.2723804 -1.9700416 6
-2.7400398 -3.0699551 -1.9181124 7
-3.4959974 -3.8623157 1.3751597 22
-2.3667142 -2.6147034 0.68150848 7
-3.2060382 -3.5419736 0.66836941 5
-5.4340472 -6.003438 0.7030316 22
-6.2702761 -6.9272885 0.48068616 12
-6.7042375 -7.4067216 0.33717319 17
-7.7382293 -7.389647 0.297566 20
-12.213983 -15.638812 0.43505982 33
-9.9547749 -10.997857 0.23769403 4
-10.905421 -10.414167 0.15265086 0
-13.169631 -16.862427 0.090369947 50
-13.676468 -15.109517 -0.033791304 37
-14.171587 -13.533201 -0.14774898 79
-15.52211 -19.874546 -0.33892226 15
-13.700767 -15.136362 -0.39486241 51
-14.164583 -13.526514 -0.49439988 45
-13.168294 -16.860716 -0.6659683 18
-13.688559 -15.122875 -0.75615966 61
-14.179159 -13.540434 -0.84229952 47
-15.43373 -19.761385 -1.2241365 17
-13.656019 -15.086926 -1.1145573 49
-14.160443 -13.522561 -1.1872764 59
-15.476974 -19.816755 -1.673174 20
-13.635358 -15.064099 -1.4725049 41
-14.125805 -13.489483 -1.5303527 47
-15.532517 -19.887873 -2.125664 17
-13.655989 -15.086892 -1.8347576 69
-14.109955 -13.474346 -1.8738097 26
-7.6470265 -9.7912712 -1.2665447 28
-13.640324 -15.069586 -2.1923301 60
-12.890736 -14.241454 -2.4123709 2
-10.692406 -11.812779 -2.282964 1
-9.09515 -10.048159 -2.1842048 1
-8.038084 -8.880332 -2.142225 2
-7.1956391 -7.9496136 -2.108933 3
-6.5222535 -7.2056694 -2.0837781 2
-5.8100152 -6.4188008 -2.0097928 5
-5.5054412 -6.0823131 -2.0492713 4
-3.8404408 -4.2428503 -1.9687403 5
-2.7662714 -3.0561273 -1.9214923 8
-3.5281065 -3.843514 1.3772016 17
-2.3849101 -2.5981174 0.68150848 5
-3.2146139 -3.5019956 0.66504419 3
-5.5027733 -5.9947133 0.70649135 19
-6.3427954 -6.909832 0.48253575 11
-6.7963324 -7.4039145 0.33919704 17
-7.8449383 -7.387527 0.29967874 20
-12.38495 -15.631522 0.43725178 26
-10.023196 -10.919254 0.23750177 8
-11.082689 -10.436496 0.15410854 2
-13.229899 -16.697966 0.08998137 61
-13.713992 -14.940002 -0.033625498 43
-14.3094 -13.475068 -0.14820136 38
-13.221372 -16.687202 -0.28613532 12
-13.733083 -14.9608 -0.39277402 49
-14.375117 -13.536954 -0.49843743 26
-13.166507 -16.617956 -0.65999436 109
-13.726222 -14.953326 -0.75245523 57
-14.238433 -13.408239 -0.84023929 38
-13.209317 -16.671988 -1.0384485 3
-13.712394 -14.938262 -1.1106197 50
-14.292292 -13.458958 -1.1904236 34
-13.195867 -16.655012 -1.4139649 6
-13.675441 -14.898005 -1.4655658 45
-14.324148 -13.488956 -1.5416007 28
-13.133822 -16.576704 -1.7815154 8
-13.704405 -14.929559 -1.8272145 69
-6.3597698 -5.9889536 -0.83900785 1
-7.7670918 -9.8031454 -1.275064 16
-13.686028 -14.909538 -2.1828933 62
-12.984475 -14.145268 -2.4113741 2
-10.785322 -11.749514 -2.2852333 1
-9.1597338 -9.9786005 -2.1829321 1
-8.115859 -8.8414049 -2.1464503 2
-7.2721939 -7.922317 -2.1151085 3
-6.5776887 -7.1657243 -2.0854552 2
-5.8098907 -6.3292866 -1.9944164 4
-5.5530176 -6.049449 -2.0512099 4
-3.8776405 -4.2242956 -1.972644 6
-2.7777324 -3.0260575 -1.9147326 9
-3.5785697 -3.8442669 1.3863896 20
-2.3922863 -2.569906 0.67847282 5
-3.9218698 -4.2130561 0.80525768 10
-5.5716419 -5.9853182 0.70995116 25
-6.404489 -6.880002 0.4835633 7
-6.9023333 -7.4148092 0.34189552 15
-7.9637103 -7.3951564 0.30223632 15
-11.178512 -13.908234 0.39122066 2
-10.05013 -10.79632 0.23634823 5
-11.287172 -10.481346 0.15593062 5
-13.291023 -16.536608 0.08960969 54
-13.782528 -14.805836 -0.033539277 34
-14.50278 -13.467381 -0.14922675 54
-16.128836 -20.067396 -0.34601787 16
-13.801769 -14.826507 -0.39176849 51
-14.489782 -13.455312 -0.49914402 41
-13.274688 -16.516283 -0.659621 4
-13.78398 -14.807397 -0.74993616 56
-14.507398 -13.471669 -0.85054052 46
-13.267821 -16.50774 -1.0339624 27
-13.767363 -14.789545 -1.1066821 50
-14.500008 -13.464808 -1.1998657 41
-13.256812 -16.494041 -1.4081221 1
-13.735622 -14.755448 -1.4609399 44
-14.473492 -13.440184 -1.5475372 42
-16.128304 -20.066734 -2.1686406 12
-13.748581 -14.769369 -1.8193122 72
-6.3430719 -5.8902202 -0.83135962 0
-7.9026518 -9.8324299 -1.2860175 10
-13.730168 -14.749589 -2.1734567 63
-13.096432 -14.0688 -2.4138663 3
-10.872481 -11.679729 -2.2863681 1
-9.2264833 -9.91152 -2.1822956 1
-8.1747026 -8.7816477 -2.1457462 2
-7.3380213 -7.8828459 -2.1181962 3
-6.6248884 -7.1167655 -2.0846167 2
-5.8194232 -6.2514968 -1.9826579 5
-5.5924702 -6.0076933 -2.0502405 4
-3.9096141 -4.1998901 -1.9739453 5
-2.7913799 -2.998631 -1.9096626 8
-3.6212497 -3.8360643 1.3925151 21
-2.4155612 -2.5588536 0.67999065 6
-3.9457479 -4.179812 0.80414927 18
-5.5832009 -5.9143996 0.70614541 20
-6.3892941 -6.768311 0.47883657 3
-6.997838 -7.4129539 0.34405428 15
-8.0888653 -7.4068885 0.30501625 17
-11.343564 -13.913539 0.39358798 4
-10.084076 -10.682269 0.23538694 6
-11.486915 -10.518446 0.15767173 9
-13.335374 -16.356609 0.08913663 73
-13.830639 -14.651081 -0.033406634 39
-14.566944 -13.338796 -0.14892517 41
-16.435345 -20.158903 -0.34956565 15
-13.84729 -14.668719 -0.39014417 57
-14.550922 -13.324126 -0.49803367 38
-13.29872 -16.311651 -0.65514058 19
-13.832141 -14.652672 -0.74697256 59
-14.562776 -13.334979 -0.84830862 59
-13.807219 -14.626271 -1.1016507 51
-14.546539 -13.320112 -1.195992 45
-16.398037 -20.113144 -1.7268219 18
-13.783526 -14.601173 -1.4551574 42
-16.43927 -20.163719 -2.1914721 17
-13.799396 -14.617984 -1.8124876 79
-6.3840375 -5.8457956 -0.83135962 1
-8.0817423 -9.9127245 -1.3038676 3
-13.783666 -14.60132 -2.1657357 61
-13.216125 -14.000114 -2.4178536 3
-10.96191 -11.612178 -2.28807 1
-9.3062973 -9.8583527 -2.1848414 1
-8.2466221 -8.735817 -2.1485629 2
-7.4009576 -7.8399868 -2.120512 2
-6.6851511 -7.081718 -2.087971 3
-5.8201294 -6.1653829 -1.9681859 4
-5.6182923 -5.9515724 -2.0444243 5
-3.9440324 -4.1779947 -1.9765476 5
-2.8246894 -2.9922519 -1.9181124 8
-3.6773612 -3.8414211 1.4037451 3
-2.4279349 -2.5362537 0.67847282 4
-3.9748328 -4.152164 0.80414927 20
-5.618844 -5.8695207 0.70545346 21
-6.4004798 -6.6860275 0.47616497 2
-7.0991802 -7.4158998 0.3464829 12
-8.1997318 -7.4038301 0.30724022 17
-9.7609282 -11.803131 0.33580798 0
-10.103093 -10.553827 0.23410523 6
-11.684752 -10.550578 0.15937236 13
-13.395703 -16.198381 0.088781841 48
-13.880032 -14.499269 -0.033280618 36
-14.606273 -13.188523 -0.14838231 39
-16.756649 -20.262512 -0.35338223 17
-13.896814 -14.5168 -0.38867456 54
-14.581263 -13.16594 -0.49591395 36
-13.307804 -16.092093 -0.65003783 27
-13.88158 -14.500886 -0.74415714 56
-14.59916 -13.182101 -0.84504652 63
-13.369703 -16.166943 -1.0242099 0
-13.85928 -14.477591 -1.0977131 49
-14.579909 -13.164719 -1.19115 53
-16.700834 -20.195021 -1.7438192 21
-13.835468 -14.452717 -1.4499532 42
-6.5558867 -5.9195433 -0.6920644 0
-16.759985 -20.266546 -2.2153106 15
-13.84877 -14.466612 -1.8056629 72
-6.3892298 -5.769063 -0.82677072 0
-13.265884 -16.041403 -2.1221318 8
-13.824765 -14.441536 -2.1562989 61
-13.286099 -13.878839 -2.4128695 4
-11.05914 -11.552527 -2.2914741 1
-9.3912802 -9.8102579 -2.1886599 1
-8.3155785 -8.6865654 -2.1506758 2
-7.4609394 -7.793798 -2.122056 2
-6.7290192 -7.0292244 -2.0862937 3
-5.8468642 -6.1077132 -1.9627589 4
-5.6731234 -5.9262214 -2.0492713 4
-3.970489 -4.1476264 -1.9752464 5
-2.8354826 -2.9619834 -1.9113526 8
-3.6744571 -3.7851295 1.3925151 17
-2.4346399 -2.5079699 0.67543709 7
-3.9954453 -4.1157856 0.80248666 26
-5.656908 -5.8272905 0.70510745 20
-6.421958 -6.6153836 0.47431538 0
-7.2009025 -7.417789 0.34891152 14
-8.3019886 -7.3916054 0.30913058 15
-9.8302422 -11.71938 0.33536959 3
-10.157025 -10.462949 0.23365663 7
-12.003085 -10.686845 0.16269261 13
-13.431346 -16.012531 0.088275 63
-13.927979 -14.347482 -0.033154607 32
-14.656166 -13.048994 -0.14796008 38
-13.40455 -15.980585 -0.28032985 38
-13.94768 -14.367777 -0.38728231 50
-14.633996 -13.029255 -0.49460176 37
-13.381285 -15.952848 -0.64817101 44
-13.924007 -14.34339 -0.74104542 52
-14.649047 -13.042655 -0.8426429 45
-13.39238 -15.966077 -1.0173831 23
-13.896027 -14.314567 -1.0926816 49
-14.635676 -13.03075 -1.1882447 48
-13.376179 -15.946762 -1.3850163 54
-13.872116 -14.289936 -1.4433033 45
-6.5493994 -5.831202 -0.6870653 1
-13.355889 -15.922573 -1.7506258 46
-13.891155 -14.309548 -1.7981199 71
-6.4828782 -5.7719755 -0.83365411 2
-13.331519 -15.89352 -2.1148293 44
-13.883697 -14.301866 -2.1498647 55
-11.147796 -11.483561 -2.2931762 1
-9.4815445 -9.7671232 -2.1937513 2
-8.3897324 -8.6424255 -2.1541967 2
-7.5233688 -7.7499685 -2.1243718 2
-6.7942729 -6.9989123 -2.091325 2
-5.8459373 -6.0220132 -1.948287 3
-5.7251697 -5.8976083 -2.0531487 4
-3.9993479 -4.1198058 -1.9752464 5
-2.8636677 -2.9499197 -1.9164225 7
-3.7062178 -3.7648976 1.3945569 16
-2.4768851 -2.5161011 0.68226737 5
-4.0546503 -4.1188469 0.8085829 21
-5.6946554 -5.7848177 0.70476151 20
-8.1438303 -8.2727699 0.59720993 20
-7.2973838 -7.4129214 0.35107028 12
-8.4255047 -7.3967762 0.31179935 15
-6.3591123 -7.4745736 0.21516261 0
-10.190539 -10.351884 0.23275942 5
-12.09243 -10.615981 0.16289507 18
-13.485785 -15.851347 0.087903321 62
-13.963261 -14.184339 -0.033002067 37
-14.698815 -12.904135 -0.14747754 43
-13.461363 -15.82264 -0.279201 37
-13.999948 -14.221606 -0.38596737 52
-14.673516 -12.881925 -0.49288577 39
-13.435335 -15.792048 -0.64543295 39
-13.976129 -14.197411 -0.73852634 54
-14.67968 -12.887336 -0.83920914 76
-13.45433 -15.814375 -1.0136771 46
-13.959194 -14.180207 -1.0898379 49
-14.681286 -12.888744 -1.1846131 51
-13.430285 -15.786112 -1.3791735 49
-13.932354 -14.152943 -1.4392556 45
-6.5420008 -5.7432423 -0.68206614 0
-13.407319 -15.759117 -1.7429036 51
-13.94879 -14.169638 -1.792732 67
-6.4452195 -5.6582775 -0.82371145 0
-13.398317 -15.748537 -2.1079328 50
-13.913451 -14.13374 -2.1391411 59
-13.573246 -13.788148 -2.4298158 3
-11.23047 -11.408279 -2.2937434 1
-9.552269 -9.7035084 -2.1943877 2
-8.4388123 -8.572422 -2.1513798 2
-7.5855494 -7.7056499 -2.1266875 2
-6.8511992 -6.9596729 -2.0938406 4
-5.9206362 -6.0143762 -1.9591409 2
-5.766202 -5.8574972 -2.0531487 4
-4.0253572 -4.0890899 -1.9739453 5
-2.8867347 -2.9324398 -1.9181124 8
-3.7242148 -3.7307205 1.3914942 8
-2.469419 -2.4737329 0.67543709 5
-4.0525208 -4.0596004 0.80248666 27
-5.7011185 -5.7110777 0.70060974 9
-8.2634764 -8.2779121 0.60173112 20
-7.399796 -7.4127226 0.35349891 12
-8.5343771 -7.3874979 0.31391209 14
-6.4477148 -7.4723845 0.21639009 0
-10.220178 -10.238031 0.23179814 5
-12.102738 -10.476331 0.16204476 31
-13.546471 -15.699273 0.08758232 58
-14.011079 -14.035555 -0.032882687 42
-14.755275 -12.77241 -0.14714579 40
-13.514013 -15.661658 -0.27801839 42
-14.036733 -14.061254 -0.38426572 47
-14.726808 -12.747768 -0.49167451 39
-13.479959 -15.622191 -0.64232153 41
-14.026897 -14.051401 -0.73600727 53
-14.757203 -12.774079 -0.83852237 47
-13.514815 -15.662588 -1.0099711 45
-13.992952 -14.017397 -1.0848066 51
-14.722604 -12.74413 -1.1807395 48
-13.488018 -15.631532 -1.3738618 58
-13.974451 -13.998862 -1.4334731 45
-6.4402266 -5.5747666 -0.66738129 4
-13.454517 -15.592707 -1.7348454 41
-13.988268 -14.012704 -1.7851889 83
-6.3219972 -5.4724255 -0.80306131 0
-13.448143 -15.58532 -2.0986021 48
-13.97807 -14.002488 -2.1339939 61
-13.702821 -13.726759 -2.435797 4
-6.1766338 -6.1874237 -1.2526801 0
-6.1881299 -6.1989403 -1.411587 160
-6.1422539 -6.1529837 -1.554909 2
-6.19174 -6.2025566 -1.7237363 1
-6.8940935 -6.9061365 -2.0921636 5
-6.2845535 -6.2955317 -2.0649672 3
-5.8014717 -5.8116064 -2.0512099 5
-4.0511346 -4.0582113 -1.972644 6
-2.9045756 -2.9096496 -1.9164225 7
-3.7474179 -3.7019114 1.3904732 0
-2.4028099 -2.3736317 0.65266955 9
-4.0976729 -4.0479131 0.80581188 22
-5.7210054 -5.6515331 0.69818783 1
-8.3807459 -8.2789755 0.6060468 20
-7.5139351 -7.4226904 0.35646722 13
-8.6769867 -7.4056072 0.31724805 14
-6.5234256 -7.4542751 0.21717919 1
-7.579845 -7.4878001 0.17072442 0
-12.120823 -10.344841 0.16131592 33
-13.58198 -15.520039 0.087109268 67
-14.063194 -13.89242 -0.032776568 38
-14.789323 -12.622344 -0.14660293 37
-13.572972 -15.509746 -0.27699706 35
-14.077655 -13.906705 -0.38271877 51
-14.769826 -12.605704 -0.49016044 39
-13.54393 -15.476559 -0.64020574 40
-14.059249 -13.888521 -0.73259914 52
-14.791312 -12.624042 -0.83543199 59
-13.565945 -15.501715 -1.0056801 50
-14.042168 -13.871648 -1.0810877 50
-14.744406 -12.584009 -1.1754133 15
-13.531103 -15.461902 -1.3672222 54
-14.020753 -13.850493 -1.4282689 45
-6.4304585 -5.4882474 -0.66238219 9
-13.50267 -15.429411 -1.727123 47
-14.031905 -13.86151 -1.7783642 86
-6.3449063 -5.4152303 -0.80114925 0
-13.493723 -15.419188 -2.0888658 46
-14.0189 -13.848662 -2.1254151 56
-13.81526 -13.647495 -2.4387875 3
-6.1239057 -6.0495405 -1.2333906 4
-6.1694493 -6.0945315 -1.3975856 255
-6.0842166 -6.0103335 -1.5295571 3
-6.0617776 -5.9881673 -1.6758761 0
-6.4691286 -6.3905711 -1.9496113 1
-6.3255801 -6.2487659 -2.0640626 2
-5.8584676 -5.7873259 -2.0570264 4
-4.0847497 -4.0351467 -1.9752464 5
-2.9299767 -2.8943968 -1.9198024 8
-2.207942 -2.1508815 0.81366169 3
-2.3883774 -2.3266537 0.6443215 14
-4.1428585 -4.0357928 0.80913711 22
-8.5377207 -8.3170767 1.0348265 25
-8.5098753 -8.2899513 0.61118454 22
-7.6400251 -7.4425812 0.35997522 12
-8.8019018 -7.4066358 0.31991678 12
-6.6177802 -7.4564071 0.21858205 2
-7.6892314 -7.4905162 0.17200615 1
-12.128479 -10.205889 0.16046561 29
-13.644861 -15.373983 0.086822055 57
-14.834236 -12.482734 -0.1461807 36
-13.603927 -15.327861 -0.27543819 34
-14.119969 -13.755062 -0.38124913 49
-14.823815 -12.473964 -0.48905009 20
-13.585299 -15.306872 -0.63709432 43
-14.115781 -13.750981 -0.73052466 56
-14.827103 -12.47673 -0.83251333 71
-13.607534 -15.331926 -1.0008038 51
-14.087171 -13.72311 -1.0771501 48
-7.0417156 -5.9254727 -0.5580489 0
-13.585732 -15.30736 -1.3619106 59
-14.059951 -13.696594 -1.4224864 44
-6.4442072 -5.4226804 -0.65988261 9
-13.562434 -15.281111 -1.7210795 43
-14.07697 -13.713174 -1.7718987 76
-5.2827468 -4.445333 -0.66309917 3
-13.540285 -15.256155 -2.079535 43
-14.066813 -13.703279 -2.1181228 50
-6.2031593 -6.0428486 -1.0875607 4
-6.0865755 -5.9292779 -1.2175051 4
-6.1439571 -5.985177 -1.3823115 1
-6.0357738 -5.8797894 -1.5070223 3
-6.0190949 -5.8635411 -1.6527181 2
-6.3651032 -6.2006078 -1.9051687 2
-6.3997512 -6.2343602 -2.074012 3
-5.8987279 -5.746285 -2.0570264 4
-4.11553 -4.0091705 -1.9765476 6
-2.9475148 -2.871341 -1.9181124 8
-2.2396381 -2.1514909 0.81978709 4
-2.430052 -2.3344107 0.65115172 18
-4.1709313 -4.006773 0.80913711 22
-8.678915 -8.3373327 1.0448599 26
-8.6482038 -8.3078299 0.61693877 24
-7.74369 -7.4389157 0.36240384 10
-5.3206515 -4.414155 0.19226143 2
-6.7044539 -7.4486637 0.21972187 4
-7.7932525 -7.4865274 0.17315967 2
-5.3224359 -4.4156356 0.070008844 32
-13.692988 -15.212942 0.086450368 59
-14.149058 -13.592183 -0.032531176 47
-5.3133221 -4.4080744 -0.052054442 35
-13.662441 -15.179004 -0.2744706 39
-14.169505 -13.611825 -0.38001156 48
-5.2963934 -4.3940301 -0.17371625 34
-13.64636 -15.161138 -0.63497853 44
-14.159545 -13.602257 -0.72785741 49
-5.2931981 -4.3913789 -0.29547441 33
-13.655439 -15.171225 -0.99651265 49
-14.127903 -13.57186 -1.0729938 49
-5.2975855 -4.3950191 -0.41738668 26
-13.638865 -15.152811 -1.356599 52
-14.117824 -13.562178 -1.4187279 43
-5.2757549 -4.3769078 -0.53709197 72
-13.610122 -15.120876 -1.7136929 44
-14.123518 -13.567648 -1.7657925 53
-5.2707486 -4.3727541 -0.65774542 36
-13.598544 -15.108014 -2.0722327 41
-6.255085 -6.0088992 -0.93552572 3
-6.1536045 -5.9114127 -1.071611 3
-6.0535779 -5.8153224 -1.2027544 5
-6.0973063 -5.8573298 -1.3625824 5
-6.011364 -5.7747703 -1.4908253 3
-6.006104 -5.7697172 -1.6380513 4
-6.3800297 -6.1289263 -1.8967832 2
-6.4403076 -6.1868315 -2.0731075 3
-5.9470954 -5.7130308 -2.0599344 5
-4.1406898 -3.9777219 -1.9752464 6
-2.9648733 -2.8481827 -1.9164225 8
-2.2602193 -2.1411226 0.8218289 6
-2.449141 -2.3200896 0.65191066 19
-4.2103057 -3.9884539 0.81135392 22
-8.8381643 -8.3724585 1.0569693 26
-8.7900944 -8.3269215 0.62289858 25
-7.8592844 -7.4451585 0.36537215 10
-5.3296723 -4.3591819 0.19148305 38
-6.7940369 -7.443027 0.22094937 7
-7.900496 -7.4841986 0.17437731 3
-5.3190756 -4.3505144 0.069563441 45
-13.747623 -15.060844 0.086129367 52
-14.234895 -13.484821 -0.032511279 26
-5.3037162 -4.3379521 -0.051662378 37
-13.708755 -15.018264 -0.27328801 39
-14.214831 -13.465816 -0.37869665 55
-5.2959871 -4.3316302 -0.17270686 35
-13.689878 -14.997583 -0.63211608 43
-14.201928 -13.453591 -0.72519016 58
-5.3082595 -4.3416681 -0.29461598 43
-13.707151 -15.016507 -0.99261165 51
-14.184615 -13.437191 -1.0701499 37
-5.3095961 -4.342761 -0.41593409 39
-13.67974 -14.986477 -1.350225 56
-14.252709 -13.501698 -1.4227756 24
-5.2876616 -4.324821 -0.53521729 37
-13.653548 -14.957783 -1.7059705 41
-14.183188 -13.43584 -1.7614821 51
-5.2734089 -4.3131633 -0.65430373 39
-13.644664 -14.94805 -2.0633075 42
-6.2247043 -5.8967085 -0.92480212 3
-6.1515055 -5.8273668 -1.0641347 4
-6.0480361 -5.7293496 -1.1936769 7
-6.0721111 -5.7521558 -1.3479446 6
-6.0086551 -5.6920433 -1.480262 3
-6.0120468 -5.6952562 -1.628788 3
-6.4453773 -6.1057539 -1.9034915 2
-6.4918289 -6.1497579 -2.0758212 3
-5.9755659 -5.6606979 -2.056057 5
-4.1683593 -3.9487174 -1.9752464 5
-2.9846852 -2.8274145 -1.9164225 8
-2.2920694 -2.1411319 0.82795435 6
-2.4911084 -2.3270636 0.65874094 21
-4.2496271 -3.9697802 0.81357074 22
-8.9721136 -8.3812809 1.0659647 27
-8.9355879 -8.3471613 0.62906384 21
-7.9694967 -7.4446888 0.36807063 10
-5.3319616 -4.2992797 0.19048226 34
-6.8811483 -7.4335647 0.22208919 8
-8.0051603 -7.4780035 0.17553085 6
-5.3212948 -4.2906785 0.069199026 39
-13.784502 -14.891117 0.085707001 57
-14.492378 -13.538025 -0.032882687 32
-5.3058476 -4.2782235 -0.051390946 38
-13.753494 -14.857619 -0.2721054 40
-14.381557 -13.434501 -0.38063034 28
-5.3011961 -4.2744722 -0.17189935 35
-13.737212 -14.840031 -0.62950248 42
-14.429873 -13.479635 -0.73200643 32
-5.3135529 -4.2844362 -0.29324248 42
-13.754658 -14.858876 -0.98851562 51
-14.464873 -13.51233 -1.0841503 39
-5.3055949 -4.2780194 -0.41327092 39
-13.737941 -14.840817 -1.34571 56
-14.451576 -13.499909 -1.433184 45
-5.292891 -4.267776 -0.5327177 38
-13.714317 -14.815298 -1.7005985 46
-14.384358 -13.437118 -1.7747723 8
-5.2723961 -4.2512503 -0.65047967 40
-13.69192 -14.791102 -2.0547881 44
-6.222127 -5.812387 -0.91836798 1
-6.1195321 -5.716548 -1.0516741 5
-6.0386982 -5.641037 -1.1840323 8
-6.0746055 -5.6745796 -1.3396711 9
-6.0338593 -5.636517 -1.476741 6
-6.0315843 -5.6343913 -1.6233844 3
-6.7279258 -6.2848773 -1.973929 3
-6.5374517 -6.1069465 -2.0767255 3
-6.0291185 -5.6320882 -2.0609038 4
-4.2013526 -3.9246845 -1.9778489 5
-3.0043516 -2.8065088 -1.9164225 8
-2.3183398 -2.1355591 0.83203799 5
-2.5304019 -2.3309021 0.66481227 28
-4.2888923 -3.9507511 0.81578755 22
-9.1447163 -8.4237366 1.0794579 28
-9.0994167 -8.3820086 0.63646215 23
-8.1065464 -7.4674168 0.37198341 7
-5.324286 -4.2320948 0.18914789 36
-6.9766674 -7.4319963 0.22349204 13
-8.1218872 -7.4815483 0.17694074 7
-5.3198085 -4.2285361 0.068794116 39
-13.849795 -14.753695 0.085470475 53
-14.530641 -13.385028 -0.032756671 31
-5.3136678 -4.2236547 -0.051179834 36
-13.813082 -14.714585 -0.27124533 37
-14.554417 -13.406929 -0.38271877 46
-5.2964754 -4.2099891 -0.17078902 39
-13.780277 -14.679641 -0.62676442 46
-14.538325 -13.392107 -0.73274732 51
-5.3089218 -4.2198825 -0.29135391 44
-13.803365 -14.704235 -0.98461461 49
-14.520665 -13.375839 -1.0813065 44
-5.2978253 -4.2110624 -0.4103657 38
-13.775651 -14.674712 -1.339336 63
-14.504391 -13.360847 -1.4291363 33
-5.2944617 -4.2083883 -0.52990574 39
-13.754666 -14.652358 -1.6928761 40
-6.4550962 -5.9461689 -0.79130203 1
-5.2770114 -4.1945176 -0.64742035 38
-13.734927 -14.63133 -2.0458632 44
-6.2186775 -5.7283897 -0.91193384 0
-6.1271815 -5.6441073 -1.0461915 7
-6.051722 -5.5745974 -1.1789262 9
-6.0966463 -5.6159797 -1.3358526 23
-6.023829 -5.5489035 -1.4647692 6
-6.0014911 -5.5283265 -1.6048579 3
-6.7083516 -6.1794572 -1.9554812 1
-6.5971217 -6.0769968 -2.0821526 3
-6.0711455 -5.5924892 -2.0618732 4
-4.2369957 -3.9029458 -1.9817525 5
-3.0265379 -2.7879221 -1.9181124 8
-2.3102894 -2.0985196 0.82387072 6
-2.5698693 -2.3343053 0.6708836 50
-4.3368945 -3.9393585 0.81966698 20
-9.2917938 -8.440073 1.0898373 27
-9.2493763 -8.4015436 0.64283299 21
-8.2147036 -7.4617128 0.37454695 5
-5.3253746 -4.1726255 0.1881471 38
-7.0752568 -7.4323492 0.22498257 15
-8.2360888 -7.4811382 0.17828654 10
-5.3271608 -4.1740251 0.068510674 41
-13.88351 -14.584218 0.085048109 57
-14.588198 -13.250988 -0.032677084 32
-5.3146882 -4.1642528 -0.050908402 39
-13.85756 -14.556959 -0.27011648 39
-14.600291 -13.261973 -0.3814812 44
-5.294261 -4.1482472 -0.16977961 37
-13.838319 -14.536746 -0.62477309 42
-14.584122 -13.247286 -0.73037648 48
-5.3067956 -4.1580682 -0.28963703 42
-13.85059 -14.549637 -0.98071361 54
-14.56343 -13.228491 -1.0775876 41
-5.3019524 -4.1542735 -0.40842885 43
-13.828231 -14.526149 -1.3345555 55
-6.5205054 -5.922811 -0.63838416 0
-5.2860451 -4.1418095 -0.52615643 43
-13.809903 -14.506897 -1.6871682 42
-6.4286246 -5.8393526 -0.78304058 0
-5.2716899 -4.1305618 -0.64321387 38
-13.787351 -14.483206 -2.0385609 43
-6.2114153 -5.6420531 -0.90507078 0
-6.1311808 -5.5691738 -1.0402104 8
-6.0465269 -5.4922795 -1.1704162 8
-6.0977015 -5.538763 -1.3275791 29
-6.0274444 -5.474946 -1.4563187 6
-6.0225067 -5.4704614 -1.6002263 3
-6.5776224 -5.9746928 -1.9051687 1
-6.6393847 -6.0307937 -2.0821526 3
-5.8486314 -5.3125238 -1.9736595 6
-4.2613392 -3.8707287 -1.9804513 5
-3.0432432 -2.7642882 -1.9164225 8
-2.2557421 -2.0204113 0.79936898 8
-2.6065814 -2.3346493 0.67619604 19
-4.3937993 -3.9354153 0.82520902 22
-9.4306374 -8.446784 1.0991788 27
-9.4060011 -8.4247179 0.64961475 26
-8.3499775 -7.4788642 0.37832478 4
-5.3290591 -4.1157937 0.18725753 37
-7.1714115 -7.4288082 0.22638543 16
-8.335784 -7.4661522 0.17931192 10
-5.3181844 -4.1073947 0.068024784 38
-13.93776 -14.438015 0.084760897 57
-14.623739 -13.098115 -0.032551073 29
-5.3151398 -4.1050434 -0.05063697 39
-13.903292 -14.402309 -0.26904139 38
-14.647836 -13.119698 -0.38032097 43
-5.29461 -4.0891876 -0.16887116 35
-13.88393 -14.382254 -0.62228394 45
-14.631587 -13.105144 -0.72815377 43
-5.3167186 -4.1062627 -0.28860691 46
-13.904655 -14.403721 -0.97739774 51
-14.613774 -13.08919 -1.074525 43
-5.3023858 -4.0951929 -0.40624994 41
-13.876637 -14.374698 -1.3295094 54
-6.4844298 -5.80794 -0.63086694 0
-5.2895827 -4.0853047 -0.52365685 38
-13.852709 -14.349911 -1.6801174 38
-6.4722018 -5.796988 -0.78339982 0
-5.2688856 -4.0693197 -0.63938975 39
-13.83285 -14.329339 -2.0304472 40
-6.2180667 -5.5693655 -0.90035236 0
-6.1048717 -5.4679794 -1.029245 10
-6.0552282 -5.4235153 -1.1647428 9
-6.1038637 -5.4670768 -1.3205785 20
-6.0508547 -5.4195981 -1.4527977 7
-6.0196218 -5.3916235 -1.5894191 5
-6.2316957 -5.5815725 -1.7936424 1
-6.692935 -5.9946933 -2.0857706 3
-5.8479977 -5.2379041 -1.9610575 6
-4.2826233 -3.8358376 -1.9778489 5
-3.059767 -2.7405562 -1.9147326 8
-2.217613 -1.9585308 0.78099269 11
-2.6287043 -2.3215947 0.67771387 7
-4.4419513 -3.9230013 0.82908845 22
-9.5102854 -8.3992052 1.1016006 17
-9.56639 -8.4487553 0.65660208 26
-8.4529257 -7.4653764 0.38061848 1
-5.3353925 -4.0615363 0.18647914 37
-7.2678599 -7.4242845 0.22778828 17
-8.4416637 -7.45543 0.18046546 15
-5.3149037 -4.045939 0.067619875 42
-13.976659 -14.277475 0.08438921 43
-14.67585 -12.961281 -0.032464854 31
-5.3118424 -4.0436087 -0.050335381 36
-13.947542 -14.247732 -0.2679663 33
-14.685117 -12.969464 -0.37892869 76
-5.3007565 -4.0351696 -0.1681646 38
-13.930861 -14.230693 -0.6199193 43
-14.668792 -12.955047 -0.72548652 50
-5.3198175 -4.0496798 -0.28723341 41
-13.948977 -14.249198 -0.97349674 50
-14.665881 -12.952477 -1.0716813 43
-5.3054314 -4.0387287 -0.40431309 39
-13.931982 -14.231837 -1.3252602 59
-6.4889355 -5.7308373 -0.62739748 0
-5.2894173 -4.0265379 -0.52084482 37
-13.905151 -14.20443 -1.6744095 39
-6.5065427 -5.7463875 -0.78268141 0
-5.2749896 -4.0155549 -0.63671291 41
-13.885227 -14.184075 -2.0235505 42
-6.2180457 -5.4915957 -0.89477611 0
-6.1042247 -5.3910723 -1.0227655 4
-6.0454593 -5.3391724 -1.1556654 9
-6.0974827 -5.385118 -1.3110321 31
-6.0619817 -5.3537645 -1.4464597 7
-6.0218143 -5.3182898 -1.580156 5
-6.1385922 -5.4214249 -1.755908 4
-6.7258615 -5.940084 -2.0830572 3
-5.8524265 -5.1686916 -1.9503944 5
-4.3206387 -3.8158615 -1.9830537 5
-3.089695 -2.7287281 -1.9214923 7
-2.2224822 -1.9353818 0.77792996 12
-2.6359627 -2.2954488 0.67543709 13
-4.4931302 -3.9127073 0.83352208 24
-6.0976362 -5.3099432 0.70199364 3
-9.7396173 -8.4814529 0.66441143 23
-14.49229 -12.620175 0.64857608 24
-5.331634 -4.0001926 0.18536715 37
-7.3674068 -7.4216137 0.2292788 15
-8.5508137 -7.4462194 0.18168308 11
-5.3206244 -3.9919324 0.06733644 40
-14.028083 -14.131296 0.084102005 48
-14.717714 -12.816479 -0.03235874 31
-5.3143468 -3.9872227 -0.050094109 39
-14.001581 -14.1046 -0.26710624 35
-14.742126 -12.837737 -0.37807786 57
-5.3032098 -3.9788668 -0.16735709 38
-13.979166 -14.08202 -0.61767906 41
-14.719689 -12.818199 -0.72356021 46
-5.3223867 -3.9932549 -0.28585991 42
-13.994633 -14.0976 -0.96979076 51
-14.701732 -12.802562 -1.0677437 41
-5.3047547 -3.9800258 -0.40213415 41
-13.974759 -14.077579 -1.3199484 55
-6.4776382 -5.6408567 -0.62248242 0
-5.2918811 -3.970367 -0.5183453 40
-13.942197 -14.044779 -1.6670229 40
-6.6546578 -5.7950087 -0.79561234 2
-5.2806005 -3.9619036 -0.634036 38
-13.933445 -14.035962 -2.0162482 41
-6.1752553 -5.3775353 -0.88319463 0
-6.108789 -5.3196549 -1.0172828 9
-6.0736279 -5.2890363 -1.1539634 6
-6.10217 -5.3138914 -1.3040315 26
-6.0754538 -5.2906265 -1.4408259 8
-6.0173578 -5.2400351 -1.5693488 4
-6.0435629 -5.2628551 -1.7181736 4
-6.7818594 -5.9057784 -2.0875795 3
-5.8649545 -5.1073194 -1.9426394 6
-4.3443203 -3.7831206 -1.9817525 5
-3.0813284 -2.6832824 -1.9045928 8
-2.2242019 -1.9097413 0.77384639 6
-2.6549029 -2.2795494 0.67619604 11
-4.5473857 -3.9044704 0.83850992 20
-9.5722065 -8.2188759 1.095373 27
-9.916791 -8.5147429 0.67242628 26
-10.600634 -9.101902 0.47155675 4
-5.3272786 -3.9391034 0.18425517 38
-7.4672713 -7.4179101 0.23076934 18
-8.6602421 -7.4358459 0.18290071 8
-5.319417 -3.9332902 0.066972025 37
-14.07248 -13.979456 0.083781004 49
-14.767377 -12.679545 -0.032272518 29
-5.3163223 -3.9310021 -0.049852837 38
-14.042959 -13.95013 -0.26603115 37
-14.773738 -12.685008 -0.37660825 71
-5.2987041 -3.9179747 -0.1663477 40
-14.028919 -13.936183 -0.61556327 46
-14.763325 -12.676066 -0.7213375 48
-5.311574 -3.9274912 -0.28379965 42
-14.03319 -13.940425 -0.96569467 51
-14.754387 -12.668393 -1.0651186 43
-5.3035159 -3.9215326 -0.39995524 43
-14.0189 -13.92623 -1.3149023 59
-6.4805374 -5.5643106 -0.61901289 0
-5.2841978 -3.9072485 -0.51490837 39
-13.991837 -13.899345 -1.6613151 42
-6.4259443 -5.517436 -0.76364416 0
-5.2793155 -3.9036384 -0.63059431 42
-13.980279 -13.887865 -2.0089459 43
-6.1794558 -5.3057961 -0.87847626 0
-6.1307216 -5.2639523 -1.0147908 10
-6.0653415 -5.2078156 -1.1454533 4
-6.1121531 -5.2480087 -1.2983036 29
-6.0734043 -5.2147384 -1.4316711 8
-6.0299706 -5.1774454 -1.5631733 3
-6.0267434 -5.1746745 -1.7030798 5
-6.7963176 -5.8354454 -2.0794392 3
-5.8474684 -5.0207458 -1.9251904 7
-4.3734946 -3.7551644 -1.9830537 5
-3.1164896 -2.6758764 -1.9147326 8
-2.2256727 -1.8841714 0.76976275 12
-2.6947322 -2.2812593 0.68226737 7
-4.598721 -3.8931053 0.84294355 19
-7.2448244 -6.1331973 0.82412463 2
-10.082705 -8.5356407 0.67961913 25
-10.773761 -9.1206627 0.476414 5
-5.3352594 -3.8876874 0.18358798 39
-7.5617266 -7.4075756 0.23208451 18
-8.7882566 -7.4398093 0.18450285 15
-5.3338165 -3.8866358 0.066810057 41
-14.129728 -13.841683 0.083544478 57
-14.812795 -12.539958 -0.032179669 33
-5.3274727 -3.8820133 -0.049702041 45
-14.088579 -13.801373 -0.26506355 36
-14.816149 -12.542797 -0.37544802 55
-5.3259273 -3.8808873 -0.1663477 44
-14.065893 -13.77915 -0.61294973 39
-14.811799 -12.539115 -0.71941119 49
-5.3097954 -3.8691323 -0.28225446 45
-14.087359 -13.800179 -0.96276891 51
-14.793695 -12.523789 -1.0616184 40
-5.3146296 -3.8726549 -0.3987447 47
-14.055908 -13.769369 -1.3093251 56
-6.482686 -5.4879994 -0.61554343 0
-5.3113465 -3.8702626 -0.51490837 48
-14.045822 -13.759488 -1.6562787 43
-6.4491034 -5.4595695 -0.76184821 0
-5.2967854 -3.8596523 -0.6294471 45
-14.028568 -13.742586 -2.0020494 42
-6.1920638 -5.2419696 -0.8750447 0
-6.1430879 -5.2005086 -1.0108033 10
-6.0955067 -5.1602278 -1.1443187 2
-6.1154871 -5.1771426 -1.2913029 12
-6.0916305 -5.1569462 -1.4274459 7
-6.0450001 -5.1174712 -1.5577698 1
-6.0418267 -5.1147842 -1.6972101 5
-6.857707 -5.8054781 -2.0857706 3
-5.8764529 -4.9747853 -1.9232517 7
-4.4053779 -3.7294281 -1.9856561 5
-3.1378617 -2.6563964 -1.9164225 8
-2.2239265 -1.8561962 0.76465821 10
-2.7286835 -2.2774904 0.68682086 6
-4.6744485 -3.9015195 0.85181081 23
-5.3111005 -4.4329 0.60062146 20
-10.26779 -8.5699911 0.68804502 25
-11.002906 -9.1835546 0.48369986 5
-5.3557754 -3.8456817 0.18336558 43
-7.6707807 -7.4101734 0.23383808 18
-5.2996907 -4.4233766 0.110612 9
-5.364069 -3.8516371 0.06685055 34
-14.16848 -13.687119 0.083206579 48
-5.3034344 -4.4265018 -0.011453892 28
-5.3706899 -3.856391 -0.049852837 28
-14.132808 -13.652659 -0.26409596 36
-14.86651 -12.408304 -0.37451985 49
-5.3788762 -3.8622692 -0.16715521 26
-14.11574 -13.636171 -0.6109584 42
-14.877497 -12.417475 -0.71837395 12
-5.3366776 -3.8319688 -0.28225446 45
-14.134511 -13.654305 -0.95945311 52
-5.2955046 -4.4198833 -0.37779006 21
-5.3447795 -3.8377864 -0.39898682 32
-14.102895 -13.623763 -1.3048102 58
-5.2834439 -4.4098163 -0.49873763 25
-5.3673897 -3.8540213 -0.5177204 28
-14.089937 -13.611245 -1.6502352 49
-5.2758989 -4.4035192 -0.61960781 0
-5.3656468 -3.8527701 -0.63441843 29
-14.0841 -13.605607 -1.9963697 32
-5.2850728 -4.4111762 -0.7425012 11
-5.2682028 -4.3970952 -0.86177468 47
-5.2528658 -4.3842945 -0.9803583 35
-5.2722654 -4.4004865 -1.1067402 11
-5.2659488 -4.3952141 -1.2267443 39
-5.2609968 -4.3910813 -1.3478028 38
-5.239645 -4.37326 -1.4632567 37
-5.2498322 -4.3817625 -1.5873926 26
-5.2496243 -4.3815889 -1.7080492 41
-4.425499 -3.6937344 -1.9830537 6
-3.1618974 -2.6390717 -1.9198024 8
-2.2099533 -1.818508 0.75547004 13
-2.7081256 -2.2284398 0.67771387 7
-4.7260437 -3.8889275 0.85624444 9
-5.3203788 -4.3779888 0.59819961 30
-5.3302555 -4.3861165 0.35512 27
-5.3219194 -4.3792567 0.23260768 29
-5.4183974 -3.833601 0.18458878 25
-7.7686529 -7.4005761 0.23524094 19
-5.324266 -4.3811874 0.11048383 23
-5.4365401 -3.8464372 0.06741742 26
-14.217346 -13.543732 0.082936265 48
-5.3156762 -4.3741193 -0.011414099 31
-5.4529905 -3.8580763 -0.050365541 28
-14.190126 -13.517801 -0.26339716 34
