# .PCD v0.7 - Point Cloud Data file format
VERSION 0.7
FIELDS x y z intensity
SIZE 4 4 4 4
TYPE F F F F
COUNT 1 1 1 1
WIDTH 1345
HEIGHT 1
VIEWPOINT 0 0 0 1 0 0 0
POINTS 1345
DATA ascii
-12.31517 -19.308632 -1.2543417 48
-12.93276 -17.350626 -1.3122017 28
-5.3176746 -9.8471537 -0.74469525 33
-6.2772589 -9.8419485 -0.84597468 0
-12.945526 -17.367752 -1.697198 13
-5.9488869 -11.016018 -1.0546061 1
-6.2040267 -9.7271299 -1.0402228 0
-7.2909451 -9.7815514 -1.1717046 0
-5.2187562 -9.6639786 -1.1196872 38
-6.1483626 -9.6398554 -1.2332125 65
-6.1358261 -9.6201992 -1.4329683 40
-6.1513133 -9.6444817 -1.6390365 37
-6.1371007 -9.6221981 -1.8392634 31
-6.3944492 -10.025688 -2.1267323 3
-5.7174263 -8.964201 -2.0911784 3
-5.1716924 -8.1085606 -2.061976 3
-4.6996479 -7.368454 -2.0287871 3
-4.3531566 -6.8251996 -2.0221286 8
-3.0428224 -4.7707605 -1.9466196 6
-2.1913083 -3.4356945 -1.8995228 10
-1.469606 -2.2690592 0.71361291 5
-2.6025162 -4.0182624 0.92512119 50
-2.4334369 -3.7572057 0.62624997 17
-5.0409956 -7.7832537 0.80509573 20
-4.8013725 -7.4132781 0.45438099 11
-4.8201985 -7.4423451 0.29925978 12
-5.6269603 -7.440177 0.25942504 10
-8.2416372 -15.010091 0.37543857 15
-9.0532722 -13.978174 0.26685303 6
-11.921189 -15.762642 0.20006575 7
-11.724237 -21.352779 0.10288895 45
-12.394382 -19.13682 -0.037803814 46
-13.012031 -17.204992 -0.16264752 0
-11.698258 -21.305468 -0.32666624 44
-12.426866 -19.186974 -0.44212216 101
-13.039613 -17.241463 -0.54567695 15
-11.67056 -21.25502 -0.75483048 40
-12.403275 -19.150551 -0.84580827 53
-13.123349 -17.352182 -0.93466747 71
-11.710396 -21.327572 -1.1878572 49
-12.373678 -19.104855 -1.2466853 50
-14.871919 -19.664206 -1.49499 23
-5.3978167 -9.83078 -0.74628878 37
-6.4152164 -9.9050388 -0.85522664 0
-14.901822 -19.703745 -1.9355931 18
-6.0141377 -10.953256 -1.0525916 3
-6.3172626 -9.7537994 -1.0477659 0
-7.4142942 -9.8034563 -1.1805001 31
-5.3071647 -9.6656799 -1.1241497 40
-6.2436166 -9.6400909 -1.2387888 69
-6.2265706 -9.6137724 -1.4384509 38
-6.2443242 -9.6411839 -1.6458446 33
-6.2341814 -9.6255226 -1.8481734 32
-6.4600043 -9.9741917 -2.125324 3
-5.7862692 -8.9339504 -2.0934944 2
-5.2196698 -8.0591259 -2.0586219 3
-4.7594471 -7.3485456 -2.0324051 3
-4.4091377 -6.8076711 -2.0260062 7
-3.0801668 -4.7557511 -1.9492221 5
-2.2270658 -3.4385705 -1.9096626 11
-1.5202186 -2.3099163 0.72994745 11
-2.6167879 -3.9761128 0.91980875 53
-2.4630911 -3.7425761 0.62680417 21
-5.1220126 -7.7827101 0.80890149 23
-4.8841352 -7.4212632 0.45705259 10
-4.8900084 -7.4301882 0.30020422 18
-5.7057009 -7.4304428 0.26053703 12
-8.4021511 -15.040047 0.37771821 16
-9.0873337 -13.807869 0.26486638 3
-11.990131 -15.614556 0.19929643 7
-11.814114 -21.147539 0.10231453 52
-12.46396 -18.938528 -0.03759158 37
-13.059846 -17.007627 -0.16168243 0
-11.781941 -21.089951 -0.32467732 41
-12.494625 -18.985123 -0.43956965 106
-13.095024 -17.05344 -0.5427497 22
-11.755853 -21.043251 -0.75035 44
-12.473001 -18.952267 -0.84106654 56
-13.126066 -17.093866 -0.92591143 10
-11.790422 -21.105133 -1.1802502 51
-12.425563 -18.880184 -1.2379351 22
-15.159136 -19.741501 -1.5092741 18
-5.496984 -9.8397303 -0.75000691 24
-6.6148601 -10.051037 -0.87199575 0
-15.203725 -19.799568 -1.9559021 18
-5.9854045 -10.714014 -1.0337893 4
-7.034678 -10.688934 -1.1537278 0
-7.5490079 -9.8309526 -1.1904428 20
-5.3933988 -9.6543093 -1.1273952 38
-6.3425364 -9.6372509 -1.2443651 88
-6.3361497 -9.6275463 -1.4474226 39
-6.3474813 -9.6447639 -1.6543546 32
-6.3393083 -9.6323452 -1.8583562 31
-6.5394397 -9.9364376 -2.1274366 3
-5.8580761 -8.9011307 -2.0958102 2
-5.0012379 -7.5991964 -1.9504499 4
-4.8260393 -7.3329887 -2.0378323 3
-4.4567885 -6.7719264 -2.0250368 7
-3.1107864 -4.7267256 -1.9466196 6
-2.2442393 -3.4100389 -1.9029027 10
-1.5406052 -2.3056781 0.73198926 7
-2.2451921 -3.3601665 0.7809267 13
-2.504565 -3.7483454 0.6306836 20
-5.193933 -7.7732682 0.81166935 21
-4.9602389 -7.4235206 0.45931318 10
-4.9684143 -7.4357557 0.30182332 17
-5.7795515 -7.4188166 0.26153782 15
-8.5780344 -15.106211 0.38087463 15
-9.1390696 -13.677581 0.26358467 4
-12.03248 -15.445275 0.19820318 6
-11.884433 -20.928892 0.10165563 52
-12.515871 -18.731319 -0.037352819 50
-13.126641 -16.849775 -0.1610491 1
-11.849892 -20.868063 -0.32252714 38
-12.564651 -18.804323 -0.43740392 118
-13.154781 -16.885899 -0.54032719 28
-11.819559 -20.814648 -0.74512279 38
-12.647204 -18.927876 -0.84388191 26
-13.195965 -16.938763 -0.92247766 6
-11.854619 -20.876389 -1.1720581 41
-12.672455 -18.965664 -1.2493104 19
-15.45608 -19.839918 -1.5250109 21
-5.5852523 -9.8358202 -0.75266278 4
-6.6361065 -9.931633 -0.86563504 0
-15.488624 -19.881693 -1.9746487 18
-6.0856428 -10.717025 -1.038154 4
-6.6266298 -9.91745 -1.0754236 0
-7.6712904 -9.8471136 -1.1988558 8
-5.4901414 -9.6683264 -1.1334804 37
-6.4428048 -9.6423368 -1.2507992 84
-6.4318728 -9.6259756 -1.4539021 38
-6.4432578 -9.6430149 -1.6617301 33
-6.4327283 -9.6272564 -1.8659933 30
-6.6042747 -9.8839931 -2.1260281 3
-5.9135332 -8.8502264 -2.0934944 3
-5.0107102 -7.4990563 -1.9336791 5
-4.8901038 -7.3185558 -2.0432591 3
-4.5104256 -6.7503271 -2.0279448 6
-3.1500137 -4.7143278 -1.9505234 6
-2.2619488 -3.3852448 -1.8978329 8
-1.5740323 -2.320472 0.74015647 2
-2.2333205 -3.2924085 0.76878405 11
-2.5395665 -3.7438831 0.63290042 22
-5.2458353 -7.7335224 0.81132334 22
-5.0321245 -7.4184651 0.46116278 8
-5.0404 -7.430665 0.30303761 18
-5.8584757 -7.4127951 0.262761 16
-8.7472515 -15.156793 0.38368034 16
-9.1737118 -13.52408 0.26185435 4
-12.095374 -15.304411 0.19747433 7
-11.952279 -20.7103 0.10099674 49
-12.574476 -18.53756 -0.037140589 42
-13.204273 -16.707514 -0.16056655 7
-11.927316 -20.667046 -0.32069948 37
-12.863996 -18.964376 -0.44320503 45
-13.158293 -16.649334 -0.53568399 55
-11.890643 -20.6035 -0.74051791 39
-12.89796 -19.014446 -0.85173541 17
-13.246994 -16.76157 -0.91784209 2
-11.922192 -20.658167 -1.1644511 44
-12.927861 -19.058529 -1.2613419 12
-13.192818 -16.69302 -1.2901703 6
-5.6717381 -9.8276997 -0.75505298 0
-6.7052779 -9.8850641 -0.86563504 0
-13.154414 -16.644426 -1.6622043 7
-6.7270122 -9.9171047 -1.0804523 0
-7.8237901 -9.8995295 -1.2118577 2
-5.5773964 -9.6642284 -1.1375372 35
-6.5412169 -9.6432009 -1.2568045 69
-6.5367904 -9.6366758 -1.4623753 38
-6.5459828 -9.6502275 -1.6708074 31
-6.526382 -9.6213312 -1.8736303 28
-6.6885872 -9.8604574 -2.1309576 2
-5.9773769 -8.8119764 -2.0942662 2
-5.0431795 -7.434763 -1.9261322 5
-4.9323273 -7.2713418 -2.0396411 3
-4.5552616 -6.7154636 -2.0269754 5
-3.1849713 -4.6953526 -1.9518245 5
-2.2936668 -3.3813725 -1.9045928 7
-1.5726471 -2.2839434 0.73198926 1
-2.2295239 -3.2379203 0.75967705 14
-2.5813684 -3.7489016 0.63677984 28
-5.2364178 -7.6048093 0.80163592 23
-5.1087136 -7.4193459 0.46342337 8
-5.1148252 -7.4282217 0.30438685 19
-5.9425979 -7.4122696 0.26420659 18
-8.9216366 -15.212642 0.38666138 17
-9.2316132 -13.407001 0.26082897 3
-12.14688 -15.150941 0.19658354 6
-12.013609 -20.484888 0.10030405 41
-12.633264 -18.347191 -0.03693499 31
-13.265548 -16.546267 -0.15990305 3
-11.978234 -20.42457 -0.31822678 36
-13.107215 -19.035507 -0.44699508 34
-16.120644 -20.10746 -0.65055269 12
-11.961381 -20.395832 -0.73603749 41
-13.123338 -19.058922 -0.8578108 13
-13.2462 -16.522135 -0.90977275 65
-11.995382 -20.45381 -1.1576244 45
-12.614374 -18.319759 -1.2182472 15
-13.249095 -16.525745 -1.2843598 6
-5.7785726 -9.8532772 -0.76009905 0
-6.7922268 -9.8642988 -0.86794806 2
-16.079004 -20.055523 -2.0140166 14
-5.766881 -9.8333406 -0.96025896 0
-6.8706412 -9.978179 -1.0923058 0
-16.111691 -20.096294 -2.4738111 10
-5.6608343 -9.6525164 -1.1407827 62
-6.6489773 -9.6562586 -1.2645254 89
-6.6354198 -9.63657 -1.4693532 40
-6.640142 -9.6434278 -1.6776154 30
-6.6359458 -9.6373329 -1.8857224 29
-6.7527976 -9.8070354 -2.1295493 2
-6.0454278 -8.7797289 -2.0965822 2
-5.2347012 -7.6023164 -1.9789604 2
-4.9918094 -7.2495666 -2.0432591 3
-4.5976319 -6.6771054 -2.0250368 5
-3.2155285 -4.6698875 -1.9505234 6
-2.3213298 -3.3712497 -1.9079727 7
-1.5988325 -2.2893169 0.73709375 1
-2.2172191 -3.1747649 0.74829328 16
-2.6288574 -3.7641768 0.64232188 20
-5.2502322 -7.5176396 0.7961002 23
-5.1852555 -7.4246016 0.46588948 6
-5.1868687 -7.4269109 0.30573609 19
-6.0168438 -7.4037251 0.26531854 17
-9.1021204 -15.287148 0.39008084 18
-9.2539196 -13.25039 0.2589705 2
-12.196645 -15.007969 0.19577372 8
-12.071439 -20.274162 0.099662058 32
-12.667638 -18.138386 -0.036682963 41
-13.304358 -16.37101 -0.1590586 2
-12.045902 -20.231274 -0.31645289 44
-12.750012 -18.256334 -0.43067461 136
-16.422611 -20.208021 -0.65731561 16
-12.020703 -20.188951 -0.73143256 44
-12.727622 -18.224274 -0.82402587 27
-13.315159 -16.3843 -0.90702575 20
-12.057186 -20.250225 -1.1506025 46
-12.721877 -18.216049 -1.2169346 9
-16.354918 -20.124723 -1.5724632 20
-5.8682942 -9.8558884 -0.76328605 0
-6.9054704 -9.887722 -0.87401962 23
-16.405315 -20.186737 -2.038075 19
-5.9849048 -10.051737 -0.98544055 0
-6.9777265 -9.9911833 -1.0987712 0
-16.430441 -20.217655 -2.5021095 6
-5.7471194 -9.6523724 -1.1452452 64
-6.7401991 -9.6510744 -1.2696728 84
-6.7355456 -9.644412 -1.4773281 37
-6.751564 -9.6673479 -1.6895295 31
-6.7291117 -9.6351986 -1.8939959 27
-6.8154373 -9.7588062 -2.128845 2
-6.1080189 -8.7458763 -2.0981259 2
-5.5201445 -7.9041181 -2.0670073 3
-5.0018544 -7.1619949 -2.0278828 3
-4.6529255 -6.662375 -2.0298836 6
-3.2485955 -4.6515594 -1.9518245 6
-2.3415618 -3.3528073 -1.9062827 8
-1.6326681 -2.3033414 0.74526101 1
-2.2257023 -3.1399841 0.74373972 15
-2.6550725 -3.7457323 0.64232188 22
-5.2426715 -7.3962741 0.78710473 24
-5.2762346 -7.443624 0.46938315 5
-5.2570872 -7.4166112 0.30681548 21
-6.0989046 -7.3985624 0.26665294 21
-9.2665787 -15.319037 0.39253584 13
-9.2860651 -13.100627 0.25730425 2
-12.257871 -14.869986 0.19508536 7
-12.146436 -20.079872 0.099121422 58
-12.717626 -17.941816 -0.036464099 29
-13.372529 -16.222174 -0.15851574 2
-12.120605 -20.03717 -0.31473273 40
-13.614908 -19.207687 -0.4553487 26
-16.746422 -20.315033 -0.66458327 15
-12.086862 -19.981386 -0.72695214 43
-12.824492 -18.092581 -0.82209957 26
-13.363127 -16.210768 -0.9025619 28
-12.11762 -20.032234 -1.1429956 49
-13.687153 -19.309608 -1.2963427 16
-16.667711 -20.219551 -1.5889263 20
-5.9803395 -9.8863945 -0.76886332 0
-13.708725 -19.340042 -1.7179705 25
-16.708183 -20.268646 -2.0580714 18
-6.0508075 -10.002889 -0.98476905 0
-7.0427003 -9.9357252 -1.0980529 0
-13.243274 -16.065374 -1.9996226 2
-5.8329024 -9.6426592 -1.1488965 62
-6.8534083 -9.6686754 -1.2782515 75
-6.8348436 -9.6424837 -1.484306 39
-6.8532362 -9.6684322 -1.6980395 32
-6.8350368 -9.6427565 -1.9048151 42
-6.8879547 -9.7174129 -2.1302533 2
-6.1666579 -8.6998196 -2.0973539 3
-5.5751915 -7.8653874 -2.0670073 3
-5.0201879 -7.0823979 -2.0152197 3
-4.7015681 -6.632895 -2.030853 6
-3.2809904 -4.628767 -1.9518245 6
-2.3670087 -3.3393366 -1.9079727 9
-1.6419326 -2.2824686 0.74219829 2
-2.2361014 -3.1084292 0.73994517 16
-2.6950366 -3.7464004 0.64564711 22
-5.2383265 -7.2818561 0.7788012 23
-5.3467321 -7.4325514 0.47102723 4
-5.3367491 -7.4186735 0.30843455 20
-6.1863146 -7.3987484 0.2682097 22
-9.4633265 -15.400481 0.39630601 13
-9.3445959 -12.990026 0.25640705 2
-12.261324 -14.664377 0.19350623 10
-12.20884 -19.86849 0.098496318 60
-12.786508 -17.774666 -0.036304925 33
-13.395654 -16.021021 -0.15746017 40
-12.189 -19.836205 -0.31290507 44
-13.87945 -19.293978 -0.4596802 19
-13.366119 -15.985698 -0.52599382 43
-12.156989 -19.784109 -0.72284508 44
-12.88279 -17.908508 -0.81780231 37
-13.381126 -16.003645 -0.89620942 33
-12.190242 -19.838224 -1.1367539 49
-13.949901 -19.391912 -1.3083743 8
-13.368914 -15.989039 -1.2637811 45
-6.0554819 -9.8546038 -0.76966006 0
-13.976201 -19.428471 -1.7344505 12
-13.3372 -15.951111 -1.6290852 50
-6.0578899 -9.8585234 -0.9746964 0
-7.1305022 -9.9121895 -1.1009264 0
-13.324459 -15.935872 -1.9950337 42
-5.9438291 -9.6729021 -1.1574157 45
-6.9486074 -9.6593361 -1.2833989 67
-6.939074 -9.6460838 -1.4922807 38
-6.9621859 -9.6782122 -1.7082516 31
-6.9436965 -9.6525097 -1.9162707 29
-6.9464269 -9.6563053 -2.1274366 2
-6.2134905 -8.6374416 -2.0927224 3
-5.6391001 -7.8389754 -2.0703614 3
-5.0240002 -6.9839182 -1.9971298 4
-4.7613554 -6.6188126 -2.0366693 6
-3.3220594 -4.6180315 -1.9570295 6
-2.39238 -3.3256741 -1.9096626 8
-1.6327432 -2.236589 0.73096836 2
-2.2230134 -3.0451617 0.7285614 15
-2.7328048 -3.7434919 0.64841813 24
-5.2490926 -7.1903911 0.77291954 22
-5.4385324 -7.4498925 0.47452089 2
-5.4143395 -7.4167528 0.3099187 21
-6.2740231 -7.3980722 0.26976648 26
-9.6489553 -15.459561 0.39955011 12
-9.3808193 -12.850175 0.25493309 7
-12.35564 -14.569268 0.19338475 9
-12.287951 -19.687761 0.098023266 65
-12.867835 -17.626812 -0.036185544 39
-13.447672 -15.856947 -0.15676652 49
-12.248833 -19.625086 -0.31091616 46
-14.129354 -19.354885 -0.46347025 14
-13.423081 -15.827951 -0.5238741 43
-12.222838 -19.583439 -0.71861351 47
-12.939154 -17.724506 -0.81350511 24
-13.446 -15.854976 -0.89311904 64
-12.250174 -19.627234 -1.1295371 55
-12.820335 -17.561745 -1.1909027 22
-13.420816 -15.82528 -1.2582127 52
-6.1410389 -9.8391762 -0.77178472 0
-12.824785 -17.567841 -1.5763 19
-13.399229 -15.799825 -1.6231488 49
-6.0906916 -9.7585087 -0.96898854 0
-7.021009 -9.6176243 -1.0736277 14
-13.383881 -15.781728 -1.9873855 42
-6.0407124 -9.6784315 -1.1630954 44
-7.0604258 -9.6716194 -1.2915488 82
-7.0483694 -9.6551037 -1.5012523 35
-7.069272 -9.6837368 -1.7178963 35
-7.0598116 -9.6707783 -1.9296356 30
-7.0229583 -9.6202946 -2.1302533 2
-6.2643833 -8.581172 -2.0896347 2
-5.6936893 -7.7994156 -2.0703614 4
-5.0565538 -6.9266448 -1.9907984 2
-4.8005834 -6.5760078 -2.0337613 5
-3.3542185 -4.5947261 -1.9570295 7
-2.4134018 -3.3059626 -1.9079727 9
-1.6391094 -2.2127051 0.72688472 4
-2.2208409 -2.9980099 0.72097218 16
-2.7683048 -3.7370551 0.65063494 17
-5.2564654 -7.0959315 0.76669192 23
-6.1490688 -8.3008957 0.53144693 10
-5.4778848 -7.394835 0.31059331 21
-6.3620205 -7.3965321 0.27132326 11
-9.838007 -15.52017 0.40288189 8
-9.4417334 -12.745807 0.25416407 2
-12.407492 -14.425042 0.19261542 8
-12.335154 -19.459602 0.097313687 44
-12.931055 -17.456194 -0.036019739 37
-13.495444 -15.689903 -0.1560427 54
-12.312737 -19.424236 -0.3090885 39
-12.988168 -17.533295 -0.42201164 22
-13.481099 -15.673225 -0.52185529 47
-12.284341 -19.37944 -0.71425754 43
-12.979301 -17.521324 -0.80831885 33
-13.501633 -15.697098 -0.88951361 50
-12.314173 -19.426504 -1.1229054 44
-12.937872 -17.465397 -1.1904652 20
-13.473688 -15.664609 -1.2528864 64
-6.2565894 -9.870225 -0.77762759 0
-12.873502 -17.3785 -1.5673373 8
-13.441591 -15.627293 -1.6150252 43
-6.1928134 -9.7696133 -0.97436064 0
-7.1259232 -9.6195936 -1.0793748 27
-13.431415 -15.615461 -1.9782077 50
-6.1400905 -9.6864386 -1.1691806 43
-7.1632829 -9.6700277 -1.2979829 42
-7.1486769 -9.6503105 -1.5082303 37
-7.1649876 -9.6723289 -1.7247044 34
-7.1600633 -9.6656809 -1.9385455 28
-7.0782304 -9.5552111 -2.1267323 2
-6.3288107 -8.5435371 -2.0911784 2
-5.7573128 -7.772047 -2.0737157 4
-5.1187034 -6.9099603 -1.9962254 2
-4.8533049 -6.5516877 -2.0366693 6
-3.3839626 -4.5681586 -1.9557282 6
-2.445055 -3.3006861 -1.9147326 8
-1.6359267 -2.1764753 0.71871746 2
-2.2204795 -2.9541779 0.71414196 15
-2.7967067 -3.720804 0.65118915 12
-5.2555952 -6.9921665 0.75942636 21
-6.1492648 -8.1811256 0.52651471 10
-5.5726123 -7.4139333 0.31302193 20
-6.4503012 -7.3941197 0.27288002 22
-10.017545 -15.562079 0.40577528 5
-9.4631996 -12.590062 0.25236967 1
-12.447419 -14.268745 0.19168413 8
-12.416575 -19.288931 0.096891321 43
-12.987716 -17.279161 -0.035840668 49
-13.554691 -15.538035 -0.15546967 47
-12.376597 -19.226826 -0.3073146 47
-13.038169 -17.346285 -0.41969118 19
-13.532359 -15.512436 -0.51963466 43
-12.34359 -19.175549 -0.70990157 41
-13.041264 -17.350401 -0.80461437 27
-13.558348 -15.542227 -0.88607985 52
-12.369477 -19.215765 -1.1156884 49
-13.069087 -17.387419 -1.1913402 18
-13.527601 -15.506981 -1.2478023 56
-6.351265 -9.8665781 -0.78081459 0
-14.794711 -19.683229 -1.7844688 20
-13.500554 -15.475977 -1.6090888 43
-6.258707 -9.7227917 -0.97402489 0
-7.3460999 -9.7734232 -1.1023631 31
-13.479902 -15.452303 -1.9694122 45
-6.2334089 -9.6834908 -1.1740488 40
-7.2736287 -9.6770048 -1.305704 37
-7.2659512 -9.6667919 -1.5186971 34
-7.2727823 -9.6758795 -1.7343491 30
-7.2700772 -9.6722803 -1.9500011 27
-7.1447654 -9.5055628 -2.1267323 1
-6.3977342 -8.5116949 -2.0942662 2
-5.8090816 -7.7285376 -2.0728772 3
-5.3026028 -7.0547066 -2.0486863 4
-4.8965945 -6.5145435 -2.0356998 6
-3.4157717 -4.5444226 -1.9557282 6
-2.4745734 -3.2922304 -1.9198024 8
-1.6471444 -2.1582758 0.71667564 1
-2.2253964 -2.9159675 0.70882952 12
-2.8239064 -3.7002032 0.65118915 8
-5.2680268 -6.9027677 0.75389063 19
-6.1533298 -8.0627918 0.521788 11
-5.6510625 -7.4046645 0.31437117 20
-6.5387859 -7.3855562 0.27432561 22
-10.253943 -15.67564 0.41068524 2
-9.5236921 -12.479024 0.25153655 1
-12.517211 -14.138186 0.19115774 8
-12.478809 -19.076887 0.096283108 36
-13.048508 -17.097639 -0.035661597 16
-13.607244 -15.369376 -0.15477602 42
-12.444953 -19.025129 -0.30554071 38
-14.982254 -19.631453 -0.47762495 20
-13.587393 -15.346955 -0.51741397 45
-12.42473 -18.994213 -0.70654124 41
-13.129295 -17.203497 -0.80224347 23
-13.605687 -15.367619 -0.88178766 52
-12.444393 -19.024273 -1.1098369 52
-15.052284 -19.723215 -1.3589066 12
-13.590622 -15.350603 -1.2432022 58
-6.4627476 -9.8798761 -0.78559506 0
-15.088662 -19.77088 -1.8023944 17
-13.552837 -15.307924 -1.6019025 46
-6.3974514 -9.780056 -0.98443329 0
-7.535974 -9.8744898 -1.1199635 0
-13.526826 -15.278544 -1.959852 43
-6.3347225 -9.6841593 -1.1797284 53
-7.3829727 -9.6740103 -1.3125671 43
-7.370327 -9.6574402 -1.5256751 39
-7.4107757 -9.7104406 -1.7502346 4
-7.3791161 -9.6689568 -1.9601839 19
-7.2214189 -9.4623241 -2.128845 2
-6.4647183 -8.470809 -2.0958102 3
-5.8703237 -7.6919656 -2.0745542 4
-5.3541737 -7.0156469 -2.0486863 3
-4.948926 -6.4846454 -2.0376387 6
-3.4604657 -4.5342956 -1.9622343 6
-2.4810438 -3.2509458 -1.9062827 7
-2.9881203 -3.8592112 1.2883828 12
-2.2192507 -2.8662024 0.70048141 15
-3.1989055 -4.131444 0.7309944 8
-5.2770524 -6.8154078 0.74835497 19
-6.1532173 -7.946991 0.51706129 10
-5.7319875 -7.4029651 0.31599024 20
-6.6356006 -7.3903055 0.27621597 23
-12.436199 -18.725073 0.49283984 26
-9.5689526 -12.358474 0.25044709 1
-12.55682 -13.98498 0.19026695 9
-12.536447 -18.876015 0.095708683 45
-13.091636 -16.908083 -0.035455998 47
-13.658092 -15.211505 -0.15414268 56
-12.526575 -18.861151 -0.30430436 26
-15.263394 -19.71295 -0.48218852 18
-13.638101 -15.18924 -0.51529425 45
-12.596847 -18.966959 -0.70878142 22
-13.178108 -17.019764 -0.79794627 24
-13.664583 -15.218735 -0.87869728 52
-12.48628 -18.80048 -1.1018399 31
-13.135637 -16.964912 -1.1751524 0
-13.636106 -15.187019 -1.2376338 57
-6.5646858 -9.8843889 -0.7895788 0
-15.377749 -19.860641 -1.8203201 14
-13.603428 -15.150623 -1.5953412 40
-6.5096769 -9.8015614 -0.99114835 0
-15.275304 -19.728331 -2.2496254 17
-13.577297 -15.121521 -1.9518213 42
-6.4351997 -9.6894226 -1.1858137 57
-7.5038929 -9.6914129 -1.3220038 68
-7.4885921 -9.6716509 -1.536142 41
-7.5050502 -9.6929073 -1.7564753 7
-7.4899545 -9.6734114 -1.9716395 3
-7.3017645 -9.4303598 -2.1330702 2
-6.5333076 -8.4378843 -2.0988979 2
-5.928668 -7.6569815 -2.0762312 4
-5.4077916 -6.9842601 -2.0504951 3
-4.9869475 -6.4407325 -2.0347304 7
-3.4920359 -4.5100269 -1.9622343 7
-2.5103376 -3.2421463 -1.9113526 8
-3.034102 -3.8625875 1.29655 20
-2.2076683 -2.8104894 0.69061548 17
-3.2007525 -4.0747428 0.72489822 12
-5.2752714 -6.7157259 0.74143535 8
-6.1443892 -7.8221626 0.51171803 11
-5.8205719 -7.409925 0.31801409 21
-6.730104 -7.3911047 0.27799514 23
-12.483901 -18.515112 0.48959574 19
-9.5882912 -12.20645 0.24871677 1
-12.611057 -13.849659 0.18961909 9
-13.147584 -16.737635 -0.035290193 63
-13.702013 -15.047764 -0.15344903 46
-12.818936 -19.012011 -0.30817467 17
-15.551339 -19.797754 -0.48690674 19
-13.695347 -15.040443 -0.51347739 41
-12.858589 -19.07082 -0.7159999 12
-13.212654 -16.820473 -0.79290819 29
-13.713991 -15.060918 -0.87509185 50
-12.648497 -18.759226 -1.1045706 5
-13.152598 -16.744019 -1.1661835 0
-13.688034 -15.032412 -1.2327918 56
-6.6625381 -9.8813372 -0.79303139 6
-13.140321 -16.72839 -1.5416052 5
-13.657852 -14.999266 -1.5894047 45
-6.5957718 -9.7823153 -0.99383444 0
-15.565236 -19.815447 -2.2718954 19
-13.620874 -14.958656 -1.9430259 47
-6.5293841 -9.6838541 -1.1906818 58
-7.6131315 -9.6919565 -1.3292959 41
-7.6319304 -9.715889 -1.5515932 3
-7.6287923 -9.711894 -1.769524 3
-7.5890169 -9.6612577 -1.979913 3
-7.3649898 -9.3760586 -2.1323659 2
-6.59448 -8.395155 -2.0996697 2
-5.974731 -7.6061783 -2.0737157 4
-5.4564185 -6.9463367 -2.0504951 3
-5.0413795 -6.4179678 -2.0386081 7
-3.5281093 -4.4914875 -1.9648367 6
-2.5261919 -3.2159884 -1.9062827 7
-3.0923274 -3.8806319 1.3098217 20
-2.2223403 -2.7888656 0.68909764 15
-3.1822155 -3.9934344 0.71436834 6
-4.8476892 -6.0834751 0.67535317 6
-6.1415901 -7.707221 0.50699133 11
-5.9020581 -7.4066267 0.31963319 23
-6.8195162 -7.3850651 0.27955189 21
-9.2179537 -13.467527 0.35781524 2
-9.6234255 -12.076655 0.24743506 1
-12.658597 -13.708386 0.18889025 8
-11.786619 -17.220373 0.088139847 2
-13.219245 -16.58913 -0.035170812 39
-13.760601 -14.901781 -0.15293632 48
-13.062045 -19.083784 -0.31080866 19
-13.269131 -16.651733 -0.41180167 22
-13.737621 -14.876896 -0.51115578 42
-12.58042 -18.380125 -0.69334877 72
-13.217663 -16.587145 -0.7862401 61
-13.764579 -14.906089 -0.87165809 48
-12.673088 -18.515514 -1.0954032 12
-13.192013 -16.554956 -1.159402 25
-13.735764 -14.874884 -1.2277076 57
-6.749393 -9.8609333 -0.79515606 28
-13.194631 -16.558241 -1.5343772 9
-13.708126 -14.844954 -1.5831559 45
-6.7089291 -9.801815 -1.0005496 0
-13.203098 -16.568869 -1.9101881 4
-13.670949 -14.804694 -1.9353777 48
-6.6440296 -9.7069969 -1.1992012 56
-7.7301769 -9.7007742 -1.3378748 37
-7.7243085 -9.6934099 -1.5565774 3
-7.7432923 -9.7172337 -1.7803035 14
-7.6956568 -9.6574545 -1.9900959 7
-7.4130912 -9.3028564 -2.1274366 3
-6.6553745 -8.3519802 -2.1004417 3
-6.0423117 -7.582634 -2.0787468 3
-5.4950671 -6.895885 -2.0468771 4
-5.0860624 -6.3826156 -2.0386081 7
-3.5499513 -4.4549146 -1.9596318 6
-2.5576198 -3.2096155 -1.9130425 8
-3.1363628 -3.8800027 1.3169681 22
-2.2417562 -2.7732828 0.68909764 9
-3.1851139 -3.9403131 0.7088263 9
-4.9201035 -6.0866733 0.67950493 9
-6.157578 -7.6175566 0.50390869 11
-5.9837794 -7.4025502 0.32125226 21
-6.9228354 -7.3927288 0.28166467 24
-10.922653 -15.721495 0.41971612 22
-11.947694 -14.780524 0.30453545 18
-12.702044 -13.564207 0.18812093 8
-11.799286 -16.983274 0.087345794 10
-13.261813 -16.406225 -0.034978475 36
-13.804151 -14.74112 -0.15227282 54
-12.711156 -18.295773 -0.2994127 55
-13.319691 -16.477825 -0.40979061 3
-13.786481 -14.722251 -0.50913697 43
-12.685618 -18.259014 -0.69210422 56
-13.305499 -16.46027 -0.78461015 3
-13.800016 -14.736705 -0.8673659 50
-12.697181 -18.275658 -1.0864309 30
-16.25495 -20.109043 -1.4162205 14
-13.787422 -14.723256 -1.2231077 60
-6.854506 -9.8660173 -0.7994054 1
-16.286892 -20.148558 -1.8775665 15
-13.754189 -14.687767 -1.5765946 43
-6.8044853 -9.7940197 -1.0045786 0
-16.17598 -20.011349 -2.3200271 17
-13.735869 -14.668203 -1.930024 43
-6.7411513 -9.7028599 -1.204475 60
-7.8477135 -9.7084274 -1.3464535 45
-7.8516717 -9.7133245 -1.5685395 3
-7.8472977 -9.7079134 -2.0117342 8
-7.4852824 -9.2600632 -2.1295493 6
-6.7159877 -8.3083668 -2.1012137 4
-6.0951009 -7.540266 -2.0787468 3
-5.5479746 -6.8634143 -2.0486863 4
-5.1378164 -6.3560066 -2.0415163 5
-3.590477 -4.4417892 -1.9648367 6
-2.5776858 -3.1888621 -1.9113526 8
-3.1791844 -3.8800583 1.3241144 20
-2.2551212 -2.7522786 0.68757981 6
-3.1910908 -3.8945894 0.70439267 12
-4.9805675 -6.0785685 0.68227279 11
-6.1471996 -7.5023932 0.4989765 13
-6.0707479 -7.4090872 0.3232761 22
-7.007494 -7.3843575 0.28311023 27
-11.061234 -15.697742 0.4210313 20
-11.992226 -14.635997 0.30318967 19
-12.728401 -13.412935 0.18718964 8
-11.89784 -16.885025 0.087244421 8
-13.322162 -16.259127 -0.034852464 33
-13.843794 -14.588313 -0.15163948 49
-13.576349 -19.267111 -0.31677541 18
-16.470284 -20.101274 -0.50260842 17
-13.839779 -14.584083 -0.50752193 44
-12.755774 -18.102577 -0.68936616 19
-13.343436 -16.285091 -0.78046113 10
-13.845184 -14.589779 -0.86410385 50
-12.772086 -18.125727 -1.0825299 2
-16.560089 -20.210878 -1.4310958 14
-13.824304 -14.567775 -1.2177814 56
-13.552213 -19.232857 -1.5656129 18
-16.587042 -20.243773 -1.8966486 16
-13.801888 -14.544155 -1.5709705 47
-6.940465 -9.8496809 -1.014987 0
-16.477507 -20.11009 -2.3440931 17
-13.767071 -14.507464 -1.9208461 49
-6.8443213 -9.7132368 -1.2113717 56
-7.9825029 -9.7423019 -1.358464 31
-8.0291109 -9.7991848 -1.5909686 2
-7.9576702 -9.7119942 -1.7990255 4
-7.9190164 -9.6648197 -2.0136435 4
-7.5590086 -9.2254457 -2.1330702 3
-6.7858658 -8.2818575 -2.1058452 4
-6.1524105 -7.5087528 -2.0812626 3
-5.6180658 -6.8566084 -2.0577312 5
-5.1921544 -6.3368015 -2.0463631 4
-3.6198561 -4.4178791 -1.9648367 6
-2.6033733 -3.1773052 -1.9147326 8
-3.2210269 -3.8756149 1.3302399 23
-2.2742808 -2.7364681 0.68757981 8
-3.1903501 -3.8387041 0.69829643 13
-5.0509005 -6.0773621 0.68607855 11
-6.1534672 -7.4039955 0.49527732 11
-6.1555433 -7.4064937 0.32503012 21
-7.1032348 -7.3813548 0.2848894 16
-11.219407 -15.688447 0.42287254 28
-12.035316 -14.481174 0.30171567 18
-12.782899 -13.283401 0.18662275 9
-12.101521 -16.921934 0.087869525 5
-13.358646 -16.073437 -0.034653496 38
-13.898149 -14.442318 -0.15112677 45
-13.840817 -19.354048 -0.31978565 17
-16.78915 -20.201099 -0.50802279 19
-13.880256 -14.423723 -0.5053013 41
-12.816725 -17.922028 -0.68588138 19
-13.349496 -16.062426 -0.77423757 1
-13.896821 -14.440936 -0.86101347 49
-12.854159 -17.974373 -1.0788239 0
-13.338674 -16.049404 -1.1429954 11
-13.875832 -14.419126 -1.2134235 55
-13.809201 -19.309837 -1.5796888 21
-13.323723 -16.031416 -1.5106691 40
-13.84502 -14.387108 -1.5644093 42
-7.0322456 -9.8334093 -1.0183445 0
-16.795746 -20.209036 -2.3692367 14
-13.810036 -14.350754 -1.9128156 42
-6.958262 -9.7299557 -1.2194854 52
-8.1418324 -9.796443 -1.373906 8
-8.0668859 -9.7062654 -1.5849875 33
-8.0809574 -9.723197 -1.811507 15
-8.6375189 -10.392864 -2.1778407 1
-7.6232305 -9.1724491 -2.1330702 3
-6.848536 -8.2403193 -2.1073892 3
-6.1996822 -7.4596028 -2.0795856 3
-5.6608167 -6.8112268 -2.055922 5
-5.2387476 -6.3033838 -2.0473325 4
-3.6457753 -4.3866825 -1.9622343 6
-2.6139052 -3.1451118 -1.9062827 8
-3.2668064 -3.8725929 1.3373863 20
-2.2841499 -2.7077155 0.68454415 8
-3.1826434 -3.7728231 0.69053757 13
-5.1235785 -6.0736794 0.68988436 11
-6.1586366 -7.3006754 0.49137264 9
-6.2431803 -7.4008965 0.3267841 23
-7.2046428 -7.3777184 0.28677979 25
-11.371707 -15.657555 0.4242754 34
-12.076674 -14.316136 0.30011353 19
-12.8436 -13.15214 0.18609639 9
-12.345119 -16.997831 0.088731162 5
-13.424529 -15.913932 -0.03452085 36
-13.950546 -14.285678 -0.15055376 47
-14.097486 -19.410643 -0.32241964 20
-13.450403 -15.944605 -0.40344808 52
-13.929738 -14.264369 -0.50328249 43
-12.88667 -17.743486 -0.6826455 12
-13.433375 -15.924418 -0.77231127 54
-13.954839 -14.290073 -0.85809481 57
-12.910444 -17.77622 -1.0725824 0
-13.404457 -15.890138 -1.1386203 52
-13.925365 -14.259892 -1.2085814 58
-14.065303 -19.366331 -1.5927024 16
-13.384289 -15.86623 -1.5043083 52
-13.894388 -14.22817 -1.5581603 51
-7.0479245 -9.704195 -1.0102865 15
-13.403707 -15.889249 -1.8742688 50
-13.873133 -14.206405 -1.9070793 46
-7.0691528 -9.7334232 -1.226382 46
-13.377908 -15.858666 -2.2377982 38
-8.2222681 -9.7469807 -1.6014355 27
-8.2235012 -9.7484417 -1.8273925 7
-8.7287483 -10.347381 -2.1816592 1
-7.7004185 -9.1283607 -2.1358871 2
-6.9087567 -8.1898956 -2.1073892 3
-6.2466311 -7.4049873 -2.0770698 3
-5.7080808 -6.7665696 -2.0550177 5
-5.2973247 -6.2796445 -2.0521793 4
-3.6924667 -4.3771863 -1.9700416 5
-2.6485782 -3.1397223 -1.9147326 7
-3.3138769 -3.8732014 1.3455534 22
-2.3081038 -2.6976714 0.68606198 4
-3.1934528 -3.7324519 0.68721235 13
-5.1943536 -6.0710697 0.69369012 11
-6.1627083 -7.2028656 0.48767346 7
-6.3362789 -7.4057322 0.32894289 21
-7.312243 -7.3840632 0.28900373 22
-11.53056 -15.64539 0.42611665 33
-12.132122 -14.179812 0.29902408 21
-12.904147 -13.03089 0.18565097 8
-12.572642 -17.059353 0.089508317 7
-13.47029 -15.743839 -0.034355044 36
-13.996464 -14.133936 -0.14998074 57
-12.958402 -17.582775 -0.29355344 13
-13.50419 -15.783462 -0.40174642 54
-13.978336 -14.11563 -0.50146562 42
-12.912974 -17.521135 -0.67754281 61
-13.48445 -15.76039 -0.76890314 54
-13.998023 -14.13551 -0.85466105 54
-12.89912 -17.502338 -1.0614644 18
-13.45794 -15.729404 -1.1338077 47
-13.979629 -14.116935 -1.2047077 60
-12.92624 -17.539135 -1.4498186 17
-13.435074 -15.70268 -1.4976585 44
-13.945679 -14.082652 -1.5528488 44
-7.2408295 -9.8248129 -1.0280814 11
-13.446968 -15.716581 -1.8649297 52
-13.927148 -14.063938 -1.9009608 45
-7.1865087 -9.7511072 -1.2349013 27
-13.428829 -15.695381 -2.2279325 59
-13.396289 -15.657348 -2.5878162 4
-10.301773 -12.040533 -2.2704825 1
-8.8059072 -10.292191 -2.1829321 1
-7.7511592 -9.0594196 -2.1323659 2
-6.9708676 -8.1474285 -2.108933 4
-6.3032613 -7.3671412 -2.0787468 2
-5.7703795 -6.7443185 -2.0604446 4
-5.3158064 -6.2130213 -2.0424855 5
-3.7180173 -4.3455534 -1.9674392 5
-2.6633623 -3.1128912 -1.9096626 8
-3.3611138 -3.8733413 1.3537207 21
-2.3088624 -2.6607287 0.68074954 7
-3.1934686 -3.6801472 0.68167031 14
-5.2731743 -6.0767965 0.69853383 12
-6.1918969 -7.1355305 0.48602939 7
-6.4245062 -7.4035892 0.3308318 22
-7.4117808 -7.3807983 0.29089409 23
-11.699378 -15.644574 0.42830861 34
-12.167907 -14.022274 0.29748604 21
-12.943789 -12.889682 0.18492214 8
-12.820789 -17.144142 0.090420634 13
-13.519574 -15.579933 -0.034202501 37
-14.046614 -13.987897 -0.14946803 44
-12.999395 -17.382977 -0.29172578 12
-13.556382 -15.62235 -0.40004474 53
-14.034039 -13.975375 -0.49995151 44
-13.001458 -17.385735 -0.67580038 255
-13.53651 -15.59945 -0.76564318 56
-14.042563 -13.983864 -0.85139894 53
-13.001853 -17.386261 -1.0599041 20
-13.520302 -15.580771 -1.1298701 48
-14.024088 -13.965466 -1.2001078 60
-12.94559 -17.311026 -1.4383986 18
-13.481615 -15.536188 -1.4907196 44
-13.987141 -13.928672 -1.5465999 53
-12.976173 -17.351923 -1.8251635 9
-13.501529 -15.559136 -1.8573867 52
-13.965743 -13.907364 -1.8929302 46
-7.2973056 -9.7580605 -1.2422037 29
-13.472912 -15.526158 -2.2172089 57
-12.553239 -14.46633 -2.4053931 3
-10.403744 -11.989256 -2.2744539 2
-8.8723679 -10.224501 -2.1816592 1
-7.8322797 -9.0259047 -2.1372955 2
-7.0275755 -8.0985651 -2.108933 4
-6.3647914 -7.3347735 -2.0821011 2
-5.7841234 -6.6656132 -2.0486863 3
-5.3666806 -6.1845531 -2.0453937 4
-3.7507422 -4.3223486 -1.9687403 6
-2.6826525 -3.0914838 -1.9079727 8
-3.4085135 -3.8730083 1.3618879 23
-2.3273814 -2.6445448 0.68074954 6
-3.200763 -3.6369464 0.67779088 11
-5.3523278 -6.0817156 0.70337754 15
-6.2415614 -7.0921292 0.48602939 5
-6.5156536 -7.403573 0.33285564 18
-7.5230379 -7.3877072 0.29322925 21
-11.902586 -15.68676 0.43172807 33
-12.223228 -13.888946 0.29646066 21
-13.033461 -12.799004 0.18492214 5
-13.046551 -17.194424 0.091164 34
-13.58309 -15.434123 -0.034089755 38
-14.08114 -13.827836 -0.14880453 43
-14.936069 -19.684675 -0.33209544 15
-13.601706 -15.455275 -0.39818838 51
-14.068496 -13.81542 -0.49773085 41
-13.0621 -17.214918 -0.67268896 13
-13.589629 -15.441554 -0.7625314 57
-14.094225 -13.840686 -0.84865195 50
-13.137405 -17.314163 -1.0610744 3
-13.565418 -15.414042 -1.12462 47
-14.072815 -13.819661 -1.195992 62
-14.904458 -19.643013 -1.6407729 22
-13.544943 -15.390778 -1.4858044 43
-14.032825 -13.780392 -1.5409759 44
-14.944936 -19.69636 -2.0826874 17
-13.554551 -15.401695 -1.8498436 88
-14.011358 -13.75931 -1.8860468 49
-7.4037385 -9.7575998 -1.2486947 41
-13.541566 -15.38694 -2.2107747 64
-12.690636 -14.42005 -2.4123709 2
-10.529046 -11.96389 -2.2835314 1
-8.9591856 -10.180097 -2.1854777 1
-7.8977027 -8.9739609 -2.1379998 2
-7.0865364 -8.0522528 -2.109705 3
-6.410675 -7.2842884 -2.0804241 2
-5.8047757 -6.5958204 -2.0396411 4
-5.417418 -6.1556759 -2.0483019 4
-3.7808266 -4.2960582 -1.9687403 6
-2.7065649 -3.0754015 -1.9096626 8
-3.4534965 -3.8693156 1.3690343 23
-2.3431721 -2.6253026 0.67999065 5
-3.1996973 -3.5849578 0.67224884 8
-5.4105778 -6.0620399 0.70545346 17
-6.168561 -6.9112887 0.47657597 14
-6.6044497 -7.3996606 0.33474457 21
-7.6261315 -7.3850765 0.29523084 23
-12.045961 -15.647646 0.43295553 29
-12.274619 -13.752549 0.2953712 22
-10.746251 -10.406572 0.15143614 0
-13.100391 -17.017345 0.090707846 29
-13.634574 -15.27625 -0.033950478 38
-14.131355 -13.684676 -0.14832199 41
-15.219519 -19.770081 -0.33532071 18
-13.650685 -15.2943 -0.39648673 51
-14.130129 -13.683489 -0.4965196 42
-13.111238 -17.031435 -0.66907972 21
-13.627896 -15.268767 -0.75867873 54
-14.130218 -13.683575 -0.84504652 48
-13.089799 -17.003586 -1.0476159 0
-13.60887 -15.24745 -1.1193699 47
-14.105848 -13.659975 -1.1906657 62
-15.192175 -19.734562 -1.6572391 22
-13.590961 -15.227385 -1.4791546 47
-14.08285 -13.637705 -1.5359768 49
-15.244983 -19.80316 -2.1051831 16
-13.603384 -15.241303 -1.8419414 63
-14.049867 -13.605763 -1.8783987 44
-7.5250826 -9.7750454 -1.2576196 28
-13.579805 -15.214886 -2.1996222 55
-12.785712 -14.32518 -2.4113741 2
-10.620223 -11.898954 -2.2852333 1
-9.0352964 -10.123195 -2.1867507 2
-7.9706483 -8.930357 -2.1408167 2
-7.1556463 -8.0172243 -2.1135647 4
-6.4613729 -7.2393565 -2.0804241 2
-5.8169527 -6.5173445 -2.0278828 4
-5.444756 -6.1003332 -2.0424855 4
-3.8107266 -4.2695584 -1.9687403 6
-2.7352116 -3.0645456 -1.9147326 7
-3.4985931 -3.8651831 1.3761806 23
-2.361443 -2.60888 0.67999065 7
-3.2086966 -3.5449107 0.66892362 6
-5.4367208 -6.006392 0.70337754 18
-6.2675948 -6.9243269 0.48048064 12
-6.7096033 -7.4126496 0.33744305 18
-7.7295542 -7.3813624 0.29723239 20
-12.204136 -15.626205 0.4347091 31
-9.9520903 -10.994892 0.23762994 3
-10.905421 -10.414167 0.15265086 0
-13.172093 -16.86558 0.090386845 51
-13.68452 -15.118413 -0.0338112 34
-14.177372 -13.538726 -0.14780928 73
-15.517186 -19.868242 -0.33881477 16
-13.700767 -15.136362 -0.39486241 50
-14.158799 -13.52099 -0.49419799 42
-13.168294 -16.860716 -0.6659683 18
-13.680511 -15.113984 -0.75571513 57
-14.17338 -13.534914 -0.84195614 45
-15.43619 -19.764534 -1.2243316 16
-13.66138 -15.092848 -1.1149948 48
-14.160443 -13.522561 -1.1872764 60
-15.479431 -19.819901 -1.6734396 23
-13.648745 -15.07889 -1.4739504 44
-14.128688 -13.492236 -1.5306652 51
-15.532517 -19.887873 -2.125664 19
-13.658662 -15.089846 -1.8351167 68
-14.107075 -13.471596 -1.8734273 28
-7.637229 -9.7787266 -1.2649219 28
-13.642993 -15.072535 -2.192759 61
-12.890736 -14.241454 -2.4123709 3
-10.69772 -11.818649 -2.2840986 1
-9.0977993 -10.051086 -2.1848414 1
-8.0275145 -8.8686552 -2.1394081 2
-7.2088089 -7.9641633 -2.1127927 4
-6.5117555 -7.1940708 -2.0804241 2
-5.8257036 -6.4361334 -2.0152197 6
-5.5028372 -6.0794363 -2.0483019 4
-3.842979 -4.2456546 -1.9700416 5
-2.7565396 -3.0453756 -1.9147326 8
-3.5228755 -3.8378155 1.3751597 17
-2.3769426 -2.5894377 0.6792317 5
-3.2172928 -3.504914 0.66559839 3
-5.4973831 -5.9888411 0.7057994 23
-6.3400941 -6.906889 0.48233023 10
-6.7936287 -7.400969 0.33906212 17
-7.8420267 -7.3847857 0.29956755 19
-12.389916 -15.637791 0.43742713 28
-10.025901 -10.922201 0.23756586 8
-11.085601 -10.439238 0.15414903 2
-13.237351 -16.707371 0.090032056 60
-13.722108 -14.948844 -0.033645395 53
-14.3094 -13.475068 -0.14820136 42
-13.21392 -16.677797 -0.28597406 12
-13.749309 -14.978477 -0.3932381 52
-14.36056 -13.523246 -0.49793273 23
-13.159058 -16.608555 -0.659621 108
-13.734331 -14.96216 -0.75289977 57
-14.241342 -13.410978 -0.84041095 38
-13.21428 -16.678251 -1.0388386 3
-13.709693 -14.93532 -1.1104009 50
-14.280664 -13.448009 -1.1894553 32
-13.195867 -16.655012 -1.4139649 7
-13.672744 -14.895067 -1.4652767 42
-14.329955 -13.494425 -1.5422256 28
-13.138772 -16.582951 -1.7821869 7
-13.699017 -14.923688 -1.8264961 69
-6.3568711 -5.9862242 -0.83862543 0
-7.7695632 -9.8062649 -1.2754698 18
-13.686028 -14.909538 -2.1828933 59
-12.973739 -14.133572 -2.4093804 2
-10.787999 -11.752431 -2.2858007 1
-9.1704159 -9.9902382 -2.1854777 1
-8.1078711 -8.8327026 -2.1443377 2
-7.2801561 -7.9309912 -2.1174245 3
-6.5750432 -7.1628423 -2.0846167 2
-5.8230658 -6.3436389 -1.9989388 4
-5.5451446 -6.0408721 -2.0483019 4
-3.8776405 -4.2242956 -1.972644 5
-2.7777324 -3.0260575 -1.9147326 7
-3.5812049 -3.8470979 1.3874105 22
-2.3976381 -2.5756552 0.67999065 5
-3.9164712 -4.2072568 0.80414927 10
-5.585218 -5.9999027 0.71168107 19
-6.3936019 -6.8683062 0.48274127 7
-6.9023333 -7.4148092 0.34189552 14
-7.9637103 -7.3951564 0.30223632 14
-11.158469 -13.883297 0.39051923 2
-10.036505 -10.781683 0.23602779 5
-11.293035 -10.48679 0.15601161 5
-13.273481 -16.514782 0.089491427 61
-13.785253 -14.808764 -0.033545911 34
-14.505711 -13.470102 -0.14925691 48
-16.11631 -20.051811 -0.34574908 14
-13.804495 -14.829434 -0.39184585 55
-14.492712 -13.458033 -0.49924496 37
-13.257154 -16.494469 -0.65874982 5
-13.78398 -14.807397 -0.74993616 58
-14.510325 -13.474388 -0.85071224 44
-13.267821 -16.50774 -1.0339624 28
-13.767363 -14.789545 -1.1066821 52
-14.494156 -13.459373 -1.1993815 44
-13.274315 -16.515818 -1.4099811 1
-13.741059 -14.761289 -1.4615182 44
-14.479335 -13.44561 -1.5481621 43
-16.1308 -20.069839 -2.1689765 12
-13.754009 -14.775201 -1.8200306 71
-6.3284831 -5.8766732 -0.82944757 0
-7.8901868 -9.8169203 -1.2839891 10
-13.738297 -14.758322 -2.1747434 58
-13.091023 -14.062989 -2.4128695 3
-10.872481 -11.679729 -2.2863681 1
-9.2453184 -9.9317541 -2.1867507 1
-8.1827517 -8.7902946 -2.1478589 2
-7.3353467 -7.8799729 -2.1174245 2
-6.6408782 -7.1339421 -2.089648 2
-5.8247323 -6.2572002 -1.9844669 6
-5.5951152 -6.0105343 -2.0512099 5
-3.90446 -4.1943536 -1.9713428 6
-2.7938502 -3.0012846 -1.9113526 8
-3.6212497 -3.8360643 1.3925151 22
-2.418257 -2.5617094 0.68074954 6
-3.9430289 -4.1769319 0.80359507 18
-5.5777297 -5.9086041 0.70545346 19
-6.3947783 -6.7741203 0.4792476 3
-6.9841166 -7.3984184 0.34337968 16
-8.0770702 -7.3960881 0.30457148 19
-11.343564 -13.913539 0.39358798 4
-10.084076 -10.682269 0.23538694 6
-11.478065 -10.510343 0.15755026 9
-13.327792 -16.347309 0.089085951 75
-13.819656 -14.639447 -0.033380102 39
-14.563993 -13.336095 -0.14889501 39
-16.432817 -20.155804 -0.34951192 17
-13.852779 -14.674535 -0.39029887 50
-14.542075 -13.316024 -0.49773085 40
-13.303773 -16.317848 -0.65538949 20
-13.834884 -14.655578 -0.74712074 55
-14.562776 -13.334979 -0.84830862 44
-13.80996 -14.629175 -1.1018695 52
-14.540651 -13.31472 -1.1955079 46
-16.40056 -20.116238 -1.7270875 18
-13.772573 -14.58957 -1.4540009 44
-16.43927 -20.163719 -2.1914721 17
-13.793925 -14.612189 -1.8117691 69
-6.3693547 -5.8323507 -0.82944757 0
-8.0741987 -9.9034719 -1.3026506 3
-13.783666 -14.60132 -2.1657357 59
-13.197056 -13.979913 -2.4143646 3
-10.967346 -11.617936 -2.2892046 1
-9.3334055 -9.8870687 -2.1912055 2
-8.2493248 -8.7386799 -2.1492672 2
-7.3847919 -7.8228626 -2.1158805 2
-6.682466 -7.0788741 -2.0871325 2
-5.8388524 -6.1852169 -1.9745173 4
-5.6182923 -5.9515724 -2.0444243 4
-3.9388394 -4.1724939 -1.9739453 6
-2.8222008 -2.9896154 -1.9164225 7
-3.6318958 -3.7939274 1.3863896 2
-2.4279349 -2.5362537 0.67847282 4
-3.9885297 -4.166472 0.80692029 22
-5.6023097 -5.8522487 0.70337754 22
-6.4087667 -6.694684 0.47678149 2
-7.0991802 -7.4158998 0.3464829 12
-8.1878614 -7.3931112 0.30679542 18
-11.501584 -13.907971 0.39569226 6
-10.125218 -10.57694 0.2346179 5
-11.675846 -10.542537 0.15925089 12
-13.388057 -16.189135 0.088731162 52
-13.8745 -14.49349 -0.033267356 38
-14.612211 -13.193886 -0.14844263 35
-16.746452 -20.250183 -0.35316721 16
-13.89405 -14.513912 -0.38859722 51
-14.584229 -13.16862 -0.49601489 39
-13.3129 -16.098255 -0.65028673 26
-13.873288 -14.492224 -0.7437126 51
-14.596194 -13.179423 -0.84487486 67
-13.38498 -16.185415 -1.0253801 0
-13.867565 -14.486246 -1.0983694 47
-14.588799 -13.172746 -1.1918763 48
-16.705921 -20.201172 -1.7443504 20
-13.821674 -14.438308 -1.4485075 40
-6.5529275 -5.9168711 -0.69175196 0
-16.757444 -20.263475 -2.2149749 13
-13.84326 -14.460855 -1.8049445 71
-6.3951411 -5.7744002 -0.82753557 0
-13.268421 -16.04447 -2.1225374 8
-13.830265 -14.447282 -2.1571567 61
-13.288844 -13.881706 -2.4133677 3
-11.05914 -11.552527 -2.2914741 1
-9.4022036 -9.8216696 -2.1912055 1
-8.3183012 -8.6894102 -2.1513798 2
-7.4582253 -7.7909632 -2.121284 2
-6.7398372 -7.040525 -2.089648 2
-5.8414755 -6.1020842 -1.9609499 4
-5.6784906 -5.931828 -2.0512099 4
-3.9652576 -4.1421618 -1.972644 6
-2.8404968 -2.9672213 -1.9147326 8
-3.6704419 -3.7836366 1.3914942 15
-2.4337637 -2.5088201 0.67543709 7
-3.9940076 -4.1171813 0.80248666 30
-5.6437736 -5.8178253 0.70372355 20
-8.0384665 -8.2863693 0.59392178 20
-7.1983113 -7.4203038 0.34891152 13
-8.3113489 -7.4051418 0.30957538 16
-9.8364267 -11.735069 0.3357203 3
-10.153371 -10.466496 0.23365663 8
-11.984423 -10.677731 0.16249016 13
-13.438604 -16.032545 0.088359475 49
-13.895117 -14.323636 -0.033088285 29
-14.648624 -13.051448 -0.14792992 41
-13.393832 -15.979132 -0.28022233 40
-13.931523 -14.361165 -0.3869729 49
-14.64139 -13.045002 -0.49500552 37
-13.378284 -15.960582 -0.64829546 43
-13.927346 -14.35686 -0.74148995 56
-14.644493 -13.047767 -0.8426429 53
-13.39194 -15.976874 -1.0177732 22
-13.896588 -14.325153 -1.0931193 47
-14.628146 -13.033202 -1.1880026 50
-13.368048 -15.94837 -1.3847507 55
-13.875458 -14.30337 -1.4441707 45
-6.5324769 -5.8202243 -0.68550307 1
-13.34777 -15.924178 -1.7502902 45
-13.888929 -14.317258 -1.7984791 70
-6.5819407 -5.864295 -0.84665602 0
-13.325972 -15.898172 -2.1148293 46
-13.875932 -14.30386 -2.1494358 57
-13.469046 -13.884425 -2.4293175 3
-11.141027 -11.484612 -2.2926087 1
-9.4753828 -9.7676001 -2.1931148 1
-8.3839712 -8.6425295 -2.1534925 2
-7.5151968 -7.7469621 -2.122828 2
-6.7891049 -6.9984779 -2.0904865 2
-5.8465466 -6.0268517 -1.9491915 3
-5.715003 -5.8912511 -2.0502405 4
-3.995275 -4.1184874 -1.9739453 5
-2.847491 -2.9353063 -1.9062827 8
-3.6994793 -3.7606773 1.3925151 17
-2.4539735 -2.4945679 0.67619604 5
-4.0504341 -4.1174378 0.8080287 23
-5.681457 -5.7754416 0.70337754 19
-8.1381416 -8.2727652 0.59700441 21
-7.3060093 -7.426868 0.35160998 12
-8.4289303 -7.4049945 0.31202173 14
-6.348732 -7.4676528 0.21489957 0
-10.178512 -10.346888 0.23256716 5
-12.082714 -10.614922 0.16281408 19
-13.480251 -15.856053 0.087903321 54
-13.972335 -14.20347 -0.033035226 38
-14.691306 -12.906625 -0.14744738 40
-13.450658 -15.821244 -0.27909347 44
-13.986568 -14.217938 -0.38573533 47
-14.696056 -12.910797 -0.49379423 38
-13.432411 -15.799782 -0.6455574 41
-13.965567 -14.196589 -0.73822999 57
-14.678185 -12.895097 -0.83938086 78
-13.443633 -15.812982 -1.0132869 46
-13.962646 -14.193622 -1.0904942 49
-14.682784 -12.899137 -1.1850973 53
-13.42736 -15.79384 -1.3794391 52
-13.927413 -14.157805 -1.4392556 43
-6.5280128 -5.7349982 -0.68081641 0
-13.406981 -15.76987 -1.7435751 44
-13.938255 -14.168827 -1.7920135 74
-6.8680077 -6.0336905 -0.87801367 0
-13.374776 -15.731989 -2.105093 50
-13.914095 -14.144266 -2.1399992 55
-13.585131 -13.80986 -2.4328063 3
-11.243148 -11.429135 -2.2971475 1
-9.5433426 -9.7012119 -2.1931148 2
-8.4413414 -8.5809813 -2.1527884 2
-7.5635924 -7.6887121 -2.121284 2
-6.8432832 -6.9564872 -2.0921636 4
-5.9212689 -6.0192204 -1.9600455 2
-5.7641568 -5.8595095 -2.0531487 5
-4.0318875 -4.0985842 -1.9778489 5
-2.8780837 -2.925694 -1.9130425 8
-3.728375 -3.7374961 1.393536 8
-2.4741027 -2.4801555 0.67695493 5
-4.0594969 -4.069428 0.80414927 23
-5.69631 -5.7102456 0.70026374 11
-8.2577658 -8.2779675 0.6015256 20
-7.3859153 -7.4039841 0.35295922 13
-8.5408649 -7.3983302 0.3142457 14
-6.4372716 -7.465549 0.21612707 0
-10.20813 -10.233103 0.23160589 5
-12.096058 -10.477936 0.16200426 31
-13.533152 -15.694912 0.087531634 55
-14.003354 -14.037613 -0.032876052 41
-14.738722 -12.767083 -0.14702515 39
-13.508545 -15.666374 -0.27801839 42
-14.023352 -14.057658 -0.38403368 49
-14.728402 -12.758144 -0.49187639 37
-13.49278 -15.648091 -0.64319271 41
-14.013523 -14.047806 -0.73556274 54
-14.7316 -12.760915 -0.83732057 74
-13.496303 -15.652176 -1.0089959 51
-13.990879 -14.025106 -1.0850253 49
-14.709102 -12.741426 -1.1800132 52
-13.479954 -15.633216 -1.3735962 60
-13.972381 -14.006562 -1.4337623 48
-6.4322524 -5.5717926 -0.66675639 4
-13.454279 -15.60344 -1.7355169 45
-13.986191 -14.020407 -1.7855481 74
-6.3230963 -5.4772387 -0.80344373 0
-13.424511 -15.568916 -2.0957623 44
-13.970372 -14.004549 -2.1335649 61
-6.1912518 -6.2063985 -1.2560841 0
-6.180388 -6.195508 -1.4103141 130
-6.1456671 -6.1607018 -1.5563173 2
-6.1784878 -6.193603 -1.7206485 0
-6.8972073 -6.9140806 -2.0938406 5
-6.2823558 -6.2977247 -2.0649672 3
-5.7912202 -5.805388 -2.0483019 5
-4.0550609 -4.064981 -1.9752464 6
-2.9112413 -2.9183636 -1.9214923 8
-3.757127 -3.7140949 1.3945569 0
-2.3908091 -2.363426 0.64963388 10
-4.0934424 -4.0465584 0.80525768 27
-5.6906919 -5.6255136 0.69472808 1
-8.3778553 -8.2818995 0.6060468 21
-7.511343 -7.4253125 0.35646722 14
-8.680481 -7.4138288 0.31747043 14
-6.5181909 -7.4535418 0.21709152 1
-7.5772305 -7.4904451 0.17072442 0
-12.126334 -10.356865 0.16143739 29
-13.571296 -15.518757 0.087075479 69
-14.055499 -13.894515 -0.032769937 42
-14.778832 -12.622311 -0.14654261 39
-13.551761 -15.496419 -0.27667454 38
-14.084176 -13.922863 -0.38302815 51
-14.768464 -12.613456 -0.49026138 38
-13.525367 -15.466237 -0.63958347 39
-14.05724 -13.896236 -0.73274732 56
-14.783865 -12.62661 -0.83526033 57
-13.555271 -15.500433 -1.0052899 50
-14.043005 -13.882164 -1.0815252 48
-14.752156 -12.599527 -1.1763816 16
-13.536216 -15.478642 -1.3682846 55
-14.021591 -13.860995 -1.4288472 46
-6.4467363 -5.506031 -0.66425681 9
-13.507778 -15.446125 -1.728466 43
-14.032733 -13.872009 -1.7790827 83
-6.330905 -5.4071016 -0.79961962 0
-13.488339 -15.423897 -2.0888658 46
-14.002751 -13.842371 -2.1236992 60
-13.768157 -13.610464 -2.4313111 4
-6.1274252 -6.0572448 -1.2345252 4
-6.1617045 -6.0911317 -1.3963128 255
-6.0737171 -6.0041523 -1.5274445 3
-6.0708518 -6.0013194 -1.6789639 0
-6.3834524 -6.3103399 -1.924455 1
-6.3344817 -6.26193 -2.0676806 2
-5.8481669 -5.7811852 -2.0541182 4
-4.0887203 -4.0418901 -1.9778489 5
-2.9238091 -2.8903215 -1.9164225 8
-2.2127299 -2.1570513 0.81570351 3
-2.3875654 -2.3274872 0.6443215 15
-4.1414495 -4.0372386 0.80913711 20
-8.5091352 -8.2950211 1.0317127 21
-8.4955397 -8.2817678 0.61036253 20
-7.625977 -7.4340858 0.35943553 13
-8.8023701 -7.4122877 0.32002801 11
-6.6098695 -7.4527321 0.21840669 2
-7.6808891 -7.4876161 0.17187797 1
-12.12797 -10.212704 0.1605061 31
-13.63684 -15.375752 0.086805157 59
-14.086282 -13.731831 -0.032617394 92
-14.829872 -12.487917 -0.1461807 39
-13.606537 -15.341585 -0.27559945 39
-14.126622 -13.771156 -0.38155854 48
-14.801101 -12.46369 -0.48844445 20
-13.577302 -15.308621 -0.63696986 43
-14.105255 -13.750326 -0.7302283 56
-14.813569 -12.47419 -0.83199829 72
-13.604834 -15.339664 -1.0009989 47
-14.079519 -13.725239 -1.0769314 50
-7.012157 -5.9047871 -0.55587 0
-13.577738 -15.309114 -1.361645 56
-14.072309 -13.71821 -1.4242212 47
-6.4423113 -5.424932 -0.65988261 10
-13.549164 -15.276896 -1.7200722 43
-14.075036 -13.720868 -1.7722579 71
-5.2811923 -4.4471788 -0.66309917 3
-13.54552 -15.272787 -2.0811577 43
-14.05918 -13.705412 -2.1176939 49
-6.1953659 -6.0394731 -1.0865638 4
-6.0845056 -5.9314017 -1.2175051 5
-6.1588349 -6.003861 -1.3861301 1
-6.0309014 -5.8791471 -1.506318 3
-6.0114269 -5.8601623 -1.6511742 2
-6.3629389 -6.2028289 -1.9051687 2
-6.391995 -6.231154 -2.0722032 3
-5.8967218 -5.7483435 -2.0570264 4
-4.1114221 -4.007967 -1.9752464 6
-2.9517047 -2.8774314 -1.9214923 8
-2.2284818 -2.1407738 0.81570351 5
-2.432884 -2.3371313 0.65191066 16
-4.1737881 -4.0095172 0.80969131 22
-8.6817884 -8.3400927 1.045206 26
-8.6395607 -8.2995272 0.61632228 20
-7.7321577 -7.4278374 0.36186415 11
-5.317574 -4.411602 0.19215024 2
-6.6910772 -7.4338021 0.21928348 4
-7.7961369 -7.4892983 0.17322376 2
-5.3255138 -4.418189 0.070049331 29
-13.701016 -15.221861 0.086501054 59
