# .PCD v0.7 - Point Cloud Data file format
VERSION 0.7
FIELDS x y z intensity
SIZE 4 4 4 4
TYPE F F F F
COUNT 1 1 1 1
WIDTH 1355
HEIGHT 1
VIEWPOINT 0 0 0 1 0 0 0
POINTS 1355
DATA ascii
-5.6817465 3.5132291 0.22545674 23
-4.8745666 3.5285969 0.16735306 29
-11.843618 6.1838012 0.29293326 22
-5.6706452 3.5063648 0.10683093 14
-4.8697214 3.5250895 0.060857888 28
-11.821539 6.1722732 0.056327052 27
-5.6577568 3.4983954 -0.011029428 22
-4.8568721 3.5157881 -0.04520835 16
-11.778031 6.1495566 -0.17857252 20
-5.6975245 3.5229855 -0.12955819 32
-4.8360286 3.5006998 -0.15070212 29
-11.730863 6.124929 -0.41195199 20
-5.6878791 3.5170212 -0.24790421 34
-4.8687201 3.5243647 -0.2582182 5
-11.853621 6.1890244 -0.65283382 24
-5.6730766 3.5078683 -0.36532101 29
-4.8578081 3.5164657 -0.36363968 6
-11.813248 6.1679444 -0.88678229 28
-5.6531458 3.4955442 -0.48167935 28
-4.851861 3.5121608 -0.46929151 31
-11.772859 6.1468558 -1.1187352 22
-5.6891217 3.5177896 -0.60308492 26
-4.844439 3.506788 -0.57438004 32
-11.764215 6.1423426 -1.3529553 24
-5.6826425 3.5137832 -0.72062504 35
-5.6710553 3.5066185 -0.83735192 30
-5.6645541 3.5025985 -0.95426077 28
-5.7032518 3.5265267 -1.0806469 29
-5.6732121 3.507952 -1.1929419 30
-5.6682458 3.5048811 -1.3107498 25
-5.6584554 3.4988272 -1.4263608 23
-5.6769209 3.5102451 -1.5494037 25
-5.6805491 3.5124886 -1.6683046 32
-4.7162671 2.9162385 -1.9075832 6
-3.4536204 2.1354983 -1.8927629 8
-2.0600939 1.2937982 0.64214957 4
-3.2859371 2.063663 0.74981111 13
-4.6261368 2.9053471 0.76424664 5
-5.5580969 3.4906447 0.56982923 20
-5.5953178 3.5140204 0.33991233 18
-5.5995288 3.516665 0.22316305 22
-4.801476 3.5270345 0.1656851 28
-11.644753 6.1838088 0.28907543 27
-5.5816765 3.5054533 0.10561331 16
-4.8095336 3.5329533 0.060412489 30
-11.619186 6.1702313 0.055566791 28
-5.5722227 3.4995162 -0.010910048 21
-4.7870779 3.516458 -0.044786125 16
-11.586449 6.1528463 -0.17631483 19
-5.6016693 3.5180094 -0.12793387 24
-4.7663531 3.5012343 -0.14928898 28
-11.553636 6.1354218 -0.40722263 24
-5.6022563 3.5183783 -0.24523698 33
-4.8021269 3.5275123 -0.25598627 5
-11.644282 6.1835585 -0.64366645 25
-5.5740385 3.5006564 -0.36050841 24
-4.7816553 3.5124745 -0.35976604 4
-11.62185 6.1716461 -0.87562776 28
-5.5745478 3.5009766 -0.4770534 29
-4.7725873 3.5058136 -0.46397996 32
-11.585325 6.1522498 -1.1049693 24
-5.6138186 3.5256398 -0.59769702 31
-4.7717042 3.5051649 -0.56864387 33
-11.573435 6.1459355 -1.3359166 23
-5.6040878 3.5195284 -0.71376199 34
-5.5859389 3.5081303 -0.82838029 28
-5.5762539 3.502048 -0.94348139 28
-5.608264 3.5221512 -1.067282 29
-5.5985665 3.5160611 -1.1823786 30
-5.5904593 3.5109694 -1.2983987 29
-5.5775852 3.5028841 -1.4121056 24
-5.6126804 3.524925 -1.5385498 23
-5.5901608 3.5107818 -1.648917 25
-4.702199 2.9531164 -1.9101856 6
-3.4355576 2.157629 -1.891073 8
-2.0216646 1.2894313 0.63296139 3
-3.2846947 2.0950005 0.75284678 12
-4.6257806 2.9503541 0.76757187 6
-5.4899149 3.5015049 0.56533152 20
-5.5167608 3.5186274 0.33662418 20
-5.5141721 3.5169761 0.22073443 21
-4.7382655 3.5317943 0.16435072 28
-11.446475 6.181345 0.28521758 22
-5.4963713 3.5056229 0.10445976 14
-4.7270265 3.523417 0.059683651 30
-11.410408 6.1618681 0.054772738 24
-5.4970694 3.506068 -0.010810564 21
-4.7335486 3.5282784 -0.044514693 17
-11.384844 6.1480632 -0.17389588 20
-5.5263953 3.5247724 -0.12677366 27
-4.7097335 3.5105271 -0.14827959 25
-11.359252 6.134243 -0.401871 20
-5.5101542 3.5144138 -0.24227339 25
-4.7389336 3.5322921 -0.25392601 4
-11.449667 6.1830688 -0.63527924 21
-5.4854827 3.4986782 -0.35635206 34
-4.7154012 3.5147517 -0.35661867 4
-11.427473 6.1710839 -0.86420768 25
-5.4826984 3.4969022 -0.47127092 27
-4.7128258 3.5128322 -0.46054307 32
-11.391284 6.1515408 -1.0905318 21
-5.5252509 3.5240424 -0.59087241 33
-4.7120008 3.5122173 -0.56443739 32
-11.390189 6.1509495 -1.3196893 22
-5.5123205 3.5157955 -0.70518309 37
-5.4943886 3.5043583 -0.81841183 30
-5.4982557 3.5068247 -0.93440402 30
-5.5302668 3.5272415 -1.0570992 29
-5.5008488 3.5084786 -1.166886 28
-5.5062494 3.5119233 -1.2845039 28
-5.4936395 3.5038805 -1.3970119 24
-5.5353742 3.530499 -1.5240778 24
-5.5098925 3.5142467 -1.6324375 26
-4.6750903 2.9818041 -1.9075832 6
-3.4173541 2.1796117 -1.889383 9
-4.6647182 3.0212085 1.4670413 7
-3.2897668 2.1306906 0.75740027 10
-4.628345 2.9976506 0.77145129 5
-5.3950958 3.4942536 0.55806589 20
-5.4417682 3.5244823 0.33354154 18
-5.4290867 3.5162687 0.21830581 21
-4.6560898 3.5213735 0.16234916 26
-11.266334 6.1860361 0.28179812 21
-5.4113393 3.5047743 0.10330622 14
-4.6672215 3.5297925 0.059238251 32
-11.240891 6.1720662 0.054164529 23
-5.4019547 3.4986959 -0.010671287 24
-4.6641378 3.5274603 -0.044092465 31
-11.208423 6.1542392 -0.17185321 15
-5.4345188 3.5197871 -0.12522669 29
-4.64046 3.509553 -0.14686644 28
-11.179477 6.1383452 -0.39701718 16
-5.4351592 3.5202017 -0.24005069 33
-4.666347 3.5291312 -0.2513507 5
-11.252133 6.1782393 -0.62669706 20
-5.4039345 3.4999783 -0.35263321 25
-4.6557193 3.5210934 -0.35395554 5
-11.226682 6.1642647 -0.85225648 25
-5.3911805 3.4917178 -0.46548846 24
-4.6372972 3.5071611 -0.45554397 30
-11.194333 6.146503 -1.0757586 18
-5.4403257 3.5235479 -0.58440691 32
-4.6460819 3.5138047 -0.559466 32
-11.17954 6.1383805 -1.3002164 17
-5.4342337 3.5196021 -0.69831997 36
-5.4198217 3.510268 -0.81093544 29
-5.4071712 3.5020747 -0.92305726 28
-5.4392157 3.5228288 -1.0443708 32
-5.4266477 3.514689 -1.1563227 29
-5.4190068 3.5097404 -1.269837 30
-5.4165201 3.5081298 -1.3835951 25
-5.4451838 3.5266943 -1.5059879 24
-5.423336 3.5125442 -1.6140193 27
-4.6478095 3.0102572 -1.9049808 5
-3.3898823 2.1955326 -1.8826232 8
-4.6855206 3.081326 1.4803129 7
-3.2944999 2.166553 0.76195377 9
-4.6205444 3.0385959 0.77366811 5
-5.3139672 3.4946098 0.55218422 20
-5.3469391 3.516293 0.32922584 19
-5.3442831 3.5145462 0.21587721 19
-4.6060147 3.5343206 0.16145957 27
-11.079705 6.1846247 0.27820331 21
-5.3366146 3.5095036 0.10234493 17
-4.601213 3.5306361 0.058711868 28
-11.040357 6.1626606 0.053404264 22
-5.3372927 3.5099492 -0.0105917 23
-4.5949717 3.5258467 -0.043670241 27
-10.997551 6.1387663 -0.16927299 16
-5.3630333 3.5268769 -0.12414382 28
-4.5682597 3.5053499 -0.14535235 27
-10.993217 6.1363478 -0.39191443 17
-5.3636942 3.5273116 -0.23797618 31
-4.600379 3.5299959 -0.24911876 5
-11.062207 6.1748571 -0.61850494 19
-5.322638 3.5003119 -0.34891438 28
-4.5803423 3.5146213 -0.35008189 5
-11.037004 6.1607885 -0.84110194 23
-5.303339 3.4876204 -0.45999512 26
-4.5747352 3.5103188 -0.45179462 30
-11.008454 6.1448526 -1.0619926 18
-5.35568 3.5220411 -0.57794142 33
-4.5740542 3.5097964 -0.55372989 31
-7.342041 4.0982828 -0.8572098 2
-5.3397508 3.5115657 -0.68931216 35
-5.335495 3.5087669 -0.80196381 31
-5.329658 3.5049284 -0.91397989 29
-5.3649964 3.528168 -1.0348244 30
-5.3460503 3.5157084 -1.144351 28
-5.3517418 3.5194514 -1.2598019 30
-5.3265405 3.5028782 -1.3668243 27
-5.3650866 3.5282273 -1.4906114 23
-5.3565302 3.5226002 -1.6014173 27
-4.6235209 3.0405533 -1.9036795 6
-3.3835597 2.225121 -1.887693 9
-4.6510301 3.1053698 1.4762293 4
-3.2988927 2.2025833 0.76650727 8
-4.625576 3.0883749 0.77810174 3
-5.2397299 3.4984291 0.54699457 22
-5.2757506 3.5224791 0.32634869 19
-5.2730718 3.5206904 0.21398827 21
-4.5433669 3.5369163 0.1601252 28
-10.904088 6.1868334 0.27487153 20
-5.2487869 3.5044763 0.1011273 17
-4.5385785 3.5331881 0.058225978 30
-10.8753 6.1704993 0.052812949 21
-5.2527804 3.5071423 -0.010472319 25
-4.5229006 3.5209835 -0.043217856 26
-10.818757 6.1384172 -0.16717657 15
-5.2651095 3.5153744 -0.12244216 28
-4.5089674 3.5101368 -0.14424202 28
-10.811018 6.1340261 -0.38693616 16
-5.2691278 3.5180573 -0.23486441 32
-4.5346284 3.5301132 -0.24688682 5
-10.900684 6.1849017 -0.61187321 20
-5.2416043 3.4996808 -0.34519553 29
-4.5304899 3.5268915 -0.34814504 5
-10.858342 6.1608772 -0.83074421 21
-5.229094 3.4913278 -0.45565826 26
-4.5123563 3.5127749 -0.44804528 32
-10.837017 6.148778 -1.0495697 14
-5.2812643 3.5261602 -0.57255352 32
-4.5085955 3.5098474 -0.54875857 32
-7.1990352 4.0846357 -0.84382224 6
-5.2688022 3.5178399 -0.68330699 35
-5.2646604 3.5150745 -0.79498589 30
-5.2556653 3.5090687 -0.90546983 28
-5.2811189 3.5260634 -1.0233687 31
-5.2591581 3.5114007 -1.130971 31
-5.2650247 3.5153177 -1.2451351 29
-5.2596722 3.511744 -1.3559233 26
-5.2884779 3.530977 -1.4761394 26
-5.2704864 3.5189643 -1.582999 28
-4.6021824 3.0727556 -1.9036795 6
-3.3558831 2.2406344 -1.8809332 8
-4.6420431 3.1464441 1.4803129 1
-3.2964392 2.2343743 0.76954293 7
-4.6170192 3.1294825 0.78031856 1
-5.1624002 3.4991498 0.54145885 22
-5.1915097 3.5188808 0.32264954 20
-5.2020359 3.5260153 0.21209934 21
-4.4714956 3.5313764 0.15845722 27
-10.722057 6.182899 0.27136439 20
-5.1712232 3.5051301 0.10010193 16
-4.4667172 3.5276024 0.057618614 32
-10.696818 6.1683445 0.052154053 29
-5.1751904 3.5078194 -0.010366203 24
-4.4668193 3.527683 -0.042916264 29
-10.678623 6.1578526 -0.16567144 21
-5.2073345 3.5296071 -0.12166867 30
-4.4498329 3.5142682 -0.14313169 30
-10.643246 6.1374521 -0.38245574 25
-5.2014246 3.5256011 -0.23293808 29
-4.4691019 3.5294859 -0.24465488 5
-10.698032 6.169045 -0.60290086 29
-5.1773715 3.5092976 -0.34257048 29
-4.4618897 3.5237901 -0.34475559 5
-10.70097 6.1707382 -0.82197994 31
-5.1484513 3.4896953 -0.45074317 29
-4.4470391 3.5120618 -0.44398353 33
-10.690239 6.1645508 -1.0394971 25
-5.2037554 3.5271811 -0.56680644 34
-4.4402361 3.5066891 -0.54340482 31
-7.0979509 4.0930495 -0.83530283 9
-5.1947351 3.5210669 -0.67687279 36
-5.1808581 3.5116608 -0.78601426 31
-5.1720424 3.5056856 -0.89525777 29
-5.2040715 3.5273952 -1.013186 30
-5.1856256 3.5148923 -1.1204077 30
-5.1916223 3.5189571 -1.233556 29
-5.1702776 3.5044894 -1.3391525 24
-5.218544 3.537205 -1.4634765 26
-5.1943932 3.5208352 -1.5674889 27
-4.5743566 3.1005652 -1.9010772 6
-3.3401587 2.2640083 -1.8809332 9
-4.6486387 3.1985054 1.4895011 0
-3.3389981 2.2974045 0.78320348 4
-4.6146393 3.1751122 0.78364378 0
-5.0853176 3.4989634 0.53592318 29
-5.1174521 3.5210736 0.31956691 20
-5.1048365 3.5123932 0.20913103 22
-4.4092889 3.532505 0.15712285 29
-10.55442 6.1848159 0.268208 22
-5.0972028 3.5071409 0.099140644 17
-4.4138889 3.5361905 0.057254195 33
-10.532705 6.172091 0.051562738 27
-5.0945549 3.5053189 -0.010253455 23
-4.4108682 3.5337703 -0.042614676 27
-10.514594 6.161478 -0.16379003 21
-5.1232615 3.5250707 -0.12027641 29
-4.3783817 3.5077436 -0.1416176 29
-10.469059 6.1347947 -0.37772638 25
-5.1174092 3.521044 -0.23027085 33
-4.4100475 3.533113 -0.24276631 5
-10.551293 6.1829834 -0.59704936 24
-5.1066799 3.5136616 -0.33950791 29
-4.3966742 3.5223989 -0.34160826 6
-10.530219 6.1706338 -0.8121534 26
-5.0845227 3.4984162 -0.4472737 28
-4.375731 3.5056202 -0.43929684 31
-10.519702 6.1644707 -1.0270741 24
-5.12321 3.5250351 -0.56070018 33
-4.3814669 3.5102155 -0.53919828 31
-6.96277 4.0801339 -0.82272667 12
-5.1143293 3.5189247 -0.66958076 36
-5.097362 3.5072503 -0.77704263 30
-5.1050358 3.5125306 -0.88788235 30
-5.1370249 3.5345407 -1.0049125 31
-5.1090589 3.5152986 -1.1091402 30
-5.1087279 3.5150709 -1.2196611 29
-5.1005759 3.5094619 -1.3274128 26
-5.1391525 3.5360045 -1.4481 24
-5.1185327 3.5218172 -1.5519788 27
-4.5494828 3.130281 -1.8997759 7
-3.3242714 2.2872717 -1.8809332 8
-1.7375979 1.2135181 0.55945623 4
-3.5836854 2.502804 0.84467584 3
-4.5858655 3.2027149 0.78253537 0
-5.015027 3.5024364 0.53107947 25
-5.0436196 3.5224051 0.31648427 20
-5.0441384 3.5227671 0.20764688 22
-4.3503866 3.5354626 0.15589967 27
-10.387287 6.1846976 0.26505157 22
-5.0299678 3.5128706 0.098307535 17
-4.3487415 3.5341256 0.056727812 30
-10.358758 6.1677113 0.05092074 28
-5.0240479 3.5087361 -0.010160604 25
-4.3364244 3.5241158 -0.042132132 26
-10.344169 6.1590247 -0.16180111 21
-5.0493455 3.5264039 -0.11911619 29
-4.3227544 3.5130062 -0.14060821 29
-10.316048 6.1422811 -0.37374374 25
-5.046823 3.5246422 -0.22819634 31
-4.3449569 3.5310497 -0.24053438 31
-10.384289 6.1829123 -0.59002757 25
-5.0296335 3.5126374 -0.33600783 9
-4.3440895 3.530345 -0.33942932 32
-10.366857 6.172533 -0.802858 29
-5.0043716 3.4949944 -0.44235861 31
-4.3232985 3.5134482 -0.43648484 31
-10.353117 6.1643524 -1.014987 25
-5.0527496 3.5287814 -0.55567145 34
-4.3197746 3.5105846 -0.53460938 34
-6.8349595 4.0696054 -0.81096184 12
-5.0505123 3.5272188 -0.66443348 37
-5.0271988 3.5109367 -0.77006471 32
-5.0219569 3.5072761 -0.87767029 30
-5.0571852 3.5318789 -0.9940933 34
-5.032742 3.5148082 -1.0978727 31
-5.0293622 3.5124476 -1.2065382 28
-5.0246468 3.5091543 -1.3139961 26
-5.0632305 3.5361009 -1.4336281 25
-5.0429149 3.5219128 -1.5364687 28
-4.5337205 3.1662974 -1.9023783 6
-3.2993057 2.3041964 -1.8758633 8
-1.7480153 1.2390385 0.56558162 5
-3.5725329 2.5323038 0.84619367 3
-4.5666261 3.2369428 0.78308958 0
-4.9384351 3.5004907 0.52554381 31
-4.9602432 3.5159488 0.31278509 20
-4.9607148 3.516283 0.20521826 24
-4.2854896 3.5326843 0.1544541 30
-10.234362 6.1908288 0.26224586 23
-4.9563766 3.5132079 0.097346246 18
-4.2745814 3.5236926 0.056079958 30
-10.199082 6.169488 0.050346319 26
-4.957006 3.513654 -0.010074385 24
-4.2746792 3.523773 -0.041770224 27
-10.187985 6.1627755 -0.16002722 12
-4.9854503 3.5338161 -0.11818801 29
-4.261097 3.5125768 -0.13939694 26
-5.7573485 3.4826558 -0.20946078 7
-4.9862213 3.5343626 -0.22656636 32
-4.2893629 3.5358777 -0.2388175 32
-10.224644 6.1849508 -0.58339584 26
-4.9430776 3.5037811 -0.33185148 4
-4.2792864 3.527571 -0.33628199 31
-10.214232 6.1786528 -0.79435933 28
-4.9407921 3.502161 -0.43888912 31
-4.2648168 3.5156431 -0.43304795 30
-10.190463 6.1642747 -1.0032356 24
-4.9727383 3.5248055 -0.5495652 33
-4.2613649 3.5127976 -0.53040284 33
-6.7178545 4.0636721 -0.80041403 11
-4.9673629 3.5209951 -0.65671247 37
-4.9507585 3.5092258 -0.76208991 32
-4.9553547 3.5124834 -0.87029493 31
-4.9840775 3.5328429 -0.9845469 31
-4.9598961 3.5157025 -1.0873095 30
-4.9630919 3.5179677 -1.196503 30
-4.9553537 3.5124829 -1.3022566 28
-4.9939165 3.5398171 -1.4209651 26
-4.9707136 3.5233703 -1.5219281 28
-4.5053334 3.1934967 -1.8997759 6
-3.2801807 2.3250768 -1.8741733 9
-1.7236247 1.2399192 0.56047714 6
-3.5069454 2.5227816 0.8348099 4
-4.5599957 3.2803116 0.7858606 0
-4.8621182 3.4976485 0.52000809 36
-4.8999057 3.5248315 0.31052449 21
-4.8971028 3.5228152 0.20359918 24
-4.2177777 3.5266094 0.15289733 28
-5.7206645 3.51525 0.14721189 22
-4.8862753 3.5150266 0.096449047 17
-4.2314663 3.5380547 0.055837013 32
-5.7151723 3.5118752 0.028332474 25
-4.8836489 3.5131369 -0.0099749006 23
-4.2223568 3.5304382 -0.041498791 29
-5.7010765 3.5032134 -0.089931317 25
-4.9022217 3.5264976 -0.11679574 31
-4.1965909 3.5088944 -0.13808474 32
-5.6817989 3.4913678 -0.20759393 26
-4.9030175 3.52707 -0.22389914 31
-4.2277832 3.5349755 -0.23675725 32
-5.7288485 3.5202789 -0.32826987 25
-4.8795891 3.5102165 -0.32922643 5
-4.2116728 3.5215049 -0.33289251 32
-5.7128134 3.5104256 -0.44617975 28
-4.8741198 3.5062821 -0.43513051 32
-4.1942797 3.5069621 -0.4283613 31
-5.691658 3.497426 -0.56272519 29
-4.9027333 3.5268657 -0.54453647 34
-4.2092457 3.5194755 -0.52696115 37
-5.6993146 3.502131 -0.68195438 21
-4.8974633 3.5230746 -0.65070724 38
-4.8874774 3.5158911 -0.75610882 32
-4.8792834 3.5099967 -0.86121756 29
-4.9047947 3.5283487 -0.9737277 30
-4.890481 3.5180519 -1.0774505 31
-4.8874335 3.5158596 -1.184152 31
-4.8767371 3.5081651 -1.2880013 27
-4.9089856 3.5313632 -1.4037796 27
-4.8924394 3.5194607 -1.5054486 30
-4.4859991 3.2270808 -1.9010772 6
-3.2756412 2.3563888 -1.8809332 8
-1.7274213 1.2610435 0.56456071 8
-3.4860754 2.5448875 0.83405101 4
-4.5497823 3.3214095 0.78807741 1
-4.7893023 3.4962628 0.51481843 29
-4.8138757 3.5142016 0.30661982 20
-4.8239565 3.5215609 0.20157534 23
-4.1686587 3.5352798 0.15200774 30
-5.6484895 3.5254586 0.14598441 23
-4.8228536 3.5207558 0.095680013 18
-4.1609049 3.5287042 0.055229649 32
-5.6396165 3.5199206 0.028079053 27
-4.8170037 3.5164855 -0.0098886816 22
-4.1579494 3.5261977 -0.041106723 28
-5.6154065 3.5048103 -0.08896374 19
-4.8354907 3.5299811 -0.11579022 32
-4.1475945 3.517416 -0.13727722 33
-5.6030197 3.4970791 -0.20560262 22
-4.8363037 3.5305746 -0.22197281 32
-4.1664276 3.5333874 -0.234697 36
-5.6329575 3.5157647 -0.32417381 26
-4.8098021 3.5112281 -0.32616386 4
-4.1595793 3.52758 -0.3307136 29
-5.6136789 3.503732 -0.44033691 27
-4.8044109 3.5072925 -0.43108279 33
-4.1392808 3.5103655 -0.42523685 32
-5.6130013 3.503309 -0.55735308 25
-4.826509 3.5234244 -0.53878939 34
-4.1450953 3.5152967 -0.52198982 37
-5.6038346 3.4975877 -0.67343503 29
-4.8213549 3.5196617 -0.64384419 40
-4.8211408 3.5195053 -0.74962932 33
-4.8098874 3.5112903 -0.85327482 29
-4.8321991 3.5275781 -0.96418136 34
-4.8244581 3.5219271 -1.0682957 31
-4.8278995 3.5244393 -1.1756607 30
-4.8047428 3.5075347 -1.2754232 29
-4.8433008 3.5356827 -1.3920212 28
-4.8207335 3.5192082 -1.4909078 32
-4.4572506 3.2538602 -1.8984747 7
-3.2415411 2.366374 -1.8707933 9
-1.7092521 1.2661661 0.56149805 8
-3.4303539 2.54111 0.82494396 4
-4.5423989 3.364882 0.79084843 1
-4.7199469 3.4964044 0.50997466 30
-4.7571249 3.5239449 0.30456471 21
-4.7607055 3.526597 0.19995625 23
-4.1105313 3.535615 0.15078455 27
-5.5561886 3.5219836 0.14423084 25
-4.7370944 3.5091066 0.094462387 17
-4.1119094 3.5368006 0.05490572 37
-5.5405822 3.5120907 0.02770737 27
-4.7473383 3.5166953 -0.0097958306 20
-4.0968413 3.52384 -0.040744819 29
-5.5198627 3.4989569 -0.087834895 20
-4.7625256 3.5279453 -0.11462999 32
-4.0926213 3.5202103 -0.13626783 29
-5.4974275 3.4847357 -0.20261566 24
-4.7633581 3.5285623 -0.21975011 34
-4.1143904 3.5389347 -0.23315181 33
-5.537415 3.5100832 -0.32007775 26
-4.7530775 3.5209467 -0.32397631 4
-4.1015544 3.527894 -0.32805043 24
-5.5385184 3.5107827 -0.43635318 25
-4.7349277 3.5075016 -0.42703506 30
-4.0844402 3.5131733 -0.42211241 31
-5.531178 3.5061297 -0.55164528 24
-4.7633786 3.5285773 -0.53447908 34
-4.0842295 3.5129919 -0.51740092 35
-5.5221448 3.5004036 -0.66653842 29
-4.7487307 3.5177267 -0.63741004 41
-4.7454262 3.5152786 -0.74165457 32
-4.7438951 3.5141444 -0.8458994 30
-4.7725482 3.5353701 -0.95718074 31
-4.7522931 3.5203655 -1.0577325 31
-4.7495627 3.518343 -1.1625378 31
-4.7455678 3.5153837 -1.2661992 28
-4.7746658 3.5369387 -1.3793583 26
-4.7523899 3.5204372 -1.4773365 32
-4.4313865 3.2826469 -1.8971734 7
-3.2249417 2.3889465 -1.8707933 10
-1.7065549 1.2827148 0.56353986 9
-3.3874159 2.5461173 0.81887263 4
-4.5409651 3.4131708 0.79472786 3
-4.657198 3.5005362 0.5058229 22
-4.6972833 3.5306656 0.30230412 23
-4.6912313 3.5261168 0.19806734 23
-4.0556169 3.537941 0.14967258 30
-5.4776635 3.5260539 0.14282799 24
-4.6773148 3.5156567 0.093757443 18
-4.0509486 3.5338686 0.05441983 31
-5.4688411 3.5203748 0.027470842 28
-4.6779084 3.516103 -0.0097029787 26
-4.0419984 3.5260608 -0.040443227 28
-5.4482174 3.5070992 -0.087082326 21
-4.6962214 3.5298679 -0.11362447 32
-4.0287728 3.5145237 -0.13495561 31
-5.435986 3.4992256 -0.20124663 24
-4.6906805 3.525703 -0.21752742 32
-4.0534458 3.5360472 -0.23109156 37
-5.4556651 3.5118933 -0.31676191 27
-4.6836848 3.5204449 -0.32091373 4
-4.0316939 3.5170717 -0.3244189 29
-5.4333305 3.4975159 -0.42997918 21
-4.6752462 3.514102 -0.42385471 30
-4.0297632 3.5153875 -0.41898796 33
-5.4395351 3.5015101 -0.54493016 26
-4.6972308 3.5306265 -0.52980959 33
-4.0325999 3.5178623 -0.51395923 35
-5.4373441 3.5000999 -0.65923607 31
-4.6922679 3.526896 -0.6331206 41
-4.6827002 3.5197043 -0.73567349 33
-4.6781006 3.5162473 -0.83852404 30
-4.6972442 3.5306365 -0.94699794 32
-4.6803889 3.5179675 -1.0471692 32
-4.6903749 3.5254731 -1.1540464 34
-4.6740155 3.5131767 -1.2536211 29
-4.7031388 3.5350671 -1.3657907 29
-4.6873703 3.5232151 -1.4647346 30
-4.4083629 3.3135016 -1.8971734 7
-3.2081864 2.411401 -1.8707933 9
-1.7221605 1.3133599 0.57170707 10
-3.3289611 2.5387435 0.80900669 4
-4.4949765 3.427974 0.79084843 4
-4.5977907 3.5063825 0.50201714 24
-4.6216969 3.5246141 0.29901597 22
-4.6347122 3.5345397 0.1967181 24
-3.9978774 3.5370245 0.14844941 31
-5.3926606 3.524826 0.14124978 26
-4.6144943 3.5191209 0.092988417 17
-4.0022135 3.5408609 0.054095902 30
-5.3805156 3.5168877 0.027149843 28
-4.6150804 3.519568 -0.0096233916 25
-3.9873264 3.5276897 -0.040141638 28
-5.3633385 3.5056601 -0.086114749 20
-4.6269436 3.528615 -0.11254159 30
-3.9741905 3.516068 -0.13394623 30
-5.3478394 3.4955292 -0.19888195 25
-4.6341677 3.5341244 -0.21604563 34
-3.9987302 3.5377789 -0.22937468 32
-5.3574419 3.501806 -0.31247079 28
-4.6081796 3.5143054 -0.31741366 5
-3.9741485 3.516031 -0.32175577 34
-5.362009 3.504791 -0.42626101 27
-4.6030145 3.5103664 -0.41951787 32
-3.9752567 3.5170114 -0.41586351 35
-5.3649116 3.5066881 -0.53989381 23
-4.6312871 3.5319276 -0.52514005 33
-3.9632111 3.5063543 -0.50822306 39
-5.3594813 3.5031388 -0.65274519 29
-4.6169348 3.5209823 -0.62625748 42
-4.6075206 3.5138028 -0.72769868 33
-4.6062112 3.5128043 -0.83001399 30
-4.6348 3.5346067 -0.93936086 33
-4.6212745 3.524292 -1.0394229 31
-4.6281981 3.529572 -1.1447833 30
-4.6058354 3.5125177 -1.2418815 27
-4.6473622 3.5441871 -1.3567458 25
-4.6225443 3.52526 -1.4521326 30
-4.3761001 3.337316 -1.8932698 7
-3.185508 2.4293427 -1.8674134 10
-1.709891 1.3229842 0.57068616 11
-3.2863071 2.542696 0.80293536 6
-4.4364715 3.432606 0.78475219 4
-4.5353785 3.5091329 0.49786538 24
-4.5622249 3.5299044 0.29675537 21
-4.5593343 3.527668 0.19455932 24
-3.9403515 3.5354736 0.14722621 28
-5.3079443 3.5225849 0.13967156 24
-4.5486922 3.5194337 0.0921553 16
-3.9386954 3.5339875 0.053569518 32
-5.3058395 3.5211883 0.026896421 28
-4.5492697 3.5198808 -0.0095371725 25
-3.932831 3.5287259 -0.039840046 29
-5.2854128 3.5076318 -0.085254677 19
-4.5642405 3.5314639 -0.11161342 30
-3.9257379 3.5223615 -0.13313872 30
-5.2700057 3.4974072 -0.19689065 24
-4.5619607 3.5297 -0.21382293 34
-3.9352677 3.5309122 -0.22714274 34
-5.2829304 3.5059848 -0.30954504 27
-4.539309 3.5121739 -0.31435108 4
-3.9287043 3.525023 -0.32006103 38
-5.2709007 3.4980011 -0.42094934 23
-4.5436873 3.5155613 -0.41633749 32
-3.929831 3.5260341 -0.41367641 34
-5.2771988 3.5021808 -0.5335145 24
-4.5592542 3.527606 -0.5197522 34
-3.9149284 3.5126629 -0.50516379 35
-5.2752123 3.5008624 -0.64544284 30
-4.5513511 3.5214913 -0.62068123 39
-4.5326543 3.5070248 -0.71972388 33
-4.5377326 3.5109541 -0.82207125 31
-4.5662847 3.5330455 -0.93045092 32
-4.5591874 3.5275545 -1.0309722 31
-4.550674 3.5209672 -1.1316602 32
-4.5440822 3.5158668 -1.2318189 27
-4.5793629 3.5431645 -1.3440828 26
-4.5517812 3.5218239 -1.4375919 30
-4.3467116 3.3631563 -1.8906673 7
-3.1770725 2.4581783 -1.8724834 9
-1.7036551 1.3372772 0.57170707 11
-3.2561183 2.555877 0.7998997 3
-4.452908 3.4952924 0.79195684 15
-4.4637494 3.5038021 0.49267566 23
-4.4966202 3.5296037 0.29408374 22
-4.4937148 3.5273235 0.19280532 23
-3.8830419 3.5332952 0.14600304 27
-5.2268419 3.5215688 0.13818103 26
-4.4736743 3.5115924 0.091129929 17
-3.8843439 3.5344799 0.053164609 33
-5.2214165 3.5179136 0.026592316 29
-4.4773884 3.514508 -0.0094376886 25
-3.8785155 3.5291765 -0.039538458 29
-5.2077236 3.508688 -0.084394604 21
-4.4985785 3.5311408 -0.11060788 33
-3.8714755 3.5227706 -0.13212933 24
-5.1990409 3.5028381 -0.19514824 23
-4.4994755 3.5318451 -0.21204478 33
-3.8780072 3.5287139 -0.22525418 42
-5.2152519 3.5137601 -0.30700937 25
-4.4926863 3.5265157 -0.31281978 4
-3.8803742 3.5308676 -0.3181242 34
-5.1900816 3.4968016 -0.41643444 25
-4.4719596 3.5102465 -0.41200066 36
-3.8726742 3.5238614 -0.41023952 34
-5.2096477 3.509984 -0.52914965 24
-4.4969106 3.5298319 -0.51544189 35
-3.8638051 3.5157909 -0.5017221 35
-5.2077403 3.5086992 -0.64016896 30
-4.4922442 3.5261691 -0.61596286 38
-4.4768405 3.5140779 -0.71473968 32
-4.4695058 3.5083206 -0.81412858 30
-4.5042315 3.5355785 -0.92281383 33
-4.4848924 3.5203984 -1.0197048 33
-4.488934 3.5235708 -1.1223971 33
-4.4794307 3.5161109 -1.2209179 27
-4.5085406 3.5389607 -1.3305154 27
-4.4935036 3.5271575 -1.4269288 30
-4.3201509 3.3910849 -1.8893661 7
-3.1626852 2.482537 -1.8741733 8
-1.6907821 1.3473195 0.57068616 11
-3.2987242 2.6286268 0.81507802 1
-4.3899899 3.4982145 0.78530639 25
-4.4036636 3.5091107 0.48886991 23
-4.42064 3.5226383 0.29079559 22
-4.4333463 3.5327637 0.19132116 23
-3.824724 3.5318255 0.14477986 29
-5.1513863 3.5259078 0.13686585 25
-4.4259176 3.526844 0.090681329 19
-3.8289449 3.5357234 0.0527597 32
-5.1492772 3.5244641 0.02635579 29
-4.4139667 3.5173209 -0.0093581015 25
-3.8260937 3.5330904 -0.039267026 30
-5.1257544 3.508364 -0.083480775 19
-4.435041 3.5341144 -0.10967971 31
-3.8073575 3.515789 -0.13081712 35
-5.1204362 3.5047235 -0.19315694 25
-4.442204 3.5398221 -0.21056299 34
-3.8256123 3.5326459 -0.22370899 40
-5.1497912 3.524816 -0.30466878 26
-4.4104905 3.5145507 -0.30888221 5
-3.8250544 3.5321307 -0.31570315 34
-5.1116118 3.4986839 -0.4121851 29
-4.4117875 3.5155842 -0.4088203 33
-3.8115823 3.5196903 -0.40649018 33
-5.1212831 3.5053034 -0.52277035 26
-4.4210653 3.5229774 -0.50969476 35
-3.8174527 3.5251112 -0.49904522 36
-5.1162038 3.5018268 -0.63205528 33
-4.4196219 3.5218275 -0.60952872 38
-4.4075069 3.5121732 -0.7077617 35
-4.4096055 3.5138457 -0.80788785 32
-4.4380441 3.5365074 -0.91454035 32
-4.4220138 3.5237331 -1.0112542 33
-4.4322901 3.5319221 -1.1146777 32
-4.416831 3.5196035 -1.2108554 29
-4.4459109 3.5427759 -1.3196614 27
-4.4311075 3.5309799 -1.4152961 32
-4.2922187 3.4203045 -1.888065 6
-3.147238 2.5079134 -1.8758633 9
-1.6843425 1.3615217 0.57170707 12
-3.2833471 2.6540613 0.81583697 1
-4.3254104 3.496403 0.77810174 39
-4.3418684 3.5097067 0.48471814 24
-4.367979 3.530813 0.28894603 22
-4.3650489 3.5284443 0.18943225 23
-3.7737067 3.5338433 0.14377908 29
-5.0839505 3.5321226 0.13572603 26
-4.3576427 3.5224576 0.08978413 18
-3.7778916 3.5377622 0.05239528 48
-5.0687017 3.5215285 0.026068579 31
-4.3613067 3.5254192 -0.0092984112 24
-3.7750585 3.5351093 -0.038995594 45
-5.0452967 3.5052676 -0.082566947 19
-4.3729382 3.5348215 -0.10875153 32
-3.7622883 3.5231507 -0.13011055 31
-5.0498762 3.5084493 -0.19141455 24
-4.3738623 3.5355685 -0.20848848 36
-3.7775207 3.5374148 -0.22233549 43
-5.0692801 3.5219302 -0.30135292 26
-4.3485737 3.5151267 -0.30625713 30
-3.7653301 3.5259991 -0.3127979 37
-5.0444517 3.5046804 -0.40873253 27
-4.3468022 3.5136948 -0.40506169 40
-3.7607207 3.5216827 -0.40367818 35
-5.0508595 3.5091324 -0.51806974 24
-4.3684783 3.5312166 -0.50646204 37
-3.7549675 3.5162952 -0.4940739 39
-5.0524154 3.5102131 -0.62718707 33
-4.3578134 3.5225959 -0.60438138 40
-4.3458414 3.512918 -0.70178068 35
-4.3510942 3.5171642 -0.80164713 33
-4.3763928 3.5376141 -0.90690327 33
-4.3666835 3.5297658 -1.004212 33
-4.3586879 3.5233023 -1.1023266 33
-4.3617353 3.5257657 -1.2024699 30
-4.369556 3.5320876 -1.3042849 31
-4.3610783 3.5252345 -1.4007554 36
-4.2682357 3.4501865 -1.888065 7
-3.126833 2.5275447 -1.8741733 8
-1.6812586 1.3775651 0.57374889 12
-3.274786 2.6832461 0.81811374 0
-4.2845888 3.510644 0.48091236 25
-4.3166571 3.5369191 0.28709644 22
-4.3075361 3.5294461 0.18794809 23
-3.7327838 3.5422797 0.1431119 29
-5.0048394 3.5266039 0.13423552 27
-4.3001552 3.5233982 0.089079186 18
-3.7195289 3.5297012 0.051909391 39
-4.9994578 3.5228121 0.025832053 29
-4.3007011 3.5238454 -0.009218825 25
-3.7138112 3.5242751 -0.038603529 29
-4.9728951 3.5040951 -0.08176063 20
-4.3091831 3.5307953 -0.10774601 32
-3.7156346 3.5260055 -0.12930302 36
-4.9742045 3.5050178 -0.18942323 26
-4.3163066 3.5366321 -0.2068585 34
-3.7336845 3.5431345 -0.22113366 35
-4.9902892 3.5163515 -0.29803705 4
-4.2973599 3.5211079 -0.30428833 32
-3.7215886 3.5316558 -0.31110319 31
-4.978683 3.5081732 -0.40527993 25
-4.2863717 3.5121045 -0.40159222 28
-3.7141399 3.5245872 -0.40117863 31
-4.9786005 3.5081153 -0.51303345 25
-4.3110657 3.5323379 -0.50251091 36
-3.7026818 3.5137138 -0.49024981 34
-4.9802289 3.5092626 -0.62110186 31
-4.3005171 3.5236945 -0.59966302 40
-4.2948179 3.5190251 -0.69729483 36
-4.2878561 3.5133209 -0.79427177 33
-4.3131242 3.5340245 -0.89862978 34
-4.3005376 3.5237114 -0.994353 34
-4.3048658 3.5272579 -1.0946072 32
-4.2898512 3.5149555 -1.1890533 28
-4.3158956 3.5362954 -1.29524 29
-4.3045821 3.5270257 -1.3900923 34
-4.2423339 3.4760215 -1.8867637 7
-3.0959797 2.5367386 -1.8657235 9
-1.6953955 1.4090451 0.58191615 12
-3.2650347 2.7135739 0.82039046 0
-4.2256203 3.5119178 0.76868027 29
-4.2231989 3.5099053 0.4767606 24
-4.2427039 3.5261159 0.28380829 21
-4.2520461 3.5338802 0.18659885 25
-3.6791523 3.5405278 0.14199992 31
-4.9410648 3.5335417 0.13318338 26
-4.2323899 3.517544 0.088181987 18
-3.6717401 3.5333948 0.051585462 36
-4.9324474 3.527379 0.025612421 29
-4.2421565 3.525661 -0.0091458699 26
-3.6660597 3.5279284 -0.038362257 33
-4.9092727 3.5108058 -0.081115574 20
-4.2475204 3.5301189 -0.10681783 32
-3.670759 3.5324507 -0.12859645 32
-4.8975825 3.5024459 -0.18743193 26
-4.2546206 3.53602 -0.20508035 33
-3.6800625 3.5414035 -0.2194168 48
-4.9103746 3.5115941 -0.29472122 3
-4.2388854 3.5229423 -0.30188203 34
-3.6738272 3.5354033 -0.30916637 37
-4.8988819 3.5033753 -0.40076503 25
-4.2218609 3.5087934 -0.39783362 30
-3.6664562 3.5283101 -0.39867908 36
-4.9053578 3.5080063 -0.5079971 26
-4.2495341 3.5317929 -0.4982006 34
-3.6551092 3.5173905 -0.48719051 38
-4.9005837 3.5045922 -0.61420518 30
-4.2360511 3.520587 -0.59408671 42
-4.2304659 3.5159452 -0.69081533 38
-4.2297273 3.515331 -0.78803104 32
-4.2549391 3.5362847 -0.8916291 33
-4.2304091 3.515898 -0.98378974 34
-4.2529702 3.5346482 -1.0876598 34
-4.2321205 3.5173204 -1.1798294 31
-4.264133 3.5439258 -1.2870995 28
-4.2500086 3.532187 -1.3803984 33
-4.2121453 3.5007186 -1.8841614 7
-3.0949237 2.5721946 -1.8758633 9
-1.6884741 1.4233395 0.58293706 12
-3.2339995 2.726177 0.8173548 0
-4.1464806 3.4953747 0.7587046 40
-4.1742172 3.5187559 0.47399274 26
-4.1813321 3.5247536 0.28134218 22
-4.1967053 3.5377128 0.18524963 23
-3.6228666 3.5354083 0.14077674 32
-4.8677278 3.5327175 0.1318682 26
-4.1832662 3.5263839 0.087669298 19
-3.6326697 3.5449746 0.051383007 36
-4.8494306 3.5194383 0.025308317 30
-4.1807389 3.5242534 -0.0090662828 26
-3.62989 3.5422621 -0.038241621 42
-4.839325 3.5121043 -0.080363013 22
-4.192194 3.5339098 -0.10604434 33
-3.6145277 3.5272708 -0.12748612 51
-4.8212399 3.4989793 -0.18544061 28
-4.1809311 3.5244157 -0.20270948 34
-3.6237879 3.5363071 -0.21752822 41
-4.8372383 3.5105898 -0.29179546 5
-4.1836491 3.5267069 -0.29969448 33
-3.6204805 3.5330796 -0.30674532 38
-4.8420029 3.5140479 -0.3981092 29
-4.1606579 3.5073259 -0.39436415 32
-3.6131942 3.5259693 -0.39555463 45
-4.8420372 3.5140729 -0.50396806 26
-4.1882224 3.5305617 -0.49389029 37
-3.6105165 3.5233562 -0.48451364 56
-4.8373504 3.5106714 -0.60933697 31
-4.1840034 3.5270054 -0.59022623 42
-4.1663685 3.5121396 -0.68433583 36
-4.1778355 3.5218058 -0.78292501 32
-4.1939149 3.5353606 -0.88399202 33
-4.1846867 3.5275812 -0.97886026 34
-4.1891789 3.5313683 -1.0776247 32
-4.1775584 3.5215724 -1.1714439 27
-4.2035384 3.5434728 -1.2762456 28
-4.1837049 3.5267539 -1.3668271 32
-4.184711 3.527602 -1.8828601 12
-3.063031 2.5820551 -1.8674134 9
-1.6902553 1.445145 0.58702064 12
-3.22683 2.7588954 0.82039046 0
-4.0978913 3.5036407 0.75427097 47
-4.1101766 3.5141444 0.469495 23
-4.1292982 3.5304933 0.27949259 23
-4.1324062 3.5331504 0.18349563 24
-3.5980966 3.5606146 0.14077674 43
-4.7914257 3.5286717 0.13046534 27
-4.119029 3.521713 0.086836182 18
-3.6078324 3.5702491 0.051383007 43
-4.7893133 3.5271163 0.025122475 31
-4.1165118 3.5195611 -0.0089800637 26
-3.6050718 3.5675173 -0.038241621 42
-4.7696004 3.5125985 -0.079610452 21
-4.1309462 3.5319023 -0.10511617 35
-3.5898147 3.5524189 -0.12748612 40
-4.7548447 3.5017314 -0.18382268 28
-4.1319208 3.5327353 -0.20152403 39
-3.5876489 3.5502758 -0.21684147 55
-4.7611399 3.5063677 -0.28867465 4
-4.125535 3.5272758 -0.29728818 32
-3.5900507 3.5526526 -0.30626112 51
-4.7691469 3.5122645 -0.39412546 27
-4.1087818 3.5129521 -0.39176202 34
-3.5856557 3.5483034 -0.39524218 53
-4.7692447 3.5123365 -0.49893174 26
-4.1331944 3.5338244 -0.49029836 36
-3.5943213 3.5568786 -0.48566088 50
-4.7550478 3.5018811 -0.60203469 35
-4.1290526 3.5302832 -0.58593678 41
-4.1146002 3.5179267 -0.67984998 36
-4.1140246 3.5174346 -0.77554965 32
-4.1421189 3.5414548 -0.87826425 33
-4.1210532 3.5234437 -0.96970546 33
-4.1226616 3.5248189 -1.0668175 33
-4.1231461 3.5252333 -1.1630585 28
-4.1401997 3.5398138 -1.2644871 28
-4.1235881 3.5256112 -1.3551946 32
-4.1254849 3.5272326 -1.8672454 17
-3.0449317 2.6033747 -1.8674134 9
-1.7005787 1.4746462 0.59416699 13
-3.1926548 2.7684908 0.81659591 0
-4.0374165 3.5010207 0.74762052 41
-4.0584464 3.5192564 0.46638119 24
-4.0683336 3.5278301 0.27702647 21
-4.0744157 3.5331042 0.18201147 25
-3.5787961 3.5913119 0.14099914 33
-4.7250295 3.5309162 0.12932552 27
-4.0550604 3.5163205 0.086003073 17
-3.5884662 3.6010158 0.051463991 35
-4.7197146 3.5269444 0.024885949 33
-4.0616198 3.5220082 -0.0089137414 27
-3.5970185 3.6095982 -0.038422573 36
-4.7129226 3.5218689 -0.079072908 21
-4.0789943 3.5370748 -0.10442004 36
-3.5987976 3.6113834 -0.1286974 37
-4.6950531 3.5085154 -0.18245366 25
-4.079977 3.5379267 -0.20019042 38
-3.5712388 3.5837281 -0.21735655 43
-4.7077413 3.517997 -0.28691918 4
-4.0555468 3.5167422 -0.29400685 27
-3.5707977 3.5832856 -0.30674532 40
-4.6997504 3.5120258 -0.39040729 23
-4.0570292 3.5180278 -0.38915992 32
-3.5805006 3.5930223 -0.39742929 40
-4.6999078 3.5121431 -0.49423116 26
-4.0783243 3.5364935 -0.48670644 36
-3.5806444 3.5931666 -0.48719051 41
-4.6954198 3.5087895 -0.59757215 32
-4.0742598 3.532969 -0.58164734 40
-4.0569568 3.5179646 -0.67436737 36
-4.0564613 3.5175354 -0.76930892 35
-4.0814915 3.5392399 -0.87062716 36
-4.066606 3.5263321 -0.96266329 33
-4.0712657 3.5303729 -1.0598701 34
-4.0600209 3.5206218 -1.1521574 31
-4.0859485 3.5431049 -1.2554421 29
-4.0666227 3.5263464 -1.3445313 34
-4.069325 3.5286896 -1.8529321 15
-3.0294213 2.6269438 -1.8691034 9
-1.6931463 1.4890367 0.5951879 13
-3.1378598 2.7595892 0.80748886 2
-3.986104 3.5055768 0.74263269 34
-3.9948769 3.5132923 0.46188346 26
-4.0226073 3.5376797 0.27558792 21
-4.0076232 3.5245018 0.18012254 25
-3.5816641 3.6447268 0.14211111 31
-4.6460915 3.5227425 0.12783499 29
-4.0123935 3.5286973 0.085618556 18
-3.582865 3.6459486 0.051747426 35
-4.6503539 3.5259745 0.024649421 31
-4.0129032 3.5291452 -0.0088606831 27
-3.5941613 3.6574438 -0.038663846 37
-4.6308532 3.5111885 -0.078105323 22
-4.0211678 3.5364134 -0.1035692 33
-3.5931187 3.656383 -0.12940396 36
-4.6226573 3.5049741 -0.1805868 28
-4.0341668 3.5478456 -0.19915317 37
-3.5825477 3.6456258 -0.21958849 41
-4.6353126 3.5145698 -0.28399342 4
-4.0009046 3.5185933 -0.2918193 34
-3.5764797 3.639451 -0.30940846 38
-4.6337733 3.5134025 -0.38695469 23
-3.9994161 3.5172842 -0.38597956 34
-3.5776916 3.6406841 -0.39992887 40
-4.6339841 3.5135624 -0.48986635 27
-4.0146456 3.5306778 -0.48203692 38
-3.5750091 3.6379545 -0.48986739 41
-4.6391001 3.5174413 -0.59351534 31
-4.0076866 3.5245578 -0.57564217 42
-3.9995151 3.5173712 -0.66888469 38
-3.9961262 3.5143909 -0.76250088 35
-4.0240641 3.5389607 -0.86362648 33
-4.0182343 3.5338337 -0.95702952 33
-4.0082064 3.5250146 -1.0498348 34
-4.0089111 3.5256345 -1.1446105 32
-4.0318546 3.5458124 -1.2463971 29
-4.0098495 3.5264597 -1.3338681 35
-4.0048265 3.5220423 -1.8347151 19
-3.0028405 2.6408465 -1.8640335 9
-1.6827097 1.5008208 0.5951879 13
-3.1361034 2.7971129 0.81204236 2
-3.9408388 3.5148621 0.73875326 29
-3.9375384 3.5119185 0.45807767 27
-3.9650183 3.536428 0.27332732 24
-3.9620354 3.5337675 0.17917807 23
-3.5867403 3.7012277 0.14333428 32
-4.5960274 3.5355861 0.12713356 29
-3.9518437 3.5246773 0.084849529 17
-3.5935102 3.7082136 0.05227381 31
-4.5907502 3.5315263 0.024463579 30
-3.9583156 3.5304499 -0.0087943608 25
-3.5935919 3.7082982 -0.038935278 33
-4.5681858 3.5141683 -0.077460267 22
-3.9665346 3.5377803 -0.10279572 33
-3.5869842 3.7014794 -0.13011055 35
-4.5537105 3.5030329 -0.17884441 28
-3.9705195 3.5413344 -0.19722684 32
-3.5736961 3.687767 -0.22061861 39
-4.5694966 3.5151768 -0.28145778 5
-3.9404743 3.5145371 -0.28919423 38
-3.5704343 3.6844013 -0.31110319 41
-4.5806608 3.5237651 -0.38456446 20
-3.9479673 3.52122 -0.38337746 34
-3.5688386 3.6827545 -0.40180352 39
-4.5651121 3.5118039 -0.48516577 27
-3.9601679 3.5321019 -0.47844499 38
-3.5744627 3.6885581 -0.49330908 38
-4.5639653 3.5109215 -0.58702439 33
-3.9533033 3.5259793 -0.57135272 44
-3.9482045 3.5214317 -0.66439885 38
-3.9389889 3.5132122 -0.75626022 34
-3.9727349 3.5433106 -0.85789865 34
-3.9611418 3.5329707 -0.94928318 37
-3.9542091 3.526787 -1.0421156 35
-3.9579303 3.5301061 -1.1370636 34
-3.9691999 3.5401576 -1.2346387 31
-3.9474819 3.520787 -1.3212662 35
-3.9547353 3.5272565 -1.8230041 17
-2.9789195 2.6569195 -1.8606535 8
-1.672191 1.5125318 0.5951879 13
-2.1058218 1.9047598 0.54869777 1
-3.8897636 3.5183723 0.73376542 27
-3.8804157 3.509917 0.45427188 23
-3.9135695 3.5399053 0.27147773 20
-3.901691 3.529161 0.177559 23
-3.5829129 3.7493038 0.14422387 30
-4.5270963 3.5331404 0.12590607 25
-3.8945131 3.5226686 0.084144585 19
-3.5868778 3.7534528 0.052557245 33
-4.5218372 3.5290358 0.024227053 31
-3.8861079 3.5150659 -0.008688245 25
-3.5924864 3.7593219 -0.039206706 31
-4.5057039 3.5164449 -0.07681521 21
-3.9002166 3.5278275 -0.10171285 34
-3.5914445 3.7582314 -0.13122088 35
-4.5007772 3.5125999 -0.1777243 29
-3.9041972 3.5314279 -0.19515233 35
-3.5699513 3.7357402 -0.22199211 39
-4.5164986 3.5248692 -0.27970234 4
-3.895108 3.5232067 -0.28766295 40
-3.5749683 3.7409902 -0.31376633 36
-4.4961677 3.5090022 -0.37951836 22
-3.8996186 3.5272865 -0.38106447 34
-3.5650818 3.7306445 -0.40430307 37
-4.4996352 3.5117085 -0.48080099 28
-3.911777 3.5382841 -0.47557145 37
-3.5788839 3.7450876 -0.49751559 36
-4.5016985 3.5133185 -0.58215618 33
-3.9049959 3.5321505 -0.56792116 45
-3.8940902 3.5222859 -0.65941465 35
-3.8879378 3.516721 -0.75115418 31
-3.9098279 3.5365212 -0.84962517 35
-3.9013386 3.5288424 -0.94083256 36
-3.9032943 3.5306113 -1.0351681 36
-3.8954813 3.5235443 -1.1261626 33
-3.9154918 3.5416441 -1.2255937 31
-3.9026599 3.5300374 -1.3144805 34
-3.904768 3.531944 -1.8112931 18
-2.9656758 2.6825156 -1.8640335 9
-1.6843915 1.5450839 0.60335517 13
-2.0982609 1.9247243 0.5502156 4
-3.8300748 3.5133085 0.72711504 34
-3.832324 3.5153718 0.45150405 25
-3.8446043 3.5266364 0.2683951 23
-3.8563354 3.5373974 0.17661454 24
-3.5840726 3.8033252 0.14533585 30
-4.4615607 3.5323889 0.12476625 28
-3.8344574 3.5173287 0.083375551 17
-3.5880179 3.8075118 0.052962154 31
-4.4563208 3.5282402 0.024007421 32
-3.8496828 3.5312948 -0.0086617162 29
-3.5880997 3.8075984 -0.039447978 31
-4.4371438 3.5130568 -0.076062649 22
-3.8548627 3.5360463 -0.10117141 33
-3.5980287 3.818135 -0.13243215 30
-4.4291267 3.5067096 -0.17585745 27
-3.8558829 3.5369821 -0.1939669 42
-3.5684507 3.7867475 -0.2235373 37
-4.4353981 3.5116749 -0.27619141 4
-3.8498135 3.5314147 -0.28613168 40
-3.5679321 3.7861972 -0.31546107 35
-4.4465275 3.5204866 -0.37739372 22
-3.8454986 3.5274565 -0.37817323 31
-3.5690339 3.7873664 -0.40773997 34
-4.4406343 3.5158205 -0.47710767 25
-3.8488142 3.530498 -0.47090194 36
-3.574497 3.7931638 -0.50057489 36
-4.4396219 3.5150189 -0.57728797 33
-3.8421426 3.5243783 -0.56234491 42
-3.8372333 3.519875 -0.65393198 37
-3.8282766 3.5116591 -0.74434614 33
-3.861762 3.5423751 -0.8445338 35
-3.8504925 3.5320375 -0.93449461 37
-3.858305 3.5392039 -1.0297645 36
-3.8448477 3.5268595 -1.1186157 33
-3.8705716 3.5504563 -1.2192622 33
-3.8464622 3.5283408 -1.3038173 38
-3.8437796 3.5258799 -1.7943773 18
-2.9415326 2.6982532 -1.8606535 9
-1.6792272 1.5620738 0.60539699 12
-2.1049016 1.9580505 0.55552804 5
-3.764847 3.5021877 0.71935618 40
-3.7814288 3.5176127 0.44839022 24
-3.8023405 3.5370655 0.26716202 22
-3.8022752 3.5370047 0.1752653 23
-3.5792079 3.8516865 0.14622544 27
-4.3962584 3.5308959 0.12362643 28
-3.7951667 3.5303922 0.083055124 22
-3.5912993 3.8646984 0.053407554 28
-4.3941574 3.5292082 0.023804685 30
-3.7927198 3.528116 -0.0085887611 34
-3.5913811 3.8647864 -0.03977973 32
-4.3782077 3.5163982 -0.075471349 21
-3.7978723 3.5329089 -0.10032058 31
-3.5930614 3.8665948 -0.13323966 31
-4.3640146 3.5049989 -0.17423952 29
-3.8106091 3.5447571 -0.19292964 39
-3.5718513 3.84377 -0.22542587 37
-4.3702793 3.5100305 -0.27365577 5
-3.7987466 3.5337222 -0.28416288 38
-3.5740271 3.8461113 -0.31836629 33
-4.3907242 3.5264506 -0.37473789 21
-3.7769623 3.5134578 -0.3738364 35
-3.5777955 3.8501668 -0.41180176 34
-4.3724742 3.5117931 -0.4724071 27
-3.8036547 3.5382879 -0.4683876 38
-3.5750327 3.8471935 -0.504399 37
-4.3715382 3.5110416 -0.57160842 34
-3.7912376 3.5267372 -0.55848444 43
-3.7806013 3.5168428 -0.6484493 38
-3.7862728 3.5221186 -0.74094212 32
-3.8166976 3.5504208 -0.84007883 35
-3.7997935 3.5346961 -0.92815667 36
-3.7990184 3.5339751 -1.0205013 37
-3.7943592 3.5296412 -1.1110688 31
-3.8143089 3.5481987 -1.2093128 31
-3.7904804 3.5260327 -1.2931541 35
-3.7886066 3.5242898 -1.780064 19
-2.9173145 2.7137845 -1.8572737 9
-1.6936004 1.597644 0.6145851 4
-2.0797532 1.9619179 0.55249238 6
-3.720134 3.5093577 0.71547675 31
-3.7335889 3.5220501 0.44562238 25
-3.7426846 3.5306306 0.26469591 23
-3.7484095 3.536031 0.17391607 26
-3.5927505 3.9208 0.14789341 26
-4.3404999 3.5362406 0.12274965 29
-3.7384253 3.5266125 0.08235018 22
-3.5966578 3.9250636 0.053893447 28
-4.3353014 3.5320058 0.023618843 29
-3.7447193 3.5325499 -0.0085357027 36
-3.6048467 3.9340003 -0.040232114 27
-4.322546 3.5216134 -0.074933805 23
-3.744024 3.5318942 -0.099547096 37
-3.5956964 3.9240146 -0.13434999 30
-4.3115439 3.5126503 -0.1731194 27
-3.7508767 3.5383584 -0.19115148 40
-3.5719285 3.8980763 -0.22714274 34
-4.3208909 3.5202651 -0.27209535 28
-3.7449307 3.5327494 -0.28197533 33
-3.5740633 3.9004061 -0.32078734 32
-4.3195853 3.5192015 -0.37075412 33
-3.7407331 3.5287898 -0.37267989 35
-3.5750761 3.9015114 -0.41461375 35
-4.3169508 3.517055 -0.46904954 28
-3.7469828 3.5346851 -0.46443647 37
-3.5749869 3.9014142 -0.50822306 34
-4.3129854 3.5138245 -0.56714588 33
-3.7462738 3.5340164 -0.55548179 42
-3.727087 3.5159168 -0.64346504 36
-3.7327888 3.5212953 -0.73526871 35
-3.7602193 3.5471718 -0.83307815 35
-3.7492461 3.5368202 -0.92181873 34
-3.7485592 3.5361724 -1.0135539 36
-3.74402 3.5318902 -1.1035219 31
-3.7611017 3.5480042 -1.2002678 32
-3.7488337 3.5364313 -1.2873379 37
-3.7418985 3.5298891 -1.7696543 21
-2.9167581 2.7514994 -1.8691034 9
-1.7019683 1.628143 0.62173146 4
-2.0858712 1.9953935 0.55780482 7
-3.6611927 3.502383 0.7088263 45
-3.6714747 3.5122192 0.44112465 26
-3.6977386 3.5373437 0.26325735 20
-3.6947439 3.5344789 0.17256683 26
-3.5894165 3.9724874 0.14889419 25
-4.2756314 3.5333397 0.12160983 29
-3.6848133 3.5249791 0.081709325 18
-3.598665 3.9827228 0.054338846 30
-4.2673707 3.5265133 0.023382317 32
-3.6881714 3.5281916 -0.0084627485 29
-3.6094735 3.9946849 -0.040594023 30
-4.2577744 3.5185828 -0.074235 24
-3.7019365 3.5413594 -0.099083006 37
-3.605746 3.9905596 -0.13576314 23
-4.2499332 3.5121031 -0.17162591 28
-3.7000871 3.5395904 -0.18981786 44
-3.5767782 3.9585001 -0.22920299 34
-4.2623324 3.5223496 -0.26994979 27
-3.682657 3.5229163 -0.2791315 44
-3.5735137 3.9548874 -0.32320836 33
-4.2610688 3.5213053 -0.36783272 28
-3.6958265 3.5355146 -0.37065601 43
-3.5771599 3.9589226 -0.41805065 31
-4.2554216 3.5166385 -0.46502051 25
-3.7020636 3.541481 -0.46192211 36
-3.5877039 3.970592 -0.51395923 32
-4.2576742 3.5185001 -0.56308907 36
-3.6927726 3.5325933 -0.5511924 43
-3.6852434 3.5253904 -0.6404745 37
-3.6823637 3.5226357 -0.73016268 33
-3.7096813 3.5487683 -0.82735038 35
-3.6960101 3.5356903 -0.91477656 34
-3.6982558 3.5378385 -1.0066065 37
-3.6910095 3.5309067 -1.0951365 35
-3.6996381 3.539161 -1.1885093 32
-3.6988153 3.5383737 -1.2786134 37
-3.6870987 3.5271654 -1.7553409 25
-2.8791394 2.7542524 -1.8572737 9
-1.6794573 1.6292129 0.61764783 13
-2.0859854 2.0235786 0.56159937 8
-3.628124 3.5195811 0.70716369 86
-3.644007 3.5349889 0.44077864 35
-3.6385479 3.5296931 0.26079124 22
-3.6470253 3.5379169 0.17148745 26
-6.870502 7.7112856 0.28722456 32
-4.2110176 3.5297072 0.12047001 30
-3.6371505 3.5283375 0.081196636 19
-6.8621635 7.7019262 0.10442615 35
-4.2089267 3.5279546 0.023196474 32
-3.6376126 3.5287857 -0.0084030582 32
-6.8676414 7.7080746 -0.077840395 36
-4.1963229 3.51739 -0.073589943 22
-3.6512897 3.5420539 -0.098386876 39
-6.8390484 7.6759825 -0.25951451 36
-4.1885424 3.5108681 -0.17013244 28
-3.6580732 3.5486343 -0.18892878 42
-3.5862744 4.0251474 -0.23160662 3
-4.2070193 3.5263555 -0.26799929 28
-3.640774 3.5318527 -0.27781898 40
-6.8605576 7.7001238 -0.62535375 35
-4.1905007 3.5125096 -0.36384895 29
-3.6452839 3.5362277 -0.36805391 37
-6.8442006 7.6817651 -0.80610663 38
-4.1880012 3.5104144 -0.46031994 26
-3.645797 3.5367253 -0.45797101 43
-5.6894779 6.3857322 -0.82141697 15
-4.1964107 3.5174632 -0.55822086 33
-3.6394775 3.5305951 -0.54690295 44
-3.637754 3.5289228 -0.63648713 36
-3.6377888 3.5289569 -0.72619134 35
-3.6564729 3.5470819 -0.82098609 37
-3.642976 3.5339887 -0.90773445 36
-3.6481149 3.538974 -0.99965894 37
-3.6381986 3.5293541 -1.0867511 34
-3.6468747 3.5377707 -1.1794643 31
-3.6461697 3.537087 -1.2689196 38
-3.6352377 3.5264819 -1.7423288 24
-2.8650467 2.7793329 -1.8606535 9
-1.6707996 1.6436102 0.61866874 13
-2.0746071 2.0408466 0.56235832 9
-3.6175847 3.5587149 0.70993471 33
-3.6220803 3.5631373 0.44112465 28
-3.6052742 3.5466046 0.26017472 30
-3.6222372 3.5632918 0.17148745 34
-6.7716408 7.7079935 0.2853342 31
-4.1558056 3.5331168 0.11959323 29
-3.6152811 3.5564487 0.081260726 26
-6.7633519 7.6985583 0.1037378 37
-4.1567669 3.5339344 0.023044422 30
-3.6157398 3.5569003 -0.0084096901 36
-6.7635059 7.6987343 -0.077267371 35
-4.1381454 3.5181031 -0.072998643 22
-3.6065159 3.5478263 -0.097845435 47
-6.7536273 7.687489 -0.25830323 35
-4.1365151 3.5167172 -0.16901232 29
-3.6218116 3.5628731 -0.18833607 58
-6.7785664 7.7158771 -0.44123721 40
-4.1518593 3.529762 -0.26604879 28
-3.6074865 3.5487809 -0.2771627 51
-6.7671089 7.7028351 -0.62172216 36
-4.1324277 3.5132422 -0.36092755 27
-3.597755 3.5392079 -0.36574093 52
-6.7561927 7.6904097 -0.80204481 40
-4.1330242 3.5137491 -0.45696238 30
-3.5954573 3.5369477 -0.45473826 51
-5.6868081 6.473155 -0.82753557 14
-4.1353698 3.5157433 -0.55335265 36
-3.5948951 3.5363946 -0.54390031 61
-3.5960529 3.5375335 -0.63349658 52
-3.5961273 3.5376067 -0.72278732 48
-3.6062837 3.5475979 -0.81525832 37
-3.6041806 3.5455289 -0.90421337 46
-3.5981383 3.5395851 -0.99271154 46
-3.5967412 3.5382106 -1.0817199 45
-3.6054218 3.5467498 -1.1740373 32
-3.5937223 3.5352409 -1.2592258 39
-3.5916545 3.5332067 -1.7332202 26
-2.8404045 2.7941821 -1.8572737 10
-1.6592842 1.6552346 0.61866874 12
-2.0714304 2.0663748 0.56539398 9
-3.6122839 3.6034677 0.71381414 34
-3.6168654 3.6080379 0.4435465 30
-3.5889108 3.5801516 0.26079124 23
-3.6029327 3.5941393 0.1717573 26
-6.6810122 7.712769 0.28377742 30
-4.109838 3.5437636 0.11897948 29
-3.5988588 3.5900753 0.081452981 22
-6.6727777 7.7032628 0.10317092 38
-4.0956426 3.5315235 0.022841685 36
-3.6078112 3.5990059 -0.0084494837 29
-6.6729298 7.7034388 -0.076845147 35
-4.080164 3.5181768 -0.072407342 23
-3.5816593 3.5729179 -0.097845435 47
-6.652667 7.6800466 -0.25648633 32
-4.0815845 3.5194018 -0.16776776 28
-3.5940201 3.5852485 -0.1881879 44
-6.687902 7.7207227 -0.43883359 42
-4.0938325 3.5299628 -0.26390323 31
-3.5939341 3.5851626 -0.27803773 42
-6.6687279 7.6985874 -0.6176064 36
-4.0745506 3.5133367 -0.35800615 28
-3.5899057 3.5811441 -0.36747566 42
-6.6736188 7.7042336 -0.79860795 39
-4.0812249 3.5190916 -0.4539406 31
-3.570677 3.5619624 -0.45473826 59
-5.6805825 6.5578418 -0.83327168 16
-4.083601 3.5211406 -0.54970151 35
-3.5729342 3.564214 -0.54432929 62
-3.5712686 3.5625525 -0.63349658 40
-3.5797524 3.5710156 -0.72448933 38
-3.5758371 3.5671098 -0.81398547 52
-3.5709774 3.5622621 -0.90210068 49
-3.578897 3.5701623 -0.99425542 51
-3.5691831 3.5604722 -1.0808814 43
-3.5612631 3.5525715 -1.1677059 46
-3.5579638 3.5492802 -1.2553483 54
-3.5615449 3.5528526 -1.7306178 33
-2.8208282 2.8139436 -1.8572737 9
-1.6667207 1.6860313 0.62581509 12
