# .PCD v0.7 - Point Cloud Data file format
VERSION 0.7
FIELDS x y z intensity
SIZE 4 4 4 4
TYPE F F F F
COUNT 1 1 1 1
WIDTH 1341
HEIGHT 1
VIEWPOINT 0 0 0 1 0 0 0
POINTS 1341
DATA ascii
-2.8923304 -8.8230133 -1.9906999 3
-2.6471875 -8.0752087 -1.9727085 4
-2.4358921 -7.430655 -1.9533025 5
-1.7237821 -5.2583728 -1.9036795 4
-1.1914687 -3.6345584 -1.7829151 23
-0.89571989 -2.6692801 0.7432192 2
-1.2056856 -3.5929899 0.73235595 0
-1.5891825 -4.7358255 0.69885063 0
-2.2895741 -6.8230205 0.62484008 24
-2.480696 -7.3925705 0.40115407 21
-5.4077139 -16.115198 0.57369363 16
-6.1324754 -14.645792 0.44156748 2
-4.4424839 -17.314882 0.39192209 1
-6.3669176 -18.973661 0.32068506 5
-10.438437 -24.92944 0.2735973 51
-6.9913244 -27.249159 0.11882069 76
-9.1532879 -27.277153 -0.047705758 60
-10.420136 -24.885735 -0.2034225 53
-6.9937377 -27.258564 -0.37821683 47
-9.1325045 -27.215218 -0.55520517 69
-10.383138 -24.797371 -0.67861378 38
-5.1130753 -19.928556 -0.64045465 9
-4.3414316 -12.937634 -0.50588459 19
-5.3697963 -12.824335 -0.59730124 14
-3.4423864 -13.416933 -0.67623985 0
-5.8969131 -14.083214 -0.92580438 0
-3.2881141 -12.815647 -0.88040829 38
-4.2391291 -12.63277 -0.96567172 48
-4.3618236 -10.41706 -0.88484257 4
-3.2669163 -12.733027 -1.1073196 29
-4.2102628 -12.546746 -1.193239 68
-4.2259731 -10.092617 -1.050863 1
-3.2536695 -12.681396 -1.3346995 41
-4.2725496 -12.732365 -1.4485421 3
-4.2183843 -12.570949 -1.6652337 1
-4.7262597 -14.084437 -2.1286483 3
-4.1282635 -12.302386 -2.0912871 5
-3.6627562 -10.915156 -2.0591276 4
-3.2838383 -9.7859659 -2.0301955 3
-2.9600773 -8.8211451 -1.9948927 3
-2.7034986 -8.056531 -1.9727085 3
-2.4852395 -7.4061103 -1.9513638 5
-1.7616537 -5.2497964 -1.9049808 4
-1.1972063 -3.5677211 -1.7541857 4
-0.90554082 -2.6373563 0.73607284 2
-1.2294638 -3.580771 0.73159707 0
-1.6016219 -4.6646686 0.68998337 3
-2.3358564 -6.8031011 0.62449408 27
-2.5387299 -7.3939629 0.40218163 19
-5.4720492 -15.937154 0.56870151 25
-6.1340909 -14.367273 0.43445081 8
-4.5132341 -17.093983 0.38762584 0
-8.0785646 -23.528542 0.39861333 14
-10.530554 -24.664673 0.27149177 78
-5.2249637 -19.789677 0.086450368 27
-9.3694677 -27.288252 -0.047838405 56
-10.502524 -24.599022 -0.20167327 31
-5.1867609 -19.644981 -0.27307299 15
-9.3391571 -27.19997 -0.5562107 71
-5.2081304 -12.198488 -0.33481511 12
-5.1408315 -19.471024 -0.62688887 33
-4.4368367 -12.922133 -0.50647736 19
-5.4764576 -12.826963 -0.59918982 32
-3.4604986 -13.106721 -0.66180611 0
-4.3709826 -12.730335 -0.73720467 0
-5.2159157 -12.216722 -0.80547887 0
-3.3591647 -12.722918 -0.87562776 33
-4.344059 -12.651921 -0.96943033 81
-4.4140863 -10.338676 -0.88078082 2
-3.3353801 -12.632833 -1.1006044 40
-4.3029246 -12.532119 -1.1946757 63
-4.2791319 -10.022586 -1.0466566 6
-3.3339963 -12.627591 -1.331454 46
-4.3135467 -12.563055 -1.4326712 2
-4.321506 -12.586237 -1.6712148 1
-4.8257546 -14.054844 -2.1292157 3
-4.2178941 -12.284472 -2.0931964 4
-3.7490959 -10.919112 -2.0647614 5
-3.3597219 -9.7850742 -2.034827 4
-3.0253968 -8.8113632 -1.9974083 3
-2.7685335 -8.0632572 -1.9790399 3
-2.549484 -7.4252844 -1.9610575 6
-1.7994882 -5.2409472 -1.9062819 4
-1.2173743 -3.5455604 -1.7474258 8
-0.92008656 -2.620023 0.73301017 4
-1.2544323 -3.5721004 0.73159707 0
-1.6170847 -4.6047835 0.68277872 1
-2.3859346 -6.7941475 0.62518603 15
-2.5942583 -7.3873663 0.40279815 15
-5.5884757 -15.91365 0.56924117 21
-5.2912064 -12.157339 0.36873275 20
-5.153235 -18.980141 0.43120199 12
-6.8419113 -19.482912 0.33087471 2
-5.2738266 -12.117405 0.13378207 22
-5.2801962 -19.44776 0.085115686 58
-9.579627 -27.278786 -0.047937889 45
-5.2404261 -12.040664 -0.099012017 22
-5.2808151 -19.450037 -0.27086905 49
-9.5526724 -27.202028 -0.557603 69
-5.2149696 -11.982173 -0.32986909 20
-5.2776871 -19.438517 -0.62701333 54
-4.5388618 -12.924787 -0.50781095 19
-5.266047 -12.099531 -0.56691259 29
-3.5163238 -12.951151 -0.65517443 0
-4.9507198 -14.097587 -0.81836283 0
-5.230967 -12.018929 -0.79482627 23
-3.4458141 -12.691453 -0.87509662 59
-4.4415331 -12.647635 -0.9714542 69
-4.4559174 -10.238137 -0.87484437 1
-3.4224482 -12.605392 -1.1002687 61
-4.4021902 -12.535603 -1.1979084 54
-4.3299284 -9.9486589 -1.0420676 41
-3.4241579 -12.61169 -1.3322655 48
-4.4116898 -12.562654 -1.4361027 43
-4.4171596 -12.578229 -1.6742054 1
-4.940814 -14.069378 -2.136591 3
-4.3022447 -12.250999 -2.0925601 4
-3.8304527 -10.907533 -2.0675781 4
-3.4266524 -9.7576771 -2.0340552 5
-3.093317 -8.8084774 -2.001601 3
-2.8273399 -8.0510855 -1.9808489 3
-2.5948308 -7.3889966 -1.9562107 5
-1.8385396 -5.2353945 -1.9088844 4
-1.2420973 -3.5369751 -1.7474258 7
-0.93312776 -2.5989757 0.72892654 4
-1.2873025 -3.5854337 0.73615056 0
-2.7803359 -7.7438755 1.1510807 35
-2.4292691 -6.7660737 0.62414813 10
-2.6552179 -7.3953934 0.4042367 20
-5.6670165 -15.783945 0.56600302 17
-5.2948909 -11.937351 0.36317283 22
-5.2952843 -18.978371 0.4319911 14
-6.8804541 -19.163649 0.32626054 5
-5.2690964 -11.879197 0.13155508 23
-5.4201345 -19.425837 0.085183263 64
-9.6981974 -27.011715 -0.047586378 42
-5.2481337 -11.831936 -0.097594544 24
-5.4239926 -19.439665 -0.27124533 49
-9.7531567 -27.164789 -0.55822176 50
-5.2174277 -11.762709 -0.32482213 22
-3.8928628 -13.952074 -0.45090696 1
-4.6397896 -12.922882 -0.50899637 18
-5.2628903 -11.865205 -0.55764145 23
-3.5883977 -12.860868 -0.65185857 0
-4.5847416 -12.769561 -0.74311107 0
-5.2338042 -11.79963 -0.7827211 26
-3.5386207 -12.682466 -0.87615895 52
-4.5405068 -12.646358 -0.97376716 75
-4.5078816 -10.163035 -0.87109506 1
-3.5146489 -12.59655 -1.1016117 45
-4.5057526 -12.549559 -1.2022188 50
-4.3669896 -9.8453941 -1.0344194 9
-3.5110481 -12.583645 -1.3318598 49
-4.5086932 -12.557749 -1.4391054 51
-4.5169344 -12.580703 -1.6786911 1
-5.0482821 -14.060629 -2.1405623 3
-4.39434 -12.239249 -2.095742 4
-3.9051781 -10.876821 -2.066874 3
-3.4986689 -9.7445993 -2.036371 5
-3.1547365 -8.7866678 -2.001601 4
-2.884795 -8.0348186 -1.9817533 2
-2.6502867 -7.3816586 -1.9591188 5
-1.868654 -5.2046318 -1.9023783 6
-1.2777857 -3.5589273 -1.7626355 5
-0.95924294 -2.6141827 0.73505193 3
-1.28795 -3.5099938 0.72249001 0
-2.8425183 -7.7465901 1.154406 40
-2.4723275 -6.7377257 0.62311018 10
-2.710911 -7.3879266 0.40485325 21
-5.7812023 -15.755257 0.5664078 23
-5.2990589 -11.725201 0.35783532 23
-5.4408689 -18.987074 0.43304321 14
-7.0416284 -19.190241 0.32754225 3
-5.2761273 -11.674459 0.12969249 42
-5.5743518 -19.45289 0.085470475 53
-9.8079977 -26.729303 -0.047208339 28
-5.271306 -11.663791 -0.096508816 51
-5.5727963 -19.447464 -0.27189037 45
-9.857151 -26.86326 -0.55342615 41
-5.2697768 -11.660408 -0.32300523 48
-4.0099959 -13.993737 -0.45314717 5
-4.7450418 -12.931454 -0.51062638 18
-5.2682433 -11.657015 -0.54957211 49
-3.6791966 -12.839342 -0.65205359 0
-4.739819 -12.91722 -0.75361133 0
-5.2617912 -11.642738 -0.7747317 49
-3.6292737 -12.665126 -0.87669009 53
-4.6369305 -12.636823 -0.97550189 77
-4.5524468 -10.073175 -0.8660959 0
-3.6068957 -12.587032 -1.1029547 45
-4.6069784 -12.555197 -1.2058107 53
-4.4388967 -9.8219233 -1.0351843 9
-3.5944281 -12.543525 -1.330237 4
-4.607213 -12.555835 -1.442537 56
-4.6210608 -12.593574 -1.6846722 1
-5.158597 -14.058498 -2.1456685 3
-4.4823999 -12.215688 -2.0970149 4
-3.9837301 -10.856685 -2.0682824 3
-3.5706701 -9.7309904 -2.0386868 3
-3.2173495 -8.7681007 -2.0024395 3
-2.9367917 -8.0035095 -1.9790399 2
-2.7071033 -7.3775496 -1.9629964 6
-1.9088526 -5.2021117 -1.9062819 5
-1.3850276 -3.7745552 -1.8741733 13
-0.97611183 -2.6038013 0.73403102 10
-1.2986363 -3.4641426 0.71490085 2
-2.9076531 -7.7562323 1.1588396 38
-2.5137084 -6.7053761 0.62172627 9
-2.7722363 -7.3950052 0.40629181 21
-5.9163098 -15.781896 0.56883639 26
-5.3590498 -11.640703 0.35638976 42
-5.5834465 -18.983154 0.43383232 15
-7.1571746 -19.09193 0.32670912 8
-5.3625193 -11.648239 0.12981397 47
-5.7167945 -19.436525 0.085571848 53
-9.8960714 -26.398001 -0.046744082 40
-5.3659873 -11.655773 -0.096750088 46
-5.7197156 -19.446455 -0.27242792 39
-9.9517918 -26.546637 -0.54832119 45
-5.3694477 -11.663289 -0.32411554 44
-4.1166177 -13.996086 -0.45414284 2
-4.8422174 -12.916728 -0.51136726 17
-5.3561811 -11.634472 -0.55025887 57
-3.7574687 -12.775015 -0.65010309 0
-4.8214674 -12.861378 -0.75229877 0
-5.3563018 -11.634734 -0.77666849 52
-3.7243614 -12.662454 -0.87828362 57
-4.7376399 -12.637766 -0.978104 51
-4.5976453 -9.9868116 -0.86140925 0
-3.7025547 -12.588313 -1.1053051 41
-4.7057023 -12.552571 -1.2086842 52
-4.4940376 -9.7617598 -1.032125 27
-3.7773552 -12.842627 -1.3647201 2
-4.7101097 -12.564328 -1.4472554 51
-4.7172232 -12.583303 -1.6876628 2
-5.2635641 -14.040681 -2.1485052 3
-4.5772724 -12.209982 -2.10147 4
-4.0760102 -10.872853 -2.0767331 2
-3.6454043 -9.7242012 -2.0425465 3
-3.2853465 -8.7637386 -2.0066323 3
-2.9966962 -7.9937577 -1.9817533 2
-2.7544537 -7.3475699 -1.9600883 5
-1.9491055 -5.1992846 -1.9101856 5
-1.4113444 -3.7647941 -1.8741733 9
-1.0039459 -2.622206 0.74117738 31
-1.3199805 -3.4476564 0.71338302 3
-2.9744787 -7.7690401 1.1638274 31
-2.5533354 -6.6690559 0.61999637 8
-2.829509 -7.3903933 0.40711385 23
-6.030632 -15.751406 0.56924117 24
-5.4622531 -11.65007 0.35783532 47
-5.730855 -18.993483 0.43497214 15
-7.307447 -19.086319 0.32747814 5
-5.4589906 -11.643112 0.13017839 44
-5.8673687 -19.445925 0.085791476 53
-9.998601 -26.115343 -0.046366047 34
-5.4693036 -11.665108 -0.09714216 48
-5.870357 -19.45583 -0.27312672 18
-10.049653 -26.248684 -0.54360294 43
-5.4677172 -11.661724 -0.32512495 43
-4.2269325 -14.009109 -0.45551187 6
-4.9508548 -12.931136 -0.51329356 14
-5.4508467 -11.625742 -0.55163234 56
-3.8557966 -12.779072 -0.65166348 40
-4.8897185 -12.771454 -0.74901748 0
-5.4509563 -11.625977 -0.77860534 54
-3.8242004 -12.674356 -0.88093942 53
-4.8371644 -12.634188 -0.98041701 47
-4.645247 -9.9075327 -0.85734749 1
-3.7938015 -12.573606 -1.1063123 42
-4.8088903 -12.560339 -1.2126354 50
-3.8807156 -12.86166 -1.3695884 6
-4.8105083 -12.564565 -1.4511158 53
-4.1408343 -10.815443 -1.4544005 5
-4.1255054 -10.775407 -1.6532199 6
-4.3658848 -11.403253 -1.967821 3
-4.1546335 -10.851486 -2.0781415 3
-3.7146065 -9.702179 -2.0433183 2
-3.3548393 -8.7625036 -2.0116634 4
-3.0607893 -7.9944744 -1.9871804 2
-2.816783 -7.3571544 -1.9678433 5
-1.9867085 -5.1890831 -1.9114869 5
-1.445371 -3.7751641 -1.8843131 11
-1.023636 -2.6187353 0.74219829 61
-1.3411579 -3.4310417 0.71186519 5
-3.0344131 -7.7628431 1.1660442 26
-2.6041844 -6.6622028 0.62103426 8
-2.886852 -7.3853421 0.40793589 23
-6.1535497 -15.742432 0.57045549 26
-5.5555086 -11.636912 0.35861373 46
-5.3681068 -17.352264 0.39823493 1
-7.4492536 -19.05719 0.32786268 7
-5.5642643 -11.655252 0.13074526 51
-8.4346771 -27.264872 0.12054395 80
-10.08602 -25.802748 -0.045934949 45
-5.5678377 -11.662739 -0.097443745 52
-8.4280806 -27.243549 -0.38326976 56
-10.146756 -25.958124 -0.53903943 48
-5.5679455 -11.662964 -0.32623526 44
-4.3317213 -14.002175 -0.45625859 6
-5.0541081 -12.929765 -0.51462722 11
-5.5490913 -11.62347 -0.55334926 60
-3.952002 -12.774742 -0.65283382 40
-4.9903936 -12.766767 -0.75076747 0
-5.5354261 -11.594847 -0.77908957 44
-3.9220276 -12.677851 -0.88306409 39
-4.9426794 -12.6447 -0.98388648 31
-4.7005548 -9.8460732 -0.85484791 5
-3.8897357 -12.573468 -1.1086626 47
-4.9109645 -12.563565 -1.2162273 56
-4.6247478 -9.6872835 -1.0309777 26
-3.9739406 -12.845658 -1.3708054 3
-4.2610502 -10.900909 -1.2623807 4
-4.1382141 -10.586662 -1.4274856 16
-4.1199059 -10.539824 -1.6214491 13
-4.4353237 -11.346748 -1.963366 2
-4.2374578 -10.840554 -2.0816624 2
-3.7879655 -9.6906328 -2.046406 3
-3.4159315 -8.7388697 -2.0116634 4
-3.1136897 -7.9656539 -1.9853714 4
-2.8694899 -7.3409252 -1.9688126 5
-2.0256407 -5.1821327 -1.9140893 5
-1.4677318 -3.7548518 -1.8792433 11
-1.0467092 -2.6262596 0.74628192 71
-1.3682461 -3.4330163 0.71414196 6
-3.0946317 -7.7646265 1.1693695 27
-2.6438866 -6.6336789 0.61999637 7
-2.9431651 -7.3845878 0.40896344 21
-6.2667031 -15.723556 0.57126504 26
-5.6552706 -11.64657 0.36005929 46
-5.4456463 -17.198095 0.3955169 3
-7.5932508 -19.051947 0.3286317 8
-5.6589136 -11.654073 0.13115017 50
-8.6261797 -27.242655 0.120696 125
-10.176959 -25.534636 -0.045576807 30
-5.6625376 -11.661535 -0.097745337 46
-8.6278934 -27.248064 -0.38412982 58
-10.228374 -25.663637 -0.53432119 46
-5.6608949 -11.658153 -0.32714373 45
-4.4377646 -14.015066 -0.45762762 5
-5.1575093 -12.940518 -0.51640534 9
-5.6435151 -11.62236 -0.55506611 84
-4.0438738 -12.771105 -0.6540041 41
-5.6383648 -11.611753 -0.7827211 15
-4.0132499 -12.674391 -0.88465762 42
-5.0412045 -12.648701 -0.98677772 15
-4.7674947 -9.8182678 -0.85516036 21
-3.9802568 -12.570194 -1.1106771 46
-4.709765 -9.699378 -1.0355667 32
-4.0698571 -12.853165 -1.3744565 5
-4.2360759 -10.628583 -1.2340704 15
-4.145153 -10.400452 -1.4060534 21
-4.1340117 -10.372498 -1.5998902 12
-4.8482189 -12.164489 -2.1103799 4
-4.2961416 -10.779292 -2.0753245 2
-3.8623247 -9.6908169 -2.0518098 3
-3.485399 -8.7450867 -2.0183718 4
-3.175107 -7.9665446 -1.9907984 4
-2.9209874 -7.3289423 -1.9707514 5
-2.0613658 -5.1720977 -1.9153905 6
-1.4912605 -3.741667 -1.8775532 10
-1.0562762 -2.5973926 0.74015647 28
-1.4010558 -3.4452088 0.71869546 8
-2.1772718 -5.353931 0.8085829 4
-2.6841276 -6.6002941 0.61861241 7
-3.0006652 -7.3786626 0.40978548 23
-6.3928833 -15.720158 0.5727492 30
-5.7541566 -11.64265 0.36117128 43
-5.5865531 -17.224325 0.39700744 3
-7.738122 -19.028112 0.32914439 8
-5.7596307 -11.653726 0.13159557 49
-8.8371382 -27.24645 0.12098321 101
-10.261547 -25.233236 -0.04516561 37
-5.7703962 -11.675508 -0.098197721 47
-8.8401213 -27.255646 -0.38509741 56
-10.315385 -25.365623 -0.52960294 45
-5.7598639 -11.654197 -0.32815313 44
-4.5416675 -14.002758 -0.45824993 4
-5.2522402 -12.915306 -0.51684988 3
-5.7475357 -11.629252 -0.55729806 56
-4.1390972 -12.761563 -0.65497935 38
-5.3487892 -13.152721 -0.77767438 0
-5.2204247 -10.562725 -0.71444786 3
-4.1102557 -12.67264 -0.88651669 45
-5.1519265 -12.668634 -0.99111456 7
-4.8465242 -9.8061953 -0.85703504 31
-4.0765243 -12.568641 -1.1130275 44
-4.2921438 -10.55442 -1.0272918 0
-4.7914782 -9.6948175 -1.038626 36
-4.1459851 -12.782801 -1.369994 3
-4.2442536 -10.436658 -1.2151968 32
-4.163835 -10.238908 -1.3881102 18
-4.1392002 -10.17833 -1.5743601 16
-4.9434357 -12.155952 -2.1148348 3
-4.3520055 -10.70162 -2.0661697 3
-3.9343188 -9.6745253 -2.0541255 3
-3.5537312 -8.738657 -2.0225646 3
-3.2350483 -7.9550128 -1.9935118 4
-2.9779277 -7.322751 -1.9746289 4
-2.103122 -5.1715961 -1.9205954 9
-1.5159793 -3.7278068 -1.8758633 11
-1.0832751 -2.6113894 0.74628192 4
-1.4265784 -3.4389713 0.71945435 13
-2.8308578 -6.8241878 1.0335896 1
-2.7194524 -6.5556288 0.61619055 5
-3.0658805 -7.3907433 0.41163504 21
-6.5086017 -15.689916 0.57328886 29
-5.8550601 -11.641488 0.36239445 43
-5.7016244 -17.169722 0.39665672 6
-7.8860989 -19.010569 0.32978523 5
-5.8624148 -11.656112 0.13208146 44
-9.0473089 -27.244829 0.12125353 77
-10.359291 -24.972553 -0.044827364 36
-5.8661432 -11.663525 -0.098438993 48
-9.0490942 -27.250204 -0.38590372 56
-10.40947 -25.093515 -0.52542615 40
-5.8662386 -11.663713 -0.32956627 40
-4.6506548 -14.00486 -0.45937002 3
-5.3514676 -12.900477 -0.517739 3
-5.8519258 -11.635257 -0.55953002 57
-5.8261361 -14.044735 -0.83280063 0
-5.254571 -10.447549 -0.70912158 14
-4.2099476 -12.677726 -0.88890696 24
-5.2708173 -12.706059 -0.99689704 1
-4.9256172 -9.7934971 -0.85890973 35
-4.1754766 -12.573919 -1.1160492 42
-4.2939782 -10.351248 -1.0104097 0
-4.8805122 -9.7038164 -1.0432149 32
-4.1573706 -12.519396 -1.3448416 0
-4.2423439 -10.226777 -1.1941787 43
-4.1865511 -10.09228 -1.3721606 18
-4.206542 -10.140471 -1.7692569 0
-4.4552765 -10.740081 -2.0795498 3
-4.0047712 -9.6540737 -2.0556693 3
-3.6221447 -8.731698 -2.0267572 4
-3.2934916 -7.9394321 -1.9953208 3
-3.0319514 -7.3089523 -1.9765677 5
-2.1377258 -5.1532941 -1.9192941 7
-1.5530806 -3.7439227 -1.889383 11
-1.0939456 -2.5859535 0.74117738 1
-1.4536126 -3.436162 0.72097218 19
-3.2874303 -7.7710829 1.1804534 22
-2.7651532 -6.5364838 0.61619055 5
-3.1267409 -7.391233 0.41286811 22
-6.6288829 -15.669868 0.57423335 26
-5.9489384 -11.625246 0.36317283 33
-4.7661967 -14.024684 0.3247605 3
-7.3828702 -17.452202 0.30363825 6
-5.9618654 -11.650508 0.13248637 7
-9.2630281 -27.25675 0.12159143 73
-10.441434 -24.68227 -0.04443606 39
-11.397408 -22.272491 -0.18864459 45
-9.2622747 -27.254534 -0.38687131 50
-10.495589 -24.810287 -0.52101731 42
-11.370421 -22.219755 -0.63006204 36
-4.7573152 -13.998549 -0.46024123 2
-10.4701 -24.750034 -0.9962104 38
-5.9548559 -11.636811 -0.56159025 5
-5.3364725 -10.428383 -0.7103321 10
-4.3111916 -12.685817 -0.89156276 4
-4.6708179 -11.041242 -0.86881542 6
-5.0065832 -9.7837219 -0.8610968 37
-4.2721314 -12.570881 -1.1183995 38
-4.3226795 -10.218285 -1.0003524 0
-4.9608331 -9.6943197 -1.0458918 32
-4.2677159 -12.557888 -1.352144 34
-4.2625055 -10.076041 -1.1800236 46
-4.2167034 -9.9677706 -1.3592016 21
-4.1760077 -9.8715715 -1.5357811 0
-4.2279987 -9.9944715 -1.7488914 8
-4.5470228 -10.748606 -2.0872962 4
-4.0736012 -9.6294937 -2.0564413 4
-3.6921582 -8.7278099 -2.0317886 4
-3.347321 -7.9126568 -1.9944164 3
-3.0919755 -7.3090515 -1.982384 5
-2.1736507 -5.1382442 -1.9192941 8
-1.5721177 -3.7162938 -1.8809332 11
-1.1242255 -2.6066639 0.74934465 1
-1.4744554 -3.4187176 0.71945435 26
-3.3337586 -7.7297554 1.1776824 19
-2.725498 -6.3194237 0.59750766 0
-3.1877575 -7.391233 0.41410115 22
-5.2641544 -12.205631 0.44861981 8
-8.1790228 -15.711758 0.49260738 19
-4.8062119 -13.824866 0.32090265 0
-5.249053 -12.170616 0.21238016 18
-8.3812313 -16.100195 0.1837479 1
-9.468852 -27.236755 0.12179416 76
-5.2243738 -12.113394 -0.021873154 20
-11.465815 -22.025625 -0.18722712 43
-9.4772749 -27.260983 -0.38789263 46
-5.2582479 -12.191936 -0.25679594 1
-11.43664 -21.969582 -0.62521696 41
-4.8641176 -13.99143 -0.46111241 1
-5.2508721 -12.174834 -0.4915112 22
-11.475873 -22.044947 -1.0677254 42
-4.434309 -12.755103 -0.65927047 0
-5.2165623 -12.095282 -0.72145432 18
-5.3261843 -10.231504 -0.69943744 3
-4.4048924 -12.670488 -0.89262509 0
-4.7414665 -10.993711 -0.86765891 5
-5.0876532 -9.7732916 -0.86328393 35
-4.3715687 -12.574634 -1.1214212 45
-4.3481574 -10.081772 -0.98993576 0
-5.0504537 -9.7018309 -1.0504806 31
-4.3683496 -12.565374 -1.3562008 45
-4.2917967 -9.9510918 -1.168871 64
-4.2563252 -9.8688469 -1.3497316 27
-4.23071 -9.809454 -1.5306752 0
-4.2429333 -9.8377953 -1.7266165 31
-4.6359859 -10.74914 -2.0936341 3
-4.1360655 -9.5900087 -2.0541255 4
-3.746804 -8.6874552 -2.0284343 4
-3.4086525 -7.9034071 -1.9980344 4
-3.1367793 -7.2730336 -1.9785064 5
-2.215461 -5.1368365 -1.924499 8
-1.6109459 -3.735189 -1.8961428 11
-1.1361697 -2.5845897 0.74526101 0
-1.5046076 -3.4227223 0.72249001 11
-3.419523 -7.7788239 1.1887665 18
-3.1720703 -7.2159119 0.68434864 20
-3.2489243 -7.3907413 0.41533422 25
-5.2736211 -11.996577 0.44227841 20
-8.3109646 -15.696678 0.49394175 24
-4.8275981 -13.579967 0.31599265 0
-5.2485852 -11.939624 0.20898362 16
-8.4241772 -15.9105 0.18224974 13
-9.6828871 -27.237827 0.12209827 113
-5.2315445 -11.90086 -0.021554805 19
-11.53695 -21.789503 -0.18590011 66
-9.6700411 -27.201693 -0.38800016 36
-5.26759 -11.982858 -0.25316057 18
-11.514893 -21.747845 -0.6211794 39
-4.9817653 -14.013638 -0.46297926 0
-5.2488728 -11.940279 -0.48350951 40
-11.550956 -21.815956 -1.0605145 42
-4.5232482 -12.723836 -0.65927047 0
-5.2172937 -11.868442 -0.71007901 24
-5.3769321 -10.155257 -0.6967743 3
-4.5026002 -12.665752 -0.89448416 0
-4.6447048 -10.565902 -0.83643359 0
-4.4659252 -12.562586 -1.1231 72
-4.3735433 -9.9490557 -0.97987831 1
-5.1348305 -9.6980057 -1.0539223 28
-4.4732938 -12.583314 -1.3614746 45
-4.3355546 -9.8626375 -1.1620079 79
-4.2947707 -9.7698612 -1.3402615 29
-4.2704053 -9.7144337 -1.5204631 0
-4.2940269 -9.7681684 -1.7196159 33
-4.390831 -9.9883814 -1.9513825 3
-4.2218666 -9.6040163 -2.0633888 4
-3.8073604 -8.661087 -2.0284343 4
-3.4684477 -7.8901196 -2.0007479 3
-3.196847 -7.2722745 -1.9843228 4
-2.2497456 -5.1177826 -1.9231977 5
-1.6355233 -3.7205331 -1.8944529 11
-1.1503382 -2.5656047 0.74219829 0
-1.5328705 -3.4187682 0.72400784 4
-2.2155294 -4.9413052 0.75759619 9
-3.1547742 -7.0361075 0.6694715 8
-3.309551 -7.3813071 0.41615626 23
-5.2878175 -11.793444 0.43620688 20
-8.4751215 -15.726852 0.49683291 26
-6.2339578 -17.136963 0.39981315 36
-5.2541509 -11.718357 0.20577933 17
-10.648686 -19.760227 0.22723518 8
-9.8111839 -26.97065 0.12121974 67
-5.2466354 -11.701595 -0.021262987 34
-11.624259 -21.570547 -0.18475407 56
-9.78304 -26.893282 -0.3846136 33
-5.2783856 -11.772408 -0.2495252 26
-11.60002 -21.525568 -0.61724281 41
-9.7409172 -26.777487 -0.88700354 29
-5.2577596 -11.726405 -0.47639692 28
-11.630939 -21.582943 -1.0533036 42
-5.2306204 -11.665876 -0.70023507 46
-5.4322886 -10.080421 -0.69435328 4
-4.6212473 -12.70367 -0.89953023 0
-4.6583753 -10.389595 -0.82515782 0
-5.259161 -9.7591581 -0.86859548 0
-4.5687938 -12.559477 -1.1257861 76
-4.434947 -9.8912821 -0.977364 11
-5.2095604 -9.6671162 -1.0546871 52
-4.5749364 -12.576363 -1.3643144 43
-4.3865824 -9.7834148 -1.1564317 53
-4.3484106 -9.6982803 -1.3347788 31
-4.3285408 -9.653965 -1.5159245 22
-4.344512 -9.6895847 -1.7113423 34
-4.7990079 -10.703249 -2.0978594 3
-4.2969713 -9.5835543 -2.0657046 4
-3.8835483 -8.6614952 -2.0351427 4
-3.5293801 -7.8715925 -2.0025568 4
-3.2532449 -7.2557268 -1.9862615 5
-2.2902954 -5.1080565 -1.9258002 6
-1.6508861 -3.6819787 -1.8809332 9
-1.1971458 -2.6208336 0.76057458 0
-1.5615959 -3.4187005 0.72628462 1
-2.2170539 -4.853652 0.74651212 9
-3.1541469 -6.905169 0.65909213 9
-3.37096 -7.3798237 0.4173893 23
-5.3251758 -11.658061 0.43256393 41
-8.5943127 -15.684836 0.4973889 30
-6.3534441 -17.093023 0.39981315 25
-5.3291855 -11.66684 0.20552298 30
-10.851723 -19.804667 0.22861187 5
-9.9225864 -26.695284 0.12029053 39
-5.3331861 -11.675597 -0.021282883 37
-11.697679 -21.348558 -0.18354771 55
-9.8799734 -26.580641 -0.38111958 37
-5.3072715 -11.618865 -0.24705006 89
-11.673149 -21.303791 -0.61320525 43
-9.8356857 -26.461491 -0.87878942 33
-5.3179069 -11.642148 -0.47447059 62
-11.710276 -21.371548 -1.0469512 52
-4.7577748 -12.800105 -0.66668236 0
-5.3235526 -11.654508 -0.70176637 54
-5.4910169 -10.021244 -0.69290066 4
-4.7348528 -12.738438 -0.90431076 0
-4.6943274 -10.276986 -0.81879711 0
-5.3674035 -9.7956467 -0.87515682 0
-4.6716404 -12.568373 -1.1294794 84
-4.479064 -9.8057241 -0.9719761 9
-5.3113599 -9.6933651 -1.0615705 49
-4.6751022 -12.577687 -1.3679656 53
-4.4432101 -9.727231 -1.153429 48
-4.4011703 -9.6351957 -1.3302931 38
-4.385962 -9.601902 -1.5125204 40
-4.3989258 -9.6302824 -1.706251 34
-4.8768859 -10.676649 -2.099268 4
-4.3230042 -9.4640722 -2.046406 4
-3.9374223 -8.6199427 -2.0317886 4
-3.5923429 -7.8644829 -2.0070794 3
-3.3054323 -7.2363682 -1.9872309 5
-2.327472 -5.0953832 -1.9271015 6
-1.6795635 -3.6769593 -1.8843131 10
-1.5821116 -3.4005933 0.72476679 1
-2.212451 -4.755446 0.73376542 16
-3.150167 -6.7709742 0.64836675 9
-3.4341946 -7.3814635 0.41882786 24
-5.4232979 -11.656846 0.43391317 40
-8.7230616 -15.659385 0.49850088 31
-6.496748 -17.111811 0.40130368 32
-5.4256897 -11.661986 0.20609975 28
-10.014544 -17.977818 0.20832591 17
-10.015002 -26.378553 0.11917548 38
-5.4297533 -11.670721 -0.021342574 37
-11.770521 -21.130096 -0.18237151 53
-9.9758568 -26.275448 -0.37773302 40
-5.4034405 -11.614164 -0.2477462 93
-11.743756 -21.082048 -0.60916764 47
-9.9407082 -26.182869 -0.87181985 34
-5.417603 -11.644605 -0.47610053 62
-11.779456 -21.146135 -1.039912 45
-4.8541083 -12.785254 -0.66765761 0
-5.4165802 -11.642406 -0.70329762 54
-5.5453005 -9.9547615 -0.6909638 7
-4.837832 -12.742385 -0.90696657 0
-4.7323022 -10.171618 -0.81301463 0
-6.0003781 -10.771703 -0.96607816 0
-4.7762446 -12.58017 -1.1335084 71
-4.5406899 -9.7597675 -0.97053933 26
-5.4040923 -9.7012682 -1.0665419 38
-4.7769194 -12.581946 -1.3720225 48
-4.5076556 -9.6887627 -1.1525712 49
-4.4750261 -9.6186295 -1.3322867 44
-4.4679213 -9.6033583 -1.5176264 38
-4.464385 -9.5957565 -1.7056146 39
-4.951304 -10.642342 -2.099268 5
-4.32937 -9.3055553 -2.0186164 4
-4.0107036 -8.6206131 -2.038497 3
-3.653734 -7.8533421 -2.0106974 4
-3.3607824 -7.2236714 -1.990139 6
-2.3613925 -5.0755811 -1.9258002 6
-1.7097807 -3.6750057 -1.889383 11
-1.6108581 -3.4001129 0.72704357 0
-2.213371 -4.671865 0.72323561 21
-3.1666493 -6.6839938 0.64213908 8
-3.5044565 -7.3970189 0.42108849 23
-5.5216618 -11.654828 0.43526241 42
-8.875515 -15.67465 0.50094724 32
-6.6261716 -17.092138 0.40191743 32
-5.5292339 -11.670811 0.20693287 30
-10.080685 -17.803047 0.20711118 28
-10.102044 -26.058117 0.11804353 44
-5.5265107 -11.665062 -0.021402264 40
-11.844829 -20.918623 -0.18125562 47
-10.067971 -25.970226 -0.37434649 36
-5.5032253 -11.615913 -0.24859703 90
-11.821691 -20.87776 -0.60563481 41
-10.035103 -25.885441 -0.86422795 32
-5.5210133 -11.65346 -0.47802687 59
-11.853941 -20.934715 -1.0335596 44
-4.9418035 -12.74733 -0.66746259 0
-5.5148273 -11.640403 -0.70548517 56
-5.6067934 -9.9019079 -0.68999541 12
-4.9165745 -12.682252 -0.9051075 0
-4.7878251 -10.105885 -0.81041253 0
-6.0891862 -10.75384 -0.96826524 0
-4.8754802 -12.57625 -1.1361945 78
-4.6104207 -9.7314291 -0.97089851 43
-5.4854212 -9.6875582 -1.0692188 49
-4.1986661 -10.830415 -1.1841909 5
-4.5734835 -9.6534634 -1.1521422 51
-4.5505638 -9.6050863 -1.3347788 42
-4.5450277 -9.5934019 -1.5210304 39
-4.5346484 -9.5714931 -1.7068874 41
-5.0355959 -10.628866 -2.1034932 5
-4.3875074 -9.2609158 -2.0155287 2
-4.0808358 -8.6136093 -2.0435281 3
-3.7118082 -7.8346858 -2.0125062 4
-3.4211004 -7.2210751 -1.9959553 5
-2.4000077 -5.0658078 -1.9284027 6
-1.7416041 -3.6760848 -1.8961428 11
-1.6328491 -3.385247 0.72628462 2
-2.2097902 -4.5813699 0.71159732 20
-3.1595643 -6.5504556 0.6314137 8
-3.5629523 -7.3867655 0.42191052 22
-5.6150479 -11.641201 0.43620688 40
-9.0525379 -15.730135 0.50472796 28
-6.7718225 -17.112396 0.40349564 37
-5.6296873 -11.671552 0.20763782 31
-10.238644 -17.79117 0.20779952 3
-10.201295 -25.778675 0.11709742 13
-5.6321402 -11.676637 -0.021495115 39
-11.910775 -20.696747 -0.18004927 43
-10.165144 -25.687321 -0.37128249 38
-5.60677 -11.624039 -0.24960256 83
-11.885382 -20.652622 -0.60149628 40
-10.125832 -25.58798 -0.85663611 38
-5.6178622 -11.647036 -0.47936049 59
-11.918077 -20.709436 -1.0265204 53
-5.0556679 -12.775674 -0.67077845 0
-5.6185131 -11.648385 -0.70832902 54
-5.6917176 -9.8902082 -0.69193226 20
-5.024085 -12.695864 -0.9085601 0
-4.8357263 -10.0255 -0.80665392 0
-5.6688371 -9.8504496 -0.89046657 0
-4.3266315 -10.933399 -0.99047685 4
-4.6886296 -9.7205362 -0.97305369 43
-5.5846958 -9.7042418 -1.0753373 37
-4.1892467 -10.586227 -1.1606612 16
-4.645947 -9.6320457 -1.153429 50
-4.6278524 -9.594533 -1.3377694 42
-4.620491 -9.5792704 -1.5238671 38
-4.6082201 -9.5538301 -1.7094331 47
-5.1062531 -10.586359 -2.1020849 5
-4.5782304 -9.4916553 -2.0726521 4
-4.1391697 -8.5813885 -2.0426896 5
-3.7697978 -7.8156009 -2.0143154 4
-3.473114 -7.2005115 -1.9969246 5
-2.4369576 -5.0523367 -1.9297038 5
-1.7609247 -3.6507752 -1.889383 8
-1.6391342 -3.3385117 0.71869546 2
-2.2120402 -4.5053802 0.70217586 24
-3.1753612 -6.4674273 0.62553203 6
-3.6267586 -7.3868122 0.42334908 23
-5.7226105 -11.655545 0.43823072 40
-9.1823158 -15.70107 0.50583994 31
-6.9090934 -17.109198 0.40454778 33
-5.7268968 -11.664276 0.20821458 29
-10.439326 -17.850462 0.20933817 14
-9.6231461 -23.830091 0.10854869 4
-5.7329125 -11.676529 -0.021568071 35
-11.972181 -20.471531 -0.17881274 54
-10.249876 -25.382082 -0.36789596 55
-5.7018847 -11.613333 -0.25022134 98
-11.948523 -20.431076 -0.59745872 42
-10.227874 -25.327597 -0.85028881 35
-5.7166538 -11.643413 -0.48084229 58
-11.997803 -20.515341 -1.0210264 53
-5.645895 -13.981102 -0.73612034 0
-5.7190604 -11.648314 -0.71073532 51
-5.7868261 -9.8950377 -0.69507957 26
-5.2710109 -13.052766 -0.93671191 0
-4.8721929 -9.9234543 -0.80116057 0
-5.7273998 -9.7934227 -0.88890439 0
-4.3118138 -10.677476 -0.9699958 0
-4.7686677 -9.7125988 -0.975568 42
-5.6724067 -9.6993885 -1.0791614 39
-4.1840782 -10.36116 -1.13916 20
-4.720089 -9.613656 -1.1551448 42
-4.7017188 -9.5762405 -1.339763 42
-4.6994696 -9.57166 -1.5278385 37
-4.6835084 -9.5391512 -1.7126153 32
-4.7583442 -9.6915722 -1.9309603 1
-4.637464 -9.4453697 -2.0695643 4
-4.1955309 -8.5452614 -2.0410125 6
-3.8225517 -7.7855949 -2.0134108 3
-3.5284293 -7.1865396 -1.9998329 6
-2.4705031 -5.031805 -1.9284027 6
-1.7911624 -3.6481557 -1.8944529 6
-2.2117922 -4.4303575 0.69275439 26
-3.1772459 -6.3642211 0.61757451 4
-3.6881607 -7.3876152 0.42478764 20
-5.8230009 -11.663834 0.43998471 36
-9.3189096 -15.694836 0.50761908 26
-7.0406737 -17.107378 0.40559992 35
-5.8255687 -11.668977 0.20898362 29
-10.612621 -17.873693 0.21043144 10
-9.6957264 -23.558605 0.10760258 2
-5.8227353 -11.663301 -0.021614496 36
-12.038259 -20.274742 -0.17778733 46
-10.335786 -25.113817 -0.36499321 51
-5.7930732 -11.603887 -0.25084013 113
-12.018435 -20.241354 -0.59422868 41
-10.299762 -25.026285 -0.84244806 31
-5.8187461 -11.655311 -0.4829168 59
-12.049951 -20.294432 -1.0139872 48
-5.7704253 -14.020937 -0.74021637 0
-5.2377996 -10.491638 -0.64226496 4
-5.8767862 -9.8976374 -0.69798481 29
-4.9147344 -9.8445187 -0.79740196 5
-5.993784 -10.094684 -0.91983634 0
-4.311235 -10.475407 -0.95421535 0
-4.8472147 -9.7092733 -0.97844154 41
-5.7528734 -9.6889439 -1.0822207 48
-4.2042375 -10.215425 -1.1261781 31
-4.8015089 -9.6177216 -1.1594342 44
-4.7775364 -9.5697031 -1.3432521 41
-4.8070631 -9.6288471 -1.5420219 1
-4.7731304 -9.5608768 -1.7221615 3
-4.7750301 -9.564683 -1.9119464 2
-4.7210431 -9.456543 -2.0788274 3
-4.25386 -8.5207462 -2.041851 5
-3.8706234 -7.7530994 -2.0116017 3
-3.5760148 -7.1629801 -1.9998329 6
-2.5088894 -5.0254617 -1.9323063 5
-1.8007442 -3.6070027 -1.8792433 6
-1.2453938 -2.4516222 0.72586381 0
-2.0490639 -4.0336885 0.87427366 16
-2.2193441 -4.3688941 0.68554974 13
-3.1873076 -6.2743797 0.6110009 1
-3.7523103 -7.3866172 0.4262262 19
-5.9223933 -11.658539 0.44133395 36
-9.4468412 -15.660208 0.5086199 20
-7.1831508 -17.113119 0.4069151 32
-5.9195709 -11.652982 0.20943221 19
-10.811522 -17.922464 0.2118891 14
-9.7701693 -23.276424 0.10662269 2
-5.9293809 -11.672293 -0.021707347 1
-12.107197 -20.07033 -0.17673178 42
-10.414886 -24.812397 -0.36166042 40
-5.9047337 -11.623774 -0.25215504 76
-12.087161 -20.037117 -0.5906958 45
-10.398405 -24.77313 -0.83634967 32
-5.9180775 -11.650042 -0.4843986 43
-12.108768 -20.072937 -1.0071197 49
-5.776938 -13.762961 -0.72870845 0
-5.3217707 -10.476181 -0.64357752 16
-5.9725518 -9.9008131 -0.70113218 28
-5.5316248 -13.178528 -0.95105338 0
-4.9941835 -9.8313084 -0.7991367 26
-6.0332141 -10.001374 -0.91514969 0
-4.3163843 -10.283343 -0.93944216 1
-4.9311185 -9.7071629 -0.98167431 42
-5.8532815 -9.7030964 -1.0883392 27
-4.2215466 -10.057402 -1.1119791 30
-4.8811445 -9.6087856 -1.1624368 41
-4.8622046 -9.5715008 -1.3482362 38
-4.8652015 -9.5774012 -1.5391852 2
-4.8630123 -9.5730915 -1.7304351 6
-4.8559542 -9.5591974 -1.9175801 4
-4.7887249 -9.4268532 -2.0795994 3
-4.3203273 -8.5047884 -2.0452051 3
-3.9387732 -7.7536788 -2.0188377 3
-3.6312075 -7.1482201 -2.0027409 5
-2.5439126 -5.0078235 -1.9323063 5
-1.8357339 -3.6137371 -1.889383 5
-1.2624784 -2.4428685 0.72586381 0
-2.0843859 -4.0332417 0.87730932 20
-2.2206898 -4.2969866 0.67668247 10
-4.0488524 -7.8344421 0.76565397 23
-3.8166234 -7.3850837 0.42766476 20
-6.1211047 -11.844206 0.44996902 10
-8.52806 -13.916528 0.45391044 2
-7.3276229 -17.121378 0.40831795 38
-8.9589329 -17.335342 0.31267434 9
-10.957279 -17.880651 0.21229401 28
-9.8852158 -23.097328 0.10611585 56
-11.424595 -22.106344 -0.041259214 34
-12.167602 -19.855721 -0.17558573 45
-5.2231112 -12.204075 -0.17841126 8
-11.468377 -22.191061 -0.48311669 52
-12.147358 -19.822685 -0.58686012 44
-5.2147617 -12.184566 -0.41257426 21
-11.43879 -22.133812 -0.92360246 50
-12.183879 -19.882282 -1.0017973 46
-5.3352666 -12.466132 -0.66200119 0
-11.407513 -22.07329 -1.3608755 34
-6.0686474 -9.9031315 -0.70427954 32
-5.2199082 -12.196591 -0.88279849 7
-5.0810118 -9.8316479 -0.80202794 33
-6.0570512 -9.8842077 -0.9082759 0
-4.3127923 -10.077066 -0.9233259 3
-5.0170555 -9.7078934 -0.98526621 62
-5.9500051 -9.7095251 -1.093693 24
-4.261909 -9.9581747 -1.1042712 16
-4.9663639 -9.609807 -1.1667262 44
-4.9471269 -9.5725832 -1.3532205 38
-4.9592123 -9.5959682 -1.5476953 4
-4.960546 -9.5985498 -1.7412543 7
-4.964148 -9.6055193 -1.9337771 1
-4.8580217 -9.4001665 -2.0811434 3
-4.3867774 -8.4883194 -2.0485594 3
-3.9981728 -7.7363777 -2.0215514 3
-3.6828029 -7.1261439 -2.0037103 5
-2.5840201 -5.0000234 -1.9362099 6
-1.8542588 -3.5879507 -1.8826232 6
-1.2299299 -2.3377123 0.69727844 1
-2.1084092 -4.0074267 0.8750326 33
-2.2392173 -4.256052 0.67280304 6
-4.113595 -7.8186584 0.76703793 22
-3.8799565 -7.3745847 0.42869231 36
-6.1407523 -11.671652 0.44511181 9
-8.6552134 -13.894366 0.45524484 5
-5.3004317 -12.137981 0.29039061 26
-8.3948832 -15.95605 0.28889853 2
-11.045759 -17.731951 0.21148419 27
-5.271244 -12.071142 0.055634368 19
-11.504387 -21.866245 -0.040967394 47
-12.249378 -19.664141 -0.17468096 49
-5.2404037 -12.000517 -0.17599231 24
-11.546943 -21.94713 -0.47963601 44
-12.214111 -19.607527 -0.58312535 50
-5.2143397 -11.940831 -0.40560469 24
-11.520701 -21.897253 -0.91723073 55
-12.253228 -19.670322 -0.99561656 50
-5.2554274 -12.034922 -0.64113075 19
-5.6087666 -10.660513 -0.65976536 0
-6.1664104 -9.8990469 -0.70718479 34
-5.2293124 -11.975118 -0.86951935 23
-5.1715202 -9.8294439 -0.80491918 38
-6.1082582 -9.8056936 -0.90515149 0
-4.3450723 -9.9502096 -0.91459626 18
-5.110342 -9.7131634 -0.98957652 1
-6.0547037 -9.7197218 -1.0998116 16
-4.3140893 -9.8792582 -1.0989972 14
-5.0496359 -9.5977802 -1.1697289 41
-5.0356436 -9.5711851 -1.3582047 43
-5.0497007 -9.5979033 -1.553936 1
-5.0362902 -9.5724134 -1.7431636 2
-5.0307603 -9.561903 -1.9323688 4
-4.9286251 -9.3677759 -2.0819151 4
-4.4525242 -8.4628572 -2.0502365 3
-4.0457048 -7.6896205 -2.0170288 3
-3.7493966 -7.1264315 -2.0114653 5
-2.622364 -4.9842949 -1.9375112 6
-1.8855743 -3.5838876 -1.887693 6
-1.2352725 -2.3086085 0.69115305 2
-2.1418934 -4.0029984 0.87730932 49
-2.2670064 -4.2368226 0.67224884 6
-4.1868796 -7.8248858 0.77049768 30
-3.9501925 -7.3825397 0.43074742 21
-3.966368 -7.4127698 0.28374359 0
-8.8011684 -13.911322 0.45780239 7
-5.3021197 -11.914349 0.28591901 24
-8.4494667 -15.791262 0.28697595 3
-11.107263 -17.556385 0.21030997 19
-5.2740731 -11.851325 0.054789633 25
-11.577503 -21.637268 -0.040688843 37
-12.315784 -19.4666 -0.17368571 43
-5.2427473 -11.780932 -0.17330459 20
-11.624411 -21.724934 -0.47654209 50
-12.282282 -19.413645 -0.57989532 47
-5.2114229 -11.710544 -0.39900848 22
-11.599746 -21.678837 -0.91145176 55
-12.315468 -19.466101 -0.98960751 60
-5.2532272 -11.804482 -0.63079309 23
-5.6397157 -10.5401 -0.65473402 1
-6.267386 -9.9063683 -0.71081632 34
-5.2300282 -11.752352 -0.85597461 28
-5.2531919 -9.8177242 -0.80694306 16
-6.2064118 -9.8099918 -0.90952569 0
-4.399847 -9.8868589 -0.91157448 23
-5.2062206 -9.7299385 -0.99496442 2
-6.1458263 -9.7142296 -1.1040181 16
-4.3732467 -9.8270855 -1.0965632 14
-5.1427851 -9.6113834 -1.175734 58
-5.1210647 -9.5707903 -1.363189 41
-5.1315279 -9.5903454 -1.5584747 4
-5.1234889 -9.5753212 -1.7501643 4
-5.1401181 -9.6063986 -1.9485657 3
-4.9994593 -9.3435211 -2.0842311 4
-4.5133429 -8.4350147 -2.051075 3
-4.1139956 -7.6886725 -2.0242648 4
-3.799057 -7.1000819 -2.0114653 5
-2.6570971 -4.9658656 -1.9375112 7
-1.9037068 -3.5578496 -1.8809332 6
-1.2273304 -2.2557642 0.67788124 2
-2.1829264 -4.0120959 0.88262177 34
-2.2851703 -4.2000146 0.66892362 7
-4.2566419 -7.8234682 0.77326554 25
-4.0188189 -7.386363 0.43259698 21
-4.1039996 -7.5429206 0.28981513 0
-8.9369774 -13.91009 0.45980394 10
-5.299294 -11.687653 0.28135973 25
-8.4964256 -15.615952 0.28486115 4
-11.121458 -17.310158 0.20828542 21
-5.2906094 -11.668499 0.054113843 53
-11.647986 -21.408344 -0.040410288 47
-12.377877 -19.26573 -0.17266031 49
-5.2868757 -11.660264 -0.17206822 42
-11.703165 -21.509758 -0.47360286 52
-12.337542 -19.20295 -0.57616055 48
-5.2864442 -11.659312 -0.39851066 49
-11.676304 -21.46039 -0.90567273 58
-12.388423 -19.282145 -0.98462856 54
-5.2728143 -11.629251 -0.6233812 51
-5.7303414 -10.532045 -0.65670282 1
-6.3622913 -9.9026823 -0.71372157 33
-5.0828538 -11.210291 -0.81905854 11
-6.304925 -9.8133945 -0.9138999 0
-4.4572392 -9.8304901 -0.90922421 22
-5.2778296 -9.7003546 -0.99568284 0
-6.2328653 -9.7012358 -1.1074598 10
-4.4220243 -9.7528248 -1.091695 13
-5.2363696 -9.6241531 -1.1817393 51
-5.2162085 -9.5870981 -1.3706653 40
-5.2267418 -9.6064577 -1.5669848 2
-5.2543826 -9.6572599 -1.7718027 2
-5.2051764 -9.5668211 -1.9478614 7
-5.0608163 -9.3014956 -2.0826871 4
-4.5795975 -8.4170427 -2.0544293 3
-4.1657109 -7.656342 -2.0233603 5
-3.8503876 -7.0767956 -2.0124347 5
-2.6880853 -4.9405494 -1.9349087 6
-1.9440931 -3.5731339 -1.8961428 6
-1.2524085 -2.2640626 0.68298578 3
-2.205179 -3.9864492 0.88034499 32
-2.3144352 -4.1839595 0.66892362 8
-4.3207989 -7.810997 0.77499545 20
-4.0799541 -7.3756056 0.43362454 16
-4.1372066 -7.479105 0.28846592 3
-9.0731945 -13.907638 0.46180552 11
-5.3740525 -11.635849 0.28100902 45
-8.5490932 -15.454767 0.28300264 3
-11.257332 -17.255541 0.20856886 18
-5.3786507 -11.645804 0.054181423 52
-11.719708 -21.186501 -0.040144999 38
-12.444324 -19.074995 -0.17172538 51
-5.3765354 -11.641226 -0.172337 40
-11.765929 -21.270056 -0.47012219 49
-12.405757 -19.015879 -0.5731324 44
-5.3827996 -11.654788 -0.39963076 44
-11.746508 -21.234947 -0.89959741 61
-12.444127 -19.074694 -0.97844779 57
-5.3739753 -11.635682 -0.62572181 50
-5.7708611 -10.432372 -0.65298396 1
-6.4727192 -9.9215584 -0.71832156 24
-4.8815222 -10.569427 -0.77470618 1
-5.4515514 -9.855134 -0.81619501 0
-6.3907127 -9.7958565 -0.91639948 0
-4.5274315 -9.8027525 -0.90955997 26
-5.3685603 -9.7051048 -0.99999315 0
-6.339601 -9.7175112 -1.1143432 6
-4.4833302 -9.7072659 -1.0900723 14
-5.3072791 -9.5943232 -1.1825972 58
-5.3002996 -9.581706 -1.3751512 39
-5.3645926 -9.6979322 -1.5879762 4
-5.2930002 -9.5685101 -1.7622563 23
-5.7159204 -10.333052 -2.1119437 2
-4.9907422 -9.0220985 -2.0278797 3
-4.636353 -8.3814449 -2.0535905 3
-4.2134008 -7.6168461 -2.0206468 6
-3.8996973 -7.0497437 -2.0124347 5
-2.7280025 -4.9315929 -1.9388124 5
-1.9654803 -3.5531301 -1.8927629 5
-1.2700797 -2.258635 0.68400669 4
-2.2348807 -3.9743803 0.88110393 40
-2.3241715 -4.1331701 0.66338158 8
-4.3869443 -7.8014832 0.7770713 19
-4.1567998 -7.3922076 0.43629616 18
-4.2030363 -7.474432 0.28941038 5
-9.2142286 -13.910626 0.46402946 11
-5.4687719 -11.626998 0.28171045 43
-8.6018896 -15.297094 0.28120825 3
-11.293591 -17.049818 0.20703019 11
-5.4734421 -11.636928 0.05431658 50
-11.798712 -20.982134 -0.039912868 49
-12.51755 -18.897617 -0.17091109 24
-5.4764018 -11.643219 -0.1729283 40
-11.835726 -21.047958 -0.46702826 75
-12.549251 -18.945475 -0.57363707 17
-5.4844546 -11.66034 -0.40112424 44
-11.821977 -21.023508 -0.89411473 57
-12.504164 -18.877407 -0.97278214 37
-5.46698 -11.623188 -0.62708712 49
-5.835721 -10.377903 -0.65210897 2
-6.5616713 -9.9060879 -0.72050047 10
-4.9025316 -10.42313 -0.76647305 0
-6.0521016 -10.762701 -0.89483649 0
-6.5051908 -9.8208199 -0.92296082 0
-4.5974536 -9.7745132 -0.90989572 49
-5.4615684 -9.7125311 -1.0046626 1
-6.4402695 -9.7228088 -1.1200793 4
-4.5509906 -9.6757288 -1.0900723 11
-5.3955727 -9.5951691 -1.1873156 73
-5.3904066 -9.5859814 -1.3811322 40
-5.383647 -9.5739603 -1.5737928 36
-5.4429026 -9.6793375 -1.7896224 4
-5.811079 -10.334081 -2.1203945 4
-4.9978189 -8.8878269 -2.0054934 4
-4.7024212 -8.3625088 -2.0569448 3
-4.2760224 -7.6042261 -2.0251691 5
-3.9545248 -7.0324936 -2.015343 5
-2.764219 -4.9157243 -1.9401135 5
-1.9884609 -3.5361619 -1.891073 5
-1.299251 -2.2732177 0.69115305 5
-2.2723167 -3.9757295 0.88489848 46
-2.3529699 -4.1168437 0.66338158 7
-4.4590983 -7.8018045 0.78018516 21
-4.2201991 -7.3838167 0.43752921 18
-4.2789202 -7.486557 0.29102945 5
-9.3468161 -13.899051 0.46580863 11
-5.5705376 -11.631816 0.28276259 46
-8.664813 -15.160279 0.27979836 4
-11.37886 -16.920773 0.20642284 23
-5.5752821 -11.641723 0.054519318 50
-11.863527 -20.756868 -0.039640944 53
-12.767471 -18.985685 -0.17250951 13
-5.5817385 -11.655204 -0.17368087 39
-11.903001 -20.825932 -0.46393433 94
-12.808397 -19.046545 -0.57939065 16
-5.5847211 -11.661431 -0.40249327 46
-11.891104 -20.805117 -0.88833576 62
-12.718157 -18.912354 -0.97913456 9
-5.5617971 -11.613564 -0.62864757 47
-5.8882117 -10.302234 -0.64992142 1
-12.777846 -19.001114 -1.3884645 21
-4.944149 -10.323856 -0.76169258 0
-5.620295 -9.833477 -0.82082093 0
-6.6136479 -9.8347311 -0.92858481 0
-4.6741886 -9.7601528 -0.91157448 42
-6.0827589 -10.642621 -1.1052366 0
-6.5324292 -9.7139559 -1.1242858 2
-4.6321793 -9.6724329 -1.0933177 13
-5.4959764 -9.6159639 -1.1946076 52
-5.4867387 -9.599802 -1.3886086 38
-5.4778619 -9.5842705 -1.5817355 35
-5.4829102 -9.5931025 -1.7807125 34
-5.8713593 -10.272748 -2.116169 3
-5.0032668 -8.7539015 -1.9831072 4
-4.7742734 -8.3532457 -2.0628147 3
-4.3328724 -7.5809541 -2.0269783 3
-4.0035243 -7.004715 -2.015343 5
-2.8003469 -4.899591 -1.9414148 5
-2.0130997 -3.5221937 -1.891073 6
-1.3228594 -2.2774692 0.69523662 4
-2.3157976 -3.9869373 0.89096987 52
-2.3736949 -4.0866146 0.66116476 6
-4.5354738 -7.8083892 0.78399092 23
-4.2917089 -7.3887172 0.43958431 16
-4.3431287 -7.4772434 0.29183897 8
-5.0926576 -7.4599624 0.25119641 0
-5.6761389 -11.64297 0.28399009 45
-8.7202206 -15.012958 0.27819622 4
-11.449355 -16.771549 0.20557252 10
-5.6774521 -11.645663 0.054722056 50
-11.94185 -20.559397 -0.03942208 37
-13.025996 -19.081087 -0.17419842 11
-5.6787429 -11.648311 -0.17416465 38
-11.977798 -20.621288 -0.46122715 74
-13.05829 -19.128393 -0.58463943 11
-5.6852665 -11.661692 -0.4038623 46
-11.955754 -20.583336 -0.88240856 53
-12.65836 -18.542555 -0.96454114 25
-5.6689982 -11.628323 -0.63157332 45
-5.9700212 -10.278144 -0.65101516 2
-13.018242 -19.069729 -1.4000854 17
-4.9846182 -10.224513 -0.75691211 0
-5.7068429 -9.8250484 -0.82342309 0
-6.7181201 -9.8410158 -0.93358392 0
-4.7509441 -9.7451982 -0.91325325 52
-5.6546726 -9.7352314 -1.0150793 0
-6.6382504 -9.7240191 -1.1307868 1
-4.7117972 -9.6648989 -1.0961576 42
-5.592936 -9.6289434 -1.2010418 79
-5.5735588 -9.595583 -1.3935928 39
-5.5804367 -9.6074247 -1.5919476 33
-5.5656166 -9.5819092 -1.7858039 35
-5.9686432 -10.275771 -2.125324 3
-5.026804 -8.6542759 -1.9684404 3
-4.8226514 -8.3028011 -2.0586219 3
-4.3935199 -7.5639977 -2.0305963 3
-4.0562272 -6.9833064 -2.0172818 5
-2.8382835 -4.8864627 -1.9440173 6
-2.0285351 -3.492379 -1.8826232 6
-1.3347952 -2.2615168 0.69319481 5
-2.2337825 -3.7846532 0.84922934 11
-2.4102211 -4.0835896 0.66338158 7
-4.6081057 -7.8074212 0.78710473 21
-4.3614616 -7.3895373 0.44143388 13
-4.4053841 -7.4639544 0.29251361 10
-5.167388 -7.4570923 0.25230837 1
-5.7715039 -11.631718 0.28469151 46
-8.7536669 -14.831162 0.2759532 4
-11.516044 -16.618881 0.20468172 10
-5.778173 -11.645158 0.054907896 52
-12.005797 -20.341183 -0.039163426 48
-12.698693 -18.325571 -0.1681063 24
-5.7759252 -11.640628 -0.17464845 37
-12.038126 -20.395956 -0.45805588 106
-12.674512 -18.290674 -0.56172627 82
-5.7896433 -11.668275 -0.40548024 49
-12.021955 -20.368557 -0.87677777 53
-12.673694 -18.289494 -0.95595676 30
-5.7695751 -11.627831 -0.63371885 46
-6.0558419 -10.260292 -0.65254647 1
-12.680321 -18.299057 -1.34997 27
-5.0239453 -10.125111 -0.75213158 0
-5.9273834 -10.042647 -0.84510732 0
-6.8525271 -9.8889284 -0.94264483 0
-4.8330359 -9.7403574 -0.91593927 60
-5.9513183 -10.0832 -1.055668 0
-6.7717414 -9.7723465 -1.1418767 0
-4.7897687 -9.6531572 -1.0985916 43
-5.6782155 -9.6204863 -1.2049023 87
-5.6666379 -9.6008711 -1.4000723 42
-5.67555 -9.6159706 -1.5998902 32
-5.6544552 -9.5802298 -1.7928046 22
-6.0382347 -10.23046 -2.1246197 3
-5.0472007 -8.5513716 -1.9530017 4
-4.8904381 -8.2857714 -2.0628147 3
-4.4422588 -7.5264297 -2.0287871 3
-4.1009359 -6.9481335 -2.015343 5
-2.8704059 -4.8632712 -1.942716 5
-2.0657668 -3.4999871 -1.8944529 7
-1.3525395 -2.2554603 0.69421571 5
-2.4298117 -4.0518918 0.91297847 19
-2.4284835 -4.0496769 0.66061056 6
-4.6768441 -7.798985 0.78952658 22
-4.4252687 -7.3794646 0.44266695 15
-4.4717751 -7.4570174 0.29345807 10
-5.2492256 -7.4633527 0.25375396 2
-5.8723946 -11.630408 0.28565598 49
-8.8055687 -14.683941 0.27435106 4
-11.613377 -16.511908 0.20435779 11
-5.8809648 -11.647382 0.055110633 50
-12.063165 -20.116224 -0.038891502 45
-5.8895001 -11.664287 -0.17561603 39
-12.110289 -20.194807 -0.45542604 82
-12.739784 -18.113434 -0.55900091 2
-5.8871803 -11.659692 -0.40660036 29
-12.096016 -20.171005 -0.87188786 59
-12.780379 -18.171152 -0.95441157 12
-5.8668189 -11.619366 -0.63547432 48
-6.1417007 -10.241743 -0.65407771 1
-13.535894 -19.245344 -1.4267168 21
-5.0657272 -10.032785 -0.74788225 0
-6.0383835 -10.069453 -0.8508898 0
-6.9236922 -9.8441105 -0.94295728 0
-4.924274 -9.752634 -0.92030412 54
-5.9990277 -10.003825 -1.0517169 0
-6.8718696 -9.7704287 -1.1472304 0
-4.8785667 -9.6621094 -1.1034598 41
-5.7738729 -9.6283627 -1.2109075 72
-5.7661819 -9.6155367 -1.4080471 38
-5.7751231 -9.6304474 -1.6089677 34
-5.7536931 -9.5947113 -1.8029873 19
-6.1074824 -10.184682 -2.1239154 3
-5.1834779 -8.6438351 -1.9823353 3
-4.9481626 -8.2514296 -2.0628147 3
-4.5007048 -7.50526 -2.0315008 3
-4.1613169 -6.9393048 -2.0211592 6
-2.9042869 -4.8431144 -1.942716 5
-2.0957439 -3.4948087 -1.8995228 9
-1.3863621 -2.2756889 0.70340389 4
-2.472343 -4.0583076 0.91829091 29
-2.4505136 -4.0224752 0.65894794 7
-4.753983 -7.8035793 0.7933324 22
-4.5016189 -7.3893285 0.44513306 15
-4.5507646 -7.4699998 0.29521206 11
-5.3244305 -7.4590683 0.25486594 4
-5.9790297 -11.638927 0.28688347 23
-8.8496056 -14.526471 0.27255666 4
-11.654002 -16.326254 0.20306209 8
-11.443572 -22.27634 0.10577795 25
-12.134635 -19.918789 -0.038672637 41
-12.76276 -17.879528 -0.16563326 0
-11.407917 -22.206934 -0.33553573 36
-12.180237 -19.993645 -0.45279619 84
-12.810168 -17.945944 -0.5565784 2
-11.3815 -22.15551 -0.77536583 39
-12.159595 -19.959763 -0.86640519 54
-13.749738 -19.262199 -1.0167341 15
-11.420934 -22.232271 -1.2202355 42
-6.2275977 -10.222492 -0.65560901 1
-13.785902 -19.312862 -1.438822 21
-5.1228795 -9.9723244 -0.74602318 0
-6.0441904 -9.9214325 -0.84192693 0
-7.026999 -9.8442202 -0.94764394 25
-4.9995255 -9.7321997 -0.92164713 60
-6.0459223 -9.9242754 -1.0477659 0
-7.0000563 -9.8064756 -1.157173 0
-4.9677219 -9.6702909 -1.108328 45
-5.8719869 -9.6387634 -1.2173417 73
-5.8538194 -9.608942 -1.4130313 39
-5.8628159 -9.6237097 -1.6146411 33
-5.855464 -9.6116419 -1.8138065 27
-6.1989222 -10.175422 -2.1309576 3
-5.5316105 -9.0800419 -2.0911784 3
-5.0056481 -8.2166834 -2.0628147 4
-4.5489368 -7.4670005 -2.0296917 3
-4.2036037 -6.9001417 -2.0182512 8
-2.9399953 -4.8259506 -1.9440173 5
-2.1163185 -3.4738998 -1.8961428 10
-1.3993905 -2.2631545 0.70238298 4
-2.5054009 -4.0518422 0.92056769 46
-2.4750547 -4.0027652 0.65839374 5
-4.8244963 -7.8023829 0.7964462 21
-4.5778394 -7.4034796 0.44780469 14
-4.6107202 -7.456655 0.2958867 12
-5.3972292 -7.4559808 0.25597793 7
-7.7848129 -14.909986 0.36877501 14
-8.8973761 -14.38922 0.2710827 3
-11.696356 -16.157883 0.20192833 7
-10.669106 -20.434172 0.097364374 1
-12.194949 -19.722197 -0.038447142 48
-12.836498 -17.732929 -0.16506024 3
-11.475343 -21.978331 -0.3332243 39
-12.234751 -19.786566 -0.44993433 106
-14.075488 -19.444527 -0.6059376 14
-11.444917 -21.920057 -0.76976526 39
-12.218128 -19.759684 -0.86121893 62
-14.001384 -19.342155 -1.0258336 9
-11.492313 -22.010834 -1.2122384 43
-6.3225656 -10.225125 -0.65845287 1
-14.044793 -19.402122 -1.4523798 16
-5.1704311 -9.90275 -0.74336731 5
-6.0909758 -9.8505888 -0.83932483 0
-7.1295466 -9.8490839 -0.95264304 1
-5.0731835 -9.7164946 -0.9233259 1
-6.0403738 -9.7687531 -1.0355532 0
-7.0672755 -9.7630596 -1.1575555 1
-5.0464811 -9.6653528 -1.1115735 43
-5.9566998 -9.6334314 -1.2216311 85
-5.9445543 -9.6137896 -1.4195108 40
-5.9556675 -9.6317625 -1.6225837 35
-5.9502354 -9.6229773 -1.8233529 25
-6.2497048 -10.107292 -2.125324 2
-5.5875821 -9.036478 -2.0896347 2
