# .PCD v0.7 - Point Cloud Data file format
VERSION 0.7
FIELDS x y z intensity
SIZE 4 4 4 4
TYPE F F F F
COUNT 1 1 1 1
WIDTH 1337
HEIGHT 1
VIEWPOINT 0 0 0 1 0 0 0
POINTS 1337
DATA ascii
-16.150904 -8.1867304 -0.77791667 43
-5.4252481 -3.828511 -0.32417381 28
-15.740009 -9.4762602 -1.0062734 42
-16.143286 -8.182868 -1.0974559 53
-5.43929 -3.8384202 -0.44299275 31
-8.1414518 -4.9015551 -0.68869162 0
-16.112854 -8.1674423 -1.4153732 37
-5.4613905 -3.8540163 -0.56306094 27
-7.9386964 -4.7794862 -0.83548278 0
-16.095306 -8.1585484 -1.7330828 43
-5.4817333 -3.8683717 -0.68398279 32
-7.8533859 -4.7281251 -0.98871475 0
-7.7319684 -4.6550255 -1.1334156 5
-7.673214 -4.6196527 -1.2833163 3
-7.6426864 -4.6012735 -1.4376804 4
-7.6743569 -4.6203408 -1.6020914 4
-7.6966496 -4.6337619 -1.7669648 0
-8.5543957 -5.1501675 -2.140799 3
-7.7978206 -4.6946721 -2.1129055 2
-7.1647601 -4.3135386 -2.089016 8
-4.9384918 -2.9732153 -1.9830537 5
-3.5222046 -2.1205406 -1.9164225 7
-2.2824743 -1.3525419 0.70034117 9
-3.1793427 -1.8840057 0.71414196 14
-5.3130722 -3.1484048 0.8640033 18
-6.1572142 -3.6486239 0.62138027 13
-15.30338 -9.0684319 0.91513276 20
-13.220406 -7.8341093 0.51864499 3
-15.994448 -7.9675627 0.4969441 38
-5.5226946 -3.8398027 0.14747493 27
-12.65163 -7.497066 0.23564328 5
-14.818353 -7.3816967 0.16759202 11
-5.5403929 -3.852108 0.028501421 30
-15.79848 -9.3618174 -0.030448651 35
-16.204252 -8.0720758 -0.13649966 43
-5.5530777 -3.8609276 -0.090898901 24
-15.792107 -9.3580408 -0.35502812 84
-16.203131 -8.0715179 -0.45695144 39
-5.5607386 -3.8662539 -0.21082981 27
-15.787657 -9.3554039 -0.68029183 50
-16.196932 -8.0684299 -0.77740163 44
-5.5108895 -3.8315952 -0.32768473 29
-15.76455 -9.341711 -1.0036484 41
-16.182152 -8.0610666 -1.0962453 50
-5.5314941 -3.8459208 -0.44830441 30
-8.271575 -4.9015455 -0.69678706 0
-16.155203 -8.0476418 -1.4141234 39
-5.547071 -3.856751 -0.56910449 27
-8.0849705 -4.7909679 -0.84733611 0
-16.130487 -8.0353308 -1.7307882 43
-5.5576153 -3.8640823 -0.69006807 31
-9.6824102 -5.7375741 -1.2139101 0
-7.8325648 -4.6413984 -1.1433841 7
-7.8040638 -4.6245093 -1.299769 3
-7.7561598 -4.5961223 -1.4529545 4
-7.8012743 -4.6228561 -1.6218095 5
-7.8368602 -4.6439438 -1.7916667 0
-8.5901423 -5.0903211 -2.140799 2
-7.8438144 -4.6480646 -2.1165235 3
-7.2047157 -4.2693496 -2.091924 7
-4.9558744 -2.9367375 -1.9817525 5
-3.5244472 -2.0885067 -1.9096626 8
-2.298543 -1.3404709 0.70238298 5
-3.1890254 -1.8597851 0.71338302 14
-5.300703 -3.0912793 0.85846126 22
-6.1515551 -3.5874815 0.61826646 15
-15.369767 -8.9633846 0.91533822 19
-15.605804 -9.101038 0.60971814 25
-16.02454 -7.84341 0.49616572 39
-5.6120524 -3.8440914 0.14914082 26
-12.886771 -7.5153441 0.23903982 3
-14.844376 -7.2657638 0.16730858 13
-5.6265512 -3.8540225 0.028805528 29
-15.828899 -9.231143 -0.030382328 35
-16.242245 -7.9499683 -0.13634886 47
-5.635993 -3.8604896 -0.091812722 23
-15.825961 -9.2294292 -0.35433197 75
-16.237534 -7.9476624 -0.45634583 38
-5.6436682 -3.865747 -0.21294557 25
-15.831868 -9.2328739 -0.67940277 52
-16.234915 -7.9463811 -0.77654314 48
-5.6001315 -3.8359258 -0.33139068 30
-15.815582 -9.2233772 -1.0027734 41
-16.223684 -7.9408836 -1.095277 52
-5.6076002 -3.8410416 -0.45228818 32
-15.790964 -9.2090197 -1.3247628 35
-16.189497 -7.9241505 -1.4122487 42
-5.6231871 -3.8517179 -0.57414085 29
-8.2145796 -4.7906022 -0.85739356 0
-16.171885 -7.9155293 -1.7292587 42
-5.6566834 -3.8746619 -0.69899309 31
-8.2175169 -4.7923155 -1.0260328 0
-7.9470596 -4.6345892 -1.1553463 12
-7.9182482 -4.6177869 -1.3133851 3
-7.8903971 -4.6015444 -1.4720472 5
-7.9558067 -4.6396904 -1.6471612 4
-8.0114861 -4.6721616 -1.8240881 0
-8.6356058 -5.0361376 -2.1433146 2
-7.8727064 -4.5912275 -2.1156189 4
-7.2142315 -4.2072163 -2.0861077 7
-4.9762559 -2.9020672 -1.9817525 5
-3.5546007 -2.0729823 -1.9181124 7
-2.3111997 -1.3263165 0.70340389 5
-3.1883061 -1.8296571 0.71034735 13
-5.3015399 -3.0423677 0.85513604 20
-6.1418867 -3.5246134 0.61480665 15
-15.459686 -8.8717718 0.91698229 22
-15.655091 -8.9839077 0.60917848 37
-16.068096 -7.7261486 0.49583212 38
-5.6917915 -3.8406072 0.15054367 27
-13.202559 -7.5764852 0.24391034 6
-14.855085 -7.1428871 0.16686317 10
-5.7063718 -3.8504453 0.029075842 29
-15.875611 -9.1104565 -0.030349167 33
-16.293745 -7.8346491 -0.13631871 42
-5.729116 -3.8657923 -0.092887819 22
-15.869196 -9.1067753 -0.35386789 99
-16.271 -7.8237123 -0.45574018 36
-5.7334871 -3.8687418 -0.21531025 25
-15.868203 -9.106205 -0.67821729 53
-16.268387 -7.8224559 -0.77551305 45
-5.6896992 -3.8391953 -0.33509666 29
-15.855339 -9.0988235 -1.001242 41
-16.260736 -7.8187771 -1.0940664 54
-5.7037563 -3.8486805 -0.45786542 31
-15.827188 -9.0826683 -1.3224498 43
-16.22286 -7.8005652 -1.4103742 42
-5.7160211 -3.8569562 -0.58085591 27
-8.4620523 -4.8560753 -0.87966353 0
-16.212397 -7.7955332 -1.727729 40
-5.7363744 -3.8706899 -0.70548403 31
-8.3266592 -4.7783775 -1.0354695 0
-8.1100273 -4.6540604 -1.1742864 9
-8.0704927 -4.6313725 -1.3332419 3
-8.0285082 -4.6072793 -1.4917763 3
-8.0802126 -4.636951 -1.666175 4
-8.1664572 -4.6864433 -1.8518779 0
-8.684123 -4.9835138 -2.1466689 6
-7.9079471 -4.5380936 -2.1165235 6
-7.2636232 -4.1683388 -2.091924 6
-5.0029559 -2.871021 -1.984355 5
-3.5626974 -2.044507 -1.9147326 7
-2.3102996 -1.3044443 0.70034117 8
-3.1873226 -1.7996303 0.70731169 12
-5.3123021 -2.999439 0.85347342 23
-6.1559339 -3.4757717 0.6137687 16
-15.569948 -8.7911243 0.91985947 21
-15.703505 -8.8665333 0.60863876 36
-16.089102 -7.5984159 0.49483132 36
-5.7884064 -3.8472636 0.15238492 24
-13.244683 -7.4782305 0.24371809 7
-14.911822 -7.0424209 0.16694416 9
-5.8097334 -3.8614385 0.029464422 29
-15.90748 -8.9817028 -0.030289477 30
-16.311874 -7.7036252 -0.13601711 37
-5.8125916 -3.8633382 -0.09380164 23
-15.90801 -8.9820023 -0.35332644 48
-16.307142 -7.7013898 -0.45523548 38
-5.8236208 -3.8706686 -0.21767493 27
-15.903544 -8.9794798 -0.67703187 50
-16.308146 -7.7018642 -0.77482629 46
-5.7696009 -3.8347642 -0.33821744 29
-15.904564 -8.9800558 -1.000367 43
-16.286041 -7.6914244 -1.0921296 54
-5.7869935 -3.8463244 -0.46238032 32
-15.872841 -8.9621449 -1.3210042 45
-16.266104 -7.6820083 -1.4094368 34
-5.8091993 -3.8610835 -0.58757102 26
-9.7133923 -5.4843884 -1.0057402 0
-16.252022 -7.6753578 -1.7261994 42
-5.8361678 -3.8790081 -0.71440911 30
-8.494874 -4.7963872 -1.0521984 0
-8.2632818 -4.6656246 -1.1917312 6
-8.2198591 -4.6411076 -1.3525313 3
-8.1705189 -4.6132493 -1.5121418 3
-8.246109 -4.6559286 -1.6936395 4
-8.3459349 -4.7122927 -1.8850712 0
-8.7187033 -4.9227657 -2.1466689 2
-7.9360437 -4.4808593 -2.1156189 6
-7.2722712 -4.1060791 -2.0861077 5
-5.0162907 -2.8323045 -1.9817525 5
-3.5863552 -2.0249326 -1.9198024 6
-2.312588 -1.2845278 0.69829935 6
-3.1826425 -1.7677997 0.70351708 12
-5.3227234 -2.9565084 0.85181081 18
-6.08599 -3.380465 0.60442728 5
-15.630941 -8.6822119 0.91985947 24
-15.754538 -8.7508631 0.60823399 31
-16.141758 -7.485908 0.49483132 38
-5.8753495 -3.8461843 0.15396313 27
-13.240627 -7.3545103 0.24269271 9
-14.935225 -6.9263659 0.16666073 7
-5.8867493 -3.853647 0.029717842 29
-15.962804 -8.8665447 -0.030276211 32
-16.354372 -7.5845098 -0.13592663 40
-5.8996553 -3.8620958 -0.094769225 22
-15.949353 -8.8590727 -0.35286236 46
-16.335119 -7.5755811 -0.4545289 39
-5.9174023 -3.8737133 -0.22016406 25
-15.951869 -8.8604708 -0.67643917 49
-16.339767 -7.5777364 -0.77379614 47
-5.8664279 -3.8403442 -0.3423135 29
-15.942429 -8.8552265 -0.99883574 42
-16.321232 -7.5691404 -1.090919 55
-5.8871689 -3.8539217 -0.46822315 31
-15.921072 -8.8433647 -1.3198477 38
-16.312103 -7.5649076 -1.4088119 42
-5.8993754 -3.8619125 -0.59395039 27
-8.6753016 -4.8186989 -0.89474958 0
-16.290762 -7.5550098 -1.7246697 38
-5.9163761 -3.8730419 -0.72090006 31
-8.7019835 -4.8335195 -1.0736456 0
-8.3927994 -4.6617832 -1.205687 5
-8.373209 -4.6509018 -1.3723881 3
-8.3164501 -4.6193748 -1.5331439 3
-8.3816776 -4.6556053 -1.714766 4
-9.627532 -5.3476157 -2.1660564 1
-8.759696 -4.8655763 -2.1483459 2
-7.9875698 -4.436698 -2.1210461 6
-7.3075452 -4.0589781 -2.0880466 4
-5.0491681 -2.8045621 -1.9869574 5
-3.5940654 -1.9963248 -1.9164225 6
-2.3214993 -1.2683514 0.69829935 4
-3.1949062 -1.7455375 0.70351708 12
-5.3223753 -2.9078805 0.84848559 22
-6.1444125 -3.3570006 0.60788703 15
-13.275798 -7.2532339 0.77826357 6
-13.278773 -7.2548594 0.51068449 15
-16.171793 -7.3630934 0.49416414 26
-5.972641 -3.8505781 0.15580438 25
-13.24602 -7.2369652 0.2418596 6
-9.8359213 -4.4783411 0.10940653 11
-5.9740229 -3.851469 0.030021949 15
-15.985702 -8.7337904 -0.030203257 27
-9.8179445 -4.4701562 -0.081338838 37
-15.352359 -9.8977079 -0.24549691 41
-15.986243 -8.734086 -0.35232094 48
-9.7932615 -4.4589181 -0.27162722 44
-15.31607 -9.8743124 -0.56727403 48
-15.985274 -8.7335567 -0.67525369 48
-9.8019009 -4.4628515 -0.46269816 1
-5.9501801 -3.8360977 -0.34562936 27
-15.968811 -8.7245617 -0.99664819 42
-9.8038568 -4.4637418 -0.65319568 20
-5.9575391 -3.840842 -0.47167575 3
-15.957914 -8.7186089 -1.3178239 38
-9.7664499 -4.4467106 -0.84078795 46
-15.956101 -8.717618 -1.6393566 34
-9.7515087 -4.439908 -1.0290657 47
-8.522625 -4.6563373 -1.04748 0
-8.5505247 -4.6715803 -1.2236303 4
-8.5444651 -4.6682696 -1.3950816 2
-8.4767218 -4.631258 -1.5566915 3
-8.5487375 -4.6706038 -1.7422304 3
-9.7059622 -5.3028541 -2.1753197 2
-8.7865868 -4.8005528 -2.1466689 2
-8.0012522 -4.3714852 -2.1165235 6
-7.3391094 -4.0097232 -2.089016 6
-5.0586662 -2.763803 -1.9830537 6
-3.6110964 -1.9729229 -1.9181124 4
-2.343925 -1.2594358 0.70238298 8
-3.1827979 -1.7101781 0.69820464 12
-5.3181195 -2.8575275 0.84460616 20
-6.143127 -3.3008196 0.60546517 15
-11.573694 -6.2187676 0.67591995 1
-15.81884 -8.4997654 0.60607523 36
-9.8453856 -4.399929 0.29990116 45
-11.218865 -7.1224589 0.29135507 8
-14.106537 -7.5797124 0.25659931 1
-9.8304291 -4.3932452 0.10900162 47
-11.765143 -7.4692712 0.058861263 3
-14.066046 -7.5579557 -0.026475934 2
-9.8087425 -4.383553 -0.081007093 48
-15.39069 -9.7710018 -0.24501312 41
-16.032738 -8.6146965 -0.35201153 46
-9.7949457 -4.377387 -0.27081969 43
-15.36775 -9.7564383 -0.56665176 48
-16.02825 -8.6122856 -0.6745128 49
-9.8072786 -4.3828988 -0.46149635 34
-15.360277 -9.7516937 -0.88825965 51
-16.008219 -8.6015224 -0.9953357 40
-9.7946825 -4.3772697 -0.65053248 70
-7.7060132 -4.8922734 -0.60738873 0
-15.983249 -8.5881052 -1.3149326 40
-9.7754107 -4.3686571 -0.83891326 49
-7.6991653 -4.8879261 -0.76820713 0
-15.999027 -8.5965834 -1.6375606 44
-9.7459154 -4.3554754 -1.0252416 49
-7.5354128 -4.7839656 -0.90994865 0
-8.61448 -4.6287246 -1.054772 0
-8.7297668 -4.6906705 -1.2445642 4
-8.7128773 -4.6815958 -1.4172077 2
-8.654952 -4.6504712 -1.5834213 3
-8.6921282 -4.6704469 -1.7647653 4
-9.1031418 -4.8912921 -2.0325112 1
-8.8267775 -4.7427959 -2.1483459 2
-8.0521698 -4.3265848 -2.1219504 6
-7.3635054 -3.9565523 -2.0880466 6
-5.0845022 -2.7320004 -1.9856561 5
-3.6247821 -1.9476647 -1.9181124 5
-2.3458211 -1.2394279 0.70034117 5
-3.1946595 -1.6879164 0.69820464 11
-5.3169236 -2.8092265 0.84128094 18
-6.1519275 -3.2504056 0.60408127 15
-15.774021 -8.3342934 0.91780436 26
-15.842447 -8.3704472 0.60472602 30
-9.8355837 -4.3134236 0.29867798 46
-11.261535 -7.0397234 0.29117972 9
-16.075752 -8.4937153 0.29133379 31
-9.8242302 -4.3084445 0.10859671 49
-11.949283 -7.4696426 0.059520159 3
-14.256398 -7.5324483 -0.026734591 4
-9.806139 -4.3005104 -0.080735661 47
-15.57384 -9.7353983 -0.24684078 20
-16.067738 -8.48948 -0.35147008 47
-9.79597 -4.296051 -0.27001217 41
-15.6389 -9.7760677 -0.57411921 35
-16.059711 -8.485239 -0.67332739 55
-9.8120193 -4.3030891 -0.46029454 55
-15.407656 -9.6315145 -0.88708937 62
-16.036097 -8.4727621 -0.9933669 39
-9.7884378 -4.2927475 -0.64811146 46
-7.814436 -4.8848996 -0.6132316 0
-16.039289 -8.4744492 -1.3146435 41
-9.7801075 -4.2890944 -0.83672613 49
-7.7094426 -4.8192668 -0.76585686 1
-16.023428 -8.4660692 -1.6339687 50
-9.7578535 -4.2793345 -1.0233295 45
-7.6799812 -4.8008504 -0.92333621 0
-9.0544748 -4.7839832 -1.1045295 1
-8.895648 -4.7000656 -1.2635043 4
-8.8643808 -4.6835461 -1.4364972 3
-8.8163977 -4.6581936 -1.606969 4
-8.8463736 -4.6740313 -1.7894129 5
-9.0850143 -4.8001184 -2.0209322 2
-8.8596725 -4.6810579 -2.1483459 3
-8.0649538 -4.2611637 -2.1174281 6
-7.39781 -3.9086747 -2.0899854 5
-5.1001067 -2.6946702 -1.984355 5
-3.625469 -1.915537 -1.9113526 3
-2.337256 -1.2141078 0.69523662 5
-3.195909 -1.6601425 0.69592792 10
-5.3188276 -2.7629111 0.83850992 21
-6.1532497 -3.1963589 0.60200536 14
-15.828271 -8.2221317 0.91759884 33
-15.882756 -8.2504349 0.60405141 34
-9.8287287 -4.2288504 0.297566 47
-11.293378 -6.9504514 0.29074132 10
-14.746917 -7.6604133 0.26627627 3
-9.8246756 -4.2271066 0.10827278 45
-12.133992 -7.4678035 0.060179055 6
-14.482566 -7.5230937 -0.027059572 7
-9.8102026 -4.2208796 -0.080524549 38
-15.706145 -9.6662664 -0.2478621 30
-16.105316 -8.366045 -0.351006 42
-9.7816448 -4.2085924 -0.26880091 20
-15.679528 -9.6498852 -0.57312351 36
-16.093725 -8.3600245 -0.67229015 45
-9.8051119 -4.2186894 -0.45857766 53
-15.675268 -9.6472635 -0.89859736 72
-16.077131 -8.3514051 -0.99227309 44
-9.785161 -4.2101049 -0.64593256 50
-7.9299245 -4.8804317 -0.6196056 0
-16.062653 -8.3438835 -1.3117523 40
-9.7731819 -4.2049513 -0.83360171 28
-7.8413405 -4.825913 -0.77559376 0
-16.064463 -8.3448238 -1.6321727 60
-9.7399435 -4.19065 -1.0183582 26
-7.7302542 -4.7575455 -0.92536467 0
-9.2746973 -4.817822 -1.1272634 1
-9.0585556 -4.7055445 -1.2819459 4
-9.0374107 -4.6945615 -1.4591907 0
-8.9433212 -4.6456857 -1.6241524 3
-9.036027 -4.6938419 -1.8211026 2
-9.0904379 -4.7221065 -2.0147567 2
-8.9025478 -4.624505 -2.1508615 6
-8.0841312 -4.1993713 -2.1147144 5
-7.4214721 -3.8551476 -2.089016 5
-5.115437 -2.657258 -1.9830537 5
-3.6387527 -1.8901815 -1.9113526 3
-2.3594525 -1.2047963 0.69932026 9
-3.1934302 -1.6306463 0.69289225 10
-5.3203459 -2.7167037 0.8357389 21
-6.1505709 -3.1406374 0.59958351 15
-15.881729 -8.1096134 0.91739333 26
-12.023514 -6.1395106 0.45563582 1
-9.8211708 -4.1445885 0.29645401 34
-11.338206 -6.8693671 0.29065365 7
-16.157154 -8.2502518 0.29069293 25
-9.8318338 -4.1490884 0.10802983 47
-12.312412 -7.4595995 0.060804158 8
-14.712856 -7.5127573 -0.027391184 10
-9.821003 -4.1445174 -0.080373749 45
-15.74588 -9.5398006 -0.24743207 31
-16.141958 -8.2424927 -0.35054192 46
-9.7849979 -4.1293235 -0.26809433 48
-15.708903 -9.5173979 -0.57175452 36
-16.141014 -8.2420111 -0.67184561 52
-9.8011866 -4.1361547 -0.45703247 51
-15.711484 -9.5189619 -0.89684188 64
-16.127928 -8.2353296 -0.99183559 42
-9.7812052 -4.1277227 -0.64375359 51
-8.0559692 -4.8807907 -0.62677634 0
-16.106298 -8.2242842 -1.3105958 40
-9.7655573 -4.121119 -0.83047724 49
-7.9668846 -4.8268175 -0.78465915 0
-16.097492 -8.2197876 -1.6296583 47
-9.7726288 -4.1241035 -1.0187407 47
-7.8824015 -4.7756329 -0.93956357 0
-9.5524969 -4.8777471 -1.1568606 0
-9.225502 -4.7107754 -1.300886 2
-9.3661842 -4.7826114 -1.506847 2
-9.1373205 -4.6657476 -1.6534278 3
-9.1772852 -4.6861544 -1.8429333 1
-9.1791105 -4.6870866 -2.0271077 2
-8.9415817 -4.5657983 -2.1525385 6
-8.1063099 -4.139287 -2.1129055 4
-7.4447489 -3.8014774 -2.0880466 5
-5.1338634 -2.6214807 -1.9830537 5
-3.6712332 -1.8746247 -1.9214923 3
-2.371263 -1.1900296 0.70034117 5
-3.2117567 -1.6118354 0.69441009 8
-5.3285613 -2.6741638 0.83407629 19
-6.1474152 -3.0851095 0.59716165 15
-15.941527 -8.0003319 0.91759884 29
-12.194712 -6.1199741 0.46049306 4
-9.8350878 -4.0698071 0.29600921 44
-11.35841 -6.7736583 0.28995222 11
-16.192909 -8.1264887 0.29030842 42
-9.8272991 -4.0665841 0.10766542 46
-12.505043 -7.4574604 0.061496843 10
-14.972301 -7.5139203 -0.027775854 10
-9.8201313 -4.0636182 -0.080132477 45
-15.777743 -9.4091558 -0.24689452 32
-16.174088 -8.1170425 -0.35000047 46
-9.791419 -4.0517368 -0.26748869 47
-15.768095 -9.4034014 -0.57150561 37
-16.1803 -8.1201601 -0.67110467 47
-9.8039751 -4.0569324 -0.45583066 54
-15.750104 -9.3926735 -0.89528149 71
-16.181459 -8.1207428 -0.99161685 42
-9.7876492 -4.0501766 -0.64230096 50
-8.2063961 -4.8939352 -0.63580614 0
-16.145496 -8.1026936 -1.3091501 38
-9.7719822 -4.0436935 -0.82860261 49
-8.1236286 -4.8445764 -0.79674631 0
-16.12956 -8.094696 -1.627144 42
-9.7533541 -4.0359855 -1.0137693 49
-9.6551924 -5.7579346 -1.1460567 0
-16.130037 -8.0949364 -1.9465455 48
-9.4390726 -4.7370434 -1.3263056 1
-9.647069 -4.8414278 -1.5465606 1
-9.3143816 -4.6744666 -1.6795212 4
-9.3962955 -4.7155757 -1.8802568 1
-9.3940172 -4.7144322 -2.0672483 1
-8.9627533 -4.4980001 -2.150023 6
-8.1454573 -4.0878367 -2.1156189 3
-7.4884491 -3.7581139 -2.0928934 5
-5.1588011 -2.588969 -1.9856561 5
-3.67451 -1.8440703 -1.9164225 2
-2.3760445 -1.1717354 0.69932026 5
-3.2158866 -1.5858997 0.69289225 7
-5.3328891 -2.6298897 0.83185947 23
-6.1580815 -3.0368297 0.59612375 15
-15.96833 -7.8747091 0.91595477 27
-12.409242 -6.1195607 0.46696937 6
-9.8410301 -3.992028 0.29534203 45
-11.370934 -6.6739535 0.28907543 5
-16.234901 -8.0061674 0.29005209 32
-9.8183851 -3.9828422 0.10726051 50
-12.705137 -7.4570394 0.062223319 14
-15.23964 -7.5153589 -0.028173789 10
-9.8111954 -3.9799259 -0.079830885 44
-15.812004 -9.2805557 -0.24641074 33
-16.216013 -7.9968529 -0.34969109 51
-9.8009396 -3.9757652 -0.26698402 46
-15.809223 -9.278923 -0.57063442 37
-16.222254 -7.9999304 -0.67051196 51
-9.8098392 -3.9793756 -0.45480055 55
-15.784284 -9.264286 -0.89352602 83
-16.209103 -7.9934449 -0.98986679 42
-9.7934866 -3.9727421 -0.64084834 53
-15.778538 -9.2609138 -1.2174333 43
-16.183781 -7.980957 -1.3077046 39
-9.774107 -3.9648805 -0.82641548 49
-8.3463163 -4.8987122 -0.81521285 0
-16.171387 -7.9748449 -1.6257073 45
-9.7517757 -3.9558218 -1.01071 48
-8.126771 -4.7698541 -0.96065915 0
-16.168322 -7.9733343 -1.9444008 51
-9.6178541 -4.7430005 -1.346741 2
-9.6273651 -4.7476912 -1.5380505 1
-9.5415869 -4.70539 -1.7145245 1
-9.5596514 -4.7142982 -1.9063127 1
-9.8913479 -4.8778729 -2.1691442 4
-9.0009518 -4.4387784 -2.1517 4
-8.1772928 -4.0325942 -2.1165235 4
-7.5040612 -3.7005935 -2.0899854 6
-5.1767497 -2.5528905 -1.9856561 5
-3.6872945 -1.8183725 -1.9164225 1
-2.3702447 -1.1483737 0.69523662 9
-3.2233455 -1.5616976 0.69213331 5
-5.3297286 -2.5822315 0.82853425 19
-6.1432695 -2.9763889 0.59266394 16
-15.976182 -7.7403941 0.91328317 27
-12.642339 -6.1251612 0.47412029 6
-9.8463659 -3.9143648 0.29467484 44
-11.40686 -6.5884066 0.2888124 6
-16.268803 -7.8821683 0.28966758 32
-9.8236494 -3.905334 0.10701756 51
-12.878118 -7.43818 0.062814631 12
-15.486124 -7.5029631 -0.028531931 10
-9.8350248 -3.9098563 -0.079800732 42
-15.855628 -9.157939 -0.24608821 30
-16.249853 -7.8729868 -0.34922701 43
-9.8470354 -3.9146311 -0.26748869 24
-15.842458 -9.1503315 -0.56951427 42
-16.252527 -7.8742824 -0.66947472 49
-9.8150997 -3.9019353 -0.4537704 54
-15.820899 -9.1378803 -0.89196563 62
-16.239351 -7.8678989 -0.98833555 42
-9.8061419 -3.8983738 -0.63987994 49
-15.818613 -9.1365595 -1.2155743 46
-16.21397 -7.8556013 -1.3056806 40
-9.801548 -3.8965478 -0.82641548 36
-8.421731 -4.8642473 -0.81924188 0
-16.226667 -7.861753 -1.6257073 42
-9.8309546 -3.9082382 -1.0160637 22
-8.9593201 -5.1747494 -1.0547777 1
-16.212856 -7.8550615 -1.943114 50
-16.190512 -7.8442364 -2.2593548 44
-9.8135004 -4.7546005 -1.562446 1
-9.8087616 -4.7523046 -1.7565285 1
-11.116048 -5.3856792 -2.2091255 2
-9.9569492 -4.824101 -2.1760917 3
-9.0387602 -4.3792419 -2.1533773 4
-8.2017393 -3.9737086 -2.1156189 4
-7.5401907 -3.6531913 -2.0928934 7
-5.1910419 -2.5150385 -1.984355 5
-3.6998992 -1.792586 -1.9164225 1
-2.3921728 -1.1384462 0.69932026 5
-3.2235308 -1.5340934 0.68985653 4
-5.3404722 -2.5415559 0.82742584 21
-6.1638989 -2.9334283 0.59266394 15
-16.004581 -7.6166553 0.91184461 28
-12.861672 -6.1209297 0.48073155 3
-9.9442434 -3.8731003 0.29678759 19
-11.421287 -6.490828 0.28802329 4
-16.312599 -7.7632427 0.28947532 37
-9.984849 -3.8889153 0.10847524 20
-13.089702 -7.4390044 0.063591793 20
-16.296612 -7.7556338 -0.029924702 19
-10.018622 -3.9020693 -0.081067406 20
-15.891357 -9.0312128 -0.24565817 32
-16.293587 -7.7541947 -0.34899494 46
-10.060429 -3.9183521 -0.27253565 21
-15.888575 -9.0296307 -0.568892 39
-16.285448 -7.7503209 -0.66858566 46
-9.9351969 -3.8695769 -0.45806262 24
-15.853046 -9.0094404 -0.89021015 74
-16.272245 -7.7440376 -0.987023 45
-9.9744949 -3.8848827 -0.64907986 20
-15.871602 -9.0199852 -1.2147775 56
-16.264814 -7.7405009 -1.3053916 38
-10.014307 -3.9003885 -0.84203774 21
-8.5455837 -4.8565378 -0.82797152 0
-16.252378 -7.7345834 -1.6228337 61
-10.024959 -3.904537 -1.0332721 18
-8.9052753 -5.0609546 -1.04423 1
-16.252935 -7.734848 -1.9413983 55
-16.212627 -7.7156653 -2.254869 42
-14.81616 -7.0510798 -2.3510444 1
-12.66584 -6.0277324 -2.2605758 1
-11.14271 -5.3028674 -2.2070129 1
-6.7760258 -3.2247424 -1.4759444 7
-6.7594557 -3.2168565 -1.6049703 51
-8.2222443 -3.9130046 -2.1138101 4
-7.562007 -3.5987945 -2.091924 8
-5.2153044 -2.4819877 -1.9869574 4
-3.7090499 -1.7651542 -1.9147326 0
-2.3965588 -1.1200805 0.69829935 4
-3.2199304 -1.5049 0.68682086 2
-5.3257866 -2.4891145 0.822438 25
-6.1625671 -2.8802009 0.59058803 15
-16.064602 -7.5081186 0.91225559 30
-16.105667 -7.5273108 0.60000372 36
-10.146627 -3.8705616 0.3020139 21
-11.452358 -6.4031334 0.28767258 4
-16.34466 -7.6390095 0.28909078 29
-10.194876 -3.8889663 0.1104593 23
-13.284458 -7.4274797 0.064284474 26
-16.324993 -7.6298175 -0.029878277 33
-10.23248 -3.9033113 -0.082575358 21
-15.936561 -8.9102983 -0.2453894 31
-16.336454 -7.6351743 -0.3487629 47
-10.274346 -3.9192815 -0.27758262 19
-15.919814 -8.9009352 -0.56777191 40
-16.328295 -7.6313605 -0.66814113 52
-10.141196 -3.8684897 -0.46630362 25
-15.898117 -8.8888035 -0.8892349 57
-16.315058 -7.625174 -0.98636675 46
-10.187898 -3.8863046 -0.66118509 19
-15.906315 -8.8933868 -1.2126528 55
-16.300385 -7.6183167 -1.3039459 41
-10.227588 -3.9014449 -0.85765994 22
-15.885233 -8.8816004 -1.5330567 31
-16.291544 -7.6141844 -1.6213969 61
-10.256584 -3.9125059 -1.0543047 21
-8.7285147 -4.8802042 -1.0194833 0
-16.295731 -7.6161408 -1.9401114 54
-16.266098 -7.6022916 -2.254869 42
-14.818393 -6.9256773 -2.3436689 5
-12.732656 -5.9508657 -2.2650306 1
-6.8810391 -3.2159936 -1.3584327 1
-6.7059269 -3.1341515 -1.455874 12
-6.7250571 -3.1430922 -1.5915537 152
-6.7703366 -3.1642544 -1.7348256 4
-7.5131164 -3.5114079 -2.0715671 4
-5.2256513 -2.4423144 -1.984355 5
-3.7409894 -1.7484275 -1.9248723 0
-2.39729 -1.100096 0.69625753 9
-3.233928 -1.484022 0.68757981 2
-5.3070297 -2.4353507 0.81689596 9
-6.1535497 -2.8238118 0.58782023 16
-16.102106 -7.3891196 0.91143358 30
-16.146925 -7.4096866 0.59959894 34
-10.364433 -3.8709786 0.30768502 19
-11.468749 -6.3076077 0.28697115 4
-16.375782 -7.5147071 0.28870627 21
-10.409125 -3.8876705 0.11248384 23
-13.51123 -7.4309359 0.065129213 21
-9.841259 -4.5160699 -0.017953495 12
-10.450581 -3.9031537 -0.084113464 18
-15.973846 -8.7853308 -0.24501312 31
-16.374821 -7.5142665 -0.34845352 48
-10.451296 -3.9034207 -0.28162017 2
-15.953541 -8.7741632 -0.56677622 36
-16.370275 -7.5121803 -0.66769654 53
-10.370116 -3.8731012 -0.47557473 22
-15.942282 -8.767971 -0.88825965 44
-16.357004 -7.5060902 -0.98571044 27
-10.409276 -3.8877268 -0.67377448 20
-15.940037 -8.766736 -1.2105281 48
-9.7937746 -4.4942799 -0.78092194 17
-10.43389 -3.89692 -0.87265724 12
-15.908433 -8.7493553 -1.5293634 43
-16.329823 -7.4936166 -1.6199602 77
-10.376899 -3.8756344 -1.0638651 0
-8.5078344 -4.6791577 -0.98986834 0
-16.330433 -7.4938965 -1.9379667 51
-9.7681799 -4.4825344 -1.3497316 11
-9.738183 -4.4687691 -1.5352138 33
-7.0168467 -3.2199712 -1.2442076 0
-6.8317494 -3.1350317 -1.3443483 0
-6.6919732 -3.0708895 -1.4481546 12
-6.6864061 -3.0683348 -1.5772985 11
-6.6931052 -3.0714092 -1.7094997 8
-7.2058992 -3.3067257 -1.9804453 2
-5.2391372 -2.4041955 -1.9830537 6
-1.2751989 -0.58517796 -0.65401721 0
-2.4084373 -1.0849224 0.69727844 6
-3.2263045 -1.4533451 0.6837852 0
-4.8615813 -2.1899841 0.74595791 6
-6.1476789 -2.7693288 0.58539832 15
-9.8413086 -4.4331889 0.55528605 30
-9.8414259 -4.4332418 0.36429277 40
-12.036073 -4.3998117 0.35638976 2
-11.508986 -6.2254839 0.28688347 5
-9.8129463 -4.4204125 0.17245474 34
-15.357244 -5.6138725 0.16552699 33
-13.731653 -7.4277773 0.065940157 19
-9.8032513 -4.4160452 -0.017827483 36
-16.803944 -6.1427164 -0.13490124 36
-16.013681 -8.6621809 -0.2446906 32
-9.819663 -4.4234385 -0.20829862 43
-16.791559 -6.1381893 -0.45129886 35
-15.989791 -8.6492577 -0.56590503 36
-9.8147583 -4.4212289 -0.39904723 55
-16.781429 -6.1344862 -0.76761538 48
-15.98202 -8.6450539 -0.88708937 62
-9.7995186 -4.4143634 -0.58866996 52
-16.777363 -6.1329999 -1.0831717 55
-15.972768 -8.640049 -1.2084035 51
-9.7848969 -4.4077773 -0.77774161 48
-16.753078 -6.1241226 -1.3975639 36
-15.969128 -8.6380796 -1.5293634 39
-9.7854528 -4.4080276 -0.96766579 70
-8.2758427 -3.0252516 -0.84627366 1
-8.6102962 -4.6575131 -0.99798203 0
-9.7793684 -4.4052868 -1.1568606 61
-9.759429 -4.3963046 -1.3442489 50
-9.7438688 -4.3892951 -1.5312425 41
-6.945538 -3.1287386 -1.2276607 4
-6.7996163 -3.0630054 -1.3337851 0
-6.6559916 -2.9983072 -1.4358037 17
-6.6613045 -3.0007005 -1.5663974 10
-7.1969619 -3.2419968 -1.9717208 1
-5.2557926 -2.3675632 -1.9830537 5
-1.2296693 -0.55392599 -0.62866771 0
-2.401433 -1.0626651 0.69319481 5
-5.2793927 -2.3361995 1.1156096 19
-4.948451 -2.1897533 0.75704199 5
-6.1659102 -2.7284949 0.58539832 15
-9.8412704 -4.3548889 0.55364197 31
-9.8230867 -4.3468428 0.36253878 36
-12.091337 -4.329329 0.35716814 34
-11.546494 -6.1471372 0.28679579 12
-9.8274183 -4.3487597 0.1721984 25
-15.382839 -5.5078578 0.16540551 42
-13.967746 -7.4361663 0.066835582 20
-9.8140345 -4.3428369 -0.01779432 34
-16.840544 -6.0297923 -0.13487108 42
-16.039005 -8.538866 -0.2442068 28
-9.8085556 -4.3404126 -0.2074478 52
-16.831896 -6.0266957 -0.45129886 41
-16.036217 -8.5373821 -0.56553167 35
-9.8036566 -4.3382444 -0.39741728 54
-16.81798 -6.0217128 -0.76744372 41
-16.0249 -8.5313568 -0.88630915 49
-9.7847509 -4.3298788 -0.58604491 47
-16.802629 -6.0162168 -1.0822033 53
-16.015629 -8.5264206 -1.2073412 47
-9.7810812 -4.3282547 -0.77513945 48
-16.797077 -6.0142288 -1.3978764 37
-15.990883 -8.5132465 -1.5260059 33
-9.7853279 -4.3301339 -0.96479225 52
-8.1870127 -2.9313772 -0.83518374 0
-15.975306 -8.5049534 -1.8450497 35
-9.7647305 -4.3210192 -1.1517133 54
-9.7557077 -4.3170266 -1.339763 46
-6.9191895 -3.0618308 -1.2193872 6
-6.7585692 -2.9907541 -1.3218135 0
-6.6326613 -2.9350383 -1.4265404 21
-6.641717 -2.9390454 -1.5571735 11
-6.6345277 -2.9358642 -1.6841738 0
-7.1615248 -3.1690671 -1.9562107 1
-5.2575436 -2.3265309 -1.9778489 6
-1.2896774 -0.57069892 -0.65739715 0
-2.4229834 -1.0520352 0.69727844 8
-5.2703567 -2.2883363 1.1102972 32
-5.061727 -2.1977513 0.7720055 6
-6.1519103 -2.6710982 0.58228451 14
-9.8531122 -4.2781229 0.55261439 32
-9.8165236 -4.2622366 0.36118954 36
-12.121267 -4.2448096 0.35716814 2
-16.1029 -8.4291315 0.39849797 33
-9.824522 -4.2657094 0.17162162 28
-15.420916 -5.400331 0.16540551 40
-14.182335 -7.4238033 0.067612737 24
-9.8074236 -4.258285 -0.017727999 35
-16.882229 -5.912076 -0.13487108 38
-16.080509 -8.4174109 -0.24393803 31
-9.805603 -4.2574949 -0.20675166 51
-16.862238 -5.9050746 -0.45099604 40
-16.074175 -8.4140959 -0.56478494 34
-9.8043709 -4.2569599 -0.39623183 52
-16.848293 -5.9001918 -0.76692867 40
-16.048672 -8.4007454 -0.88435864 81
-9.7890959 -4.2503276 -0.5845136 50
-16.844221 -5.8987656 -1.0822033 48
-16.053547 -8.4032974 -1.2057477 55
-9.7817831 -4.2471528 -0.77282649 47
-16.827364 -5.8928628 -1.396939 35
-16.035801 -8.3940086 -1.5246629 35
-9.7933941 -4.2521939 -0.96263707 51
-8.1772156 -2.8636217 -0.83212447 1
-16.009613 -8.3803005 -1.8422099 42
-9.7764187 -4.2448235 -1.1495686 52
-9.7310009 -4.2251034 -1.3322867 27
-7.2966514 -3.1681333 -1.13978 1
-6.9512634 -3.0181692 -1.2212964 6
-6.7287192 -2.9215426 -1.3119544 9
-6.6241894 -2.8761568 -1.4203649 14
-6.6405482 -2.8832598 -1.5521423 13
-6.6262703 -2.8770604 -1.6769378 0
-7.1763549 -3.1159017 -1.9542719 1
-5.2875361 -2.2957954 -1.9830537 4
-1.3468386 -0.58478385 -0.68443662 1
-2.4373853 -1.038125 0.69932026 6
-5.2789769 -2.2484086 1.1087793 36
-5.2883344 -2.252394 0.80414927 14
-6.1520767 -2.6202769 0.5805546 15
-9.8423109 -4.1920123 0.55035383 29
-9.8313284 -4.1873345 0.36064985 16
-12.16952 -4.1665597 0.35772413 2
-16.140018 -8.3055277 0.3979719 29
-9.8209457 -4.1829123 0.17104486 28
-15.450674 -5.2899504 0.16532452 52
-14.429436 -7.4252748 0.068541951 19
-9.8185129 -4.1818762 -0.017694838 36
-16.911741 -5.7901855 -0.1347806 38
-16.117544 -8.2939625 -0.24361549 32
-9.8056517 -4.1763983 -0.20613287 37
-16.918184 -5.7923918 -0.4513998 38
-16.093422 -8.2815495 -0.56341588 37
-9.8007536 -4.1743121 -0.39489821 30
-16.889074 -5.7824249 -0.76692867 47
-16.096273 -8.2830162 -0.88377351 41
-9.796483 -4.172493 -0.58320111 49
-16.884993 -5.7810273 -1.0822033 54
-16.101175 -8.2855396 -1.2049509 52
-9.7744913 -4.1631265 -0.76993525 52
-16.856775 -5.7713666 -1.3960017 37
-16.072748 -8.2709103 -1.5226483 35
-9.7605324 -4.1571813 -0.95653081 38
-8.151804 -2.7909875 -0.82753557 1
-16.060652 -8.2646856 -1.8413986 45
-9.7436132 -4.1499753 -1.1422765 42
-9.7383518 -4.1477342 -1.3292961 27
-7.3586636 -3.1341834 -1.1460207 0
-6.9685321 -2.9680195 -1.22066 7
-6.7235932 -2.8636959 -1.307025 10
-6.6404963 -2.8283033 -1.419593 14
-6.6425238 -2.8291669 -1.5479496 12
-6.5995922 -2.8108816 -1.6651794 0
-6.9265823 -2.9501524 -1.880599 0
-5.3243146 -2.2677186 -1.9908611 5
-1.3442173 -0.57252562 -0.68105668 1
-2.4445734 -1.0210835 0.69932026 5
-5.2583065 -2.1963627 1.1011902 46
-5.3477945 -2.2337413 0.81079972 21
-6.1555119 -2.5711198 0.5791707 17
-9.8234186 -4.1031823 0.54768217 17
-9.8381891 -4.1093516 0.3598403 38
-12.186936 -4.077693 0.35739055 3
-16.183332 -8.1854258 0.39762118 32
-9.8240747 -4.1034565 0.17059626 30
-15.483435 -5.1806865 0.16528404 41
-14.698652 -7.434484 0.069572531 20
-9.8179407 -4.100894 -0.017641779 36
-16.944164 -5.6694398 -0.13472028 42
-16.164347 -8.1758232 -0.24345423 34
-9.8161182 -4.1001334 -0.20574614 55
-16.939251 -5.6677957 -0.4508951 40
-16.143709 -8.1653843 -0.56316698 38
-9.8185911 -4.1011662 -0.39445367 57
-16.929031 -5.6643763 -0.76692867 46
-16.143011 -8.1650314 -0.88318837 44
-9.7995758 -4.0932231 -0.58166981 53
-16.921154 -5.6617403 -1.0819613 54
-16.144381 -8.1657238 -1.2038885 49
-9.7849102 -4.0870976 -0.76848966 53
-16.908003 -5.65734 -1.396939 39
-16.122982 -8.1549015 -1.5219768 37
-9.7929935 -4.0904737 -0.95688999 60
-8.1559858 -2.7289555 -0.82600588 1
-16.107306 -8.1469717 -1.8401815 41
-9.7613401 -4.0772524 -1.1409897 54
-9.7597475 -4.0765872 -1.3282993 54
-7.212297 -3.0125327 -1.1199232 4
-6.9344234 -2.8964665 -1.2111137 6
-6.7070885 -2.8015101 -1.2999828 10
-6.6238642 -2.7667477 -1.4118736 15
-6.6476774 -2.7766945 -1.5445954 13
-6.5974832 -2.7557287 -1.6597524 2
-6.667697 -2.7850566 -1.8049873 0
-5.3155847 -2.2202876 -1.9817525 8
-1.4050527 -0.586882 -0.70978612 3
-2.4480634 -1.0025266 0.69829935 5
-5.2662425 -2.1566224 1.0996723 44
-5.3449287 -2.1888459 0.8080287 19
-6.1585603 -2.5220428 0.5777868 16
-9.8444309 -4.0314741 0.54727113 30
-9.8481407 -4.0329933 0.3591657 38
-12.211307 -3.9912705 0.35727933 3
-16.218597 -8.0615654 0.39709511 30
-9.8228731 -4.022646 0.17008357 29
-15.534433 -5.077436 0.165446 61
-14.943619 -7.4278283 0.070484847 20
-9.8167181 -4.0201249 -0.017588722 42
-16.987135 -5.5522518 -0.13475044 42
-16.203123 -8.053874 -0.24318546 34
-9.8074932 -4.0163474 -0.20497265 58
-16.974606 -5.5481567 -0.45079416 37
-16.193161 -8.0489216 -0.56291807 38
-9.8025942 -4.0143414 -0.39267552 56
-16.960567 -5.5435686 -0.76658529 59
-16.178154 -8.0414629 -0.88201803 44
-9.8057365 -4.0156279 -0.58035725 52
-16.971653 -5.5471911 -1.0826875 55
-16.165255 -8.0350513 -1.2012328 55
-9.7910538 -4.0096149 -0.76675493 54
-16.947086 -5.5391622 -1.396939 44
-16.1474 -8.0261765 -1.518955 38
-9.7881317 -4.0084186 -0.95365727 70
-8.1445627 -2.6620536 -0.82294661 1
-16.145973 -8.0254669 -1.8381531 41
-9.7748451 -4.0029774 -1.1392739 59
-9.7622604 -3.9978235 -1.3248104 52
-6.932549 -2.8390052 -1.2072951 7
-6.7046204 -2.7456644 -1.2957574 8
-6.6139617 -2.7085381 -1.4056981 17
-6.6270876 -2.7139132 -1.5353713 29
-6.6021376 -2.7036958 -1.6561344 4
-6.6546559 -2.725203 -1.7962629 0
-5.3309555 -2.1831236 -1.9817525 9
-1.4963466 -0.61278123 -0.75372523 9
-1.8053602 -0.72465199 0.51351547 3
-5.2738814 -2.1168787 1.0981545 36
-5.3343453 -2.1411486 0.80414927 19
-6.1575265 -2.4715643 0.5760569 15
-9.8352642 -3.9477684 0.54521608 28
-9.8315363 -3.9462721 0.3575466 40
-12.242683 -3.9071376 0.35739055 2
-16.260111 -7.9411225 0.3967444 34
-9.8210249 -3.9420528 0.16957088 33
-15.577123 -4.971293 0.16552699 138
-15.246706 -7.4461956 0.071667477 20
-9.8222723 -3.9425535 -0.017548928 37
-17.025482 -5.4335237 -0.13475044 49
-16.240986 -7.9317822 -0.24291669 32
-9.805603 -3.9358628 -0.20435387 54
-16.993879 -5.4234376 -0.45028946 39
-16.220219 -7.9216404 -0.56192243 40
-9.8044147 -3.9353857 -0.39163828 61
-17.002663 -5.4262409 -0.76675695 46
-16.208769 -7.916049 -0.88065273 42
-9.7927589 -3.9307075 -0.57795095 45
-16.998556 -5.4249301 -1.0819613 47
-16.192266 -7.907989 -1.1991081 52
-9.803998 -3.9352188 -0.76559842 55
-16.989141 -5.4219255 -1.3972515 43
-16.199457 -7.9115014 -1.5186193 44
-9.7973919 -3.9325669 -0.95186126 56
-8.1553621 -2.6027074 -0.82218182 1
-16.190882 -7.9073129 -1.836936 41
-9.7767191 -3.924269 -1.1362712 56
-7.5100346 -3.0144465 -1.016286 5
-7.1838388 -2.8835151 -1.1091437 0
-6.9155517 -2.7758274 -1.2009308 8
-6.7017007 -2.68999 -1.2915322 5
-6.6144981 -2.6549878 -1.4018384 18
-6.6240945 -2.6588397 -1.5303401 31
-6.5955405 -2.6473784 -1.6498029 6
-6.6230989 -2.6584401 -1.7826915 0
-5.346067 -2.1458533 -1.9817525 9
-1.5275046 -0.61312377 -0.76724499 32
-1.8175735 -0.71486169 0.51555729 5
-5.2848763 -2.0785711 1.0973955 33
-5.3344178 -2.0980558 0.80193245 22
-6.1635056 -2.4241409 0.57501894 16
-9.8551493 -3.8760848 0.54480505 24
-9.9034901 -3.8950975 0.3591657 18
-12.254391 -3.8168163 0.35694575 3
-16.2827 -7.8118515 0.39595529 41
-9.9339113 -3.9070623 0.17104486 14
-15.599993 -4.8588552 0.16540551 60
-9.9537849 -3.9148786 -0.017734632 15
-17.055365 -5.3121524 -0.13469012 39
-16.274323 -7.8078327 -0.24259417 34
-9.8365631 -3.8687747 -0.20443122 47
-17.058052 -5.3129897 -0.45099604 40
-16.267914 -7.8047576 -0.56167352 37
-9.8874483 -3.888788 -0.39386097 25
-17.032499 -5.3050308 -0.76641357 48
-16.242023 -7.7923369 -0.87948239 44
-9.9166002 -3.9002538 -0.58363861 21
-17.028391 -5.303751 -1.081477 53
-16.23988 -7.7913079 -1.1985769 49
-9.9611759 -3.9177856 -0.77571774 21
-17.022774 -5.302002 -1.396939 43
-16.229137 -7.7861538 -1.516269 44
-9.8209 -3.8626142 -0.95150208 48
-8.1429214 -2.5362368 -0.81912249 1
-16.234922 -7.7889304 -1.835719 40
-9.8630915 -3.8792083 -1.1431344 23
-7.1853704 -2.8260458 -1.1063071 0
-6.9200616 -2.7216985 -1.1983851 8
-6.6763453 -2.6258435 -1.2830815 3
-6.6146097 -2.6015627 -1.3979787 17
-6.6315761 -2.6082356 -1.5278245 30
-6.5667238 -2.5827286 -1.6380445 11
-6.634274 -2.6092966 -1.7807528 0
-5.3573976 -2.107094 -1.9804513 8
-1.5283738 -0.60111791 -0.76555502 10
-1.8008659 -0.69381368 0.50943184 7
-5.2736044 -2.0317442 1.0920831 33
-5.3526301 -2.0621903 0.80248666 21
-6.161685 -2.3738921 0.57328904 15
-10.049712 -3.8718195 0.55405295 16
-10.113232 -3.8962917 0.36577693 18
-12.276914 -3.7300093 0.35683456 2
-16.33684 -7.6979861 0.39595529 39
-10.143816 -3.9080746 0.17418505 14
-15.610572 -4.7428517 0.16516256 17
-15.754441 -7.4235578 0.073559687 13
-10.186162 -3.9243894 -0.018099405 15
-17.107342 -5.1976047 -0.13481076 39
-16.313963 -7.6872063 -0.24237914 42
-10.038729 -3.867588 -0.20806658 25
-17.075598 -5.1879601 -0.45049134 38
-16.300304 -7.6807709 -0.5609268 36
-10.097124 -3.8900857 -0.40112174 25
-17.076767 -5.1883159 -0.76675695 52
-16.281572 -7.6719437 -0.87870222 45
-10.122481 -3.8998549 -0.59413886 22
-17.061182 -5.1835804 -1.0812349 55
-16.279434 -7.6709366 -1.1975145 50
-10.174423 -3.9198666 -0.79017389 21
-17.059374 -5.1830311 -1.396939 38
-16.268677 -7.6658673 -1.514926 39
-10.011194 -3.8569801 -0.96730655 43
-8.160429 -2.4793265 -0.81912249 1
-16.270906 -7.6669178 -1.8336905 39
-7.9008121 -3.04392 -0.9132207 2
-7.4736166 -2.8793356 -1.0058191 0
-7.1531959 -2.7558882 -1.0983644 0
-6.9388928 -2.6733243 -1.1983851 7
-6.6945133 -2.5791731 -1.2830815 1
-6.6106353 -2.5468578 -1.393347 17
-6.6313744 -2.5548477 -1.5236318 24
-6.5736856 -2.5326223 -1.6353309 15
-6.612493 -2.5475736 -1.7700895 1
-5.3755059 -2.0710034 -1.9817525 7
-1.491936 -0.57479328 -0.74527544 5
-1.8237586 -0.68805021 0.51453638 8
-5.2656136 -1.9865602 1.0875297 32
-5.3483648 -2.0177798 0.79971564 20
-6.1408229 -2.316751 0.56982923 11
-10.270851 -3.8748887 0.56473947 16
-10.342168 -3.901794 0.37306279 16
-12.329492 -3.652159 0.35761294 1
-16.361149 -7.570312 0.39525387 38
-10.369181 -3.9119854 0.17758159 13
-15.650973 -4.6360259 0.16524354 5
-16.350412 -7.5653448 0.076093897 26
-10.419149 -3.9308372 -0.018464178 18
-17.154716 -5.0814543 -0.13490124 39
-16.345453 -7.5630498 -0.24205662 30
-10.245092 -3.8651705 -0.2117793 22
-17.134405 -5.075438 -0.45109698 37
-16.328129 -7.5550342 -0.56005555 37
-10.322253 -3.8942811 -0.40897527 22
-17.120235 -5.0712409 -0.76710033 44
-16.331108 -7.5564122 -0.87850714 44
-10.343781 -3.9024026 -0.60551411 22
-17.10461 -5.0666127 -1.0817192 54
-16.328968 -7.5554223 -1.1972491 49
-10.37698 -3.9149277 -0.80376267 21
-17.087494 -5.0615425 -1.3963141 43
-16.303709 -7.543735 -1.5132473 37
-10.23543 -3.8615251 -0.9863438 34
-8.1699028 -2.4200337 -0.81835771 1
-16.287918 -7.5364289 -1.8296337 26
-7.910708 -2.9844763 -0.91193384 1
-7.4675426 -2.8172832 -1.0023302 0
-7.1759658 -2.7072797 -1.0989317 0
-6.9130492 -2.608089 -1.1907481 7
-6.6755161 -2.5184748 -1.2760394 0
-6.6135659 -2.4951029 -1.3902593 17
-6.6344113 -2.5029674 -1.5202776 23
-6.5839152 -2.4839165 -1.6335219 9
-6.6119628 -2.4944983 -1.7652427 2
-5.3933725 -2.03476 -1.9830537 6
-1.509481 -0.56948251 -0.75203526 5
-1.8248895 -0.67396134 0.51351547 7
-5.2867217 -1.9524722 1.0890474 32
-5.3511729 -1.976275 0.79805303 18
-6.1643233 -2.2765846 0.57052118 13
-10.387589 -3.8363049 0.56967169 22
-13.538029 -4.9998136 0.48707294 18
-12.335477 -3.5604553 0.35705695 0
-9.8452473 -4.4722195 0.23708218 1
-16.789307 -6.2005634 0.2867837 27
-15.675269 -4.5244374 0.16516256 4
-9.8147488 -4.4583654 0.045531318 26
-16.802694 -6.2055078 -0.029699206 32
-17.178242 -4.9582486 -0.13481076 39
-9.8030262 -4.4530406 -0.14470717 38
-10.448151 -3.8586719 -0.21541466 16
-17.188627 -4.961246 -0.45160168 36
-9.7918835 -4.4479795 -0.33478877 42
-16.772436 -6.1943326 -0.66280663 45
-17.151381 -4.9504952 -0.76692867 42
-9.8031616 -4.4531021 -0.52566093 11
-16.755091 -6.1879268 -0.9782728 45
-17.1434 -4.9481916 -1.0819613 54
-9.7822771 -4.4436154 -0.71494997 38
-16.74754 -6.1851382 -1.2938266 39
-17.11475 -4.9399223 -1.3956892 35
-9.7729416 -4.4393744 -0.90418786 44
-10.44152 -3.8562229 -1.0035851 14
-8.2019005 -2.3673587 -0.81988734 1
-9.7606039 -4.4337702 -1.0929121 49
-7.8753905 -2.9085095 -0.9054997 0
-7.4870291 -2.7650814 -1.0023302 0
-7.1464047 -2.6392834 -1.0915563 0
-6.9199748 -2.5556591 -1.1888388 7
-6.6781602 -2.4663532 -1.2732226 0
-6.6050515 -2.4393528 -1.3848557 22
-6.6443858 -2.4538796 -1.5186005 29
-6.5901303 -2.4338422 -1.6308085 9
-6.6328568 -2.4496217 -1.766212 1
-5.4109941 -1.998368 -1.984355 5
-1.4964151 -0.55265039 -0.74358547 5
-1.8331876 -0.66251934 0.51453638 7
-5.2706757 -1.9048375 1.0829761 37
-5.357388 -1.9361757 0.79694462 20
-6.1688237 -2.2294309 0.56948328 13
-10.451687 -3.7772701 0.57172674 18
-14.03505 -5.0723081 0.50366849 18
-12.309993 -3.4601848 0.35561138 0
-9.8360529 -4.3854647 0.23611772 31
-16.824661 -6.080482 0.28665555 27
-15.733427 -4.4224696 0.165446 3
-9.8346748 -4.3848505 0.045480631 60
-16.841846 -6.0866923 -0.029692573 34
-17.212439 -4.838201 -0.13481076 39
-9.7973461 -4.368207 -0.14416963 36
-16.812393 -6.0760474 -0.34574634 44
-17.215145 -4.8389616 -0.4513998 35
-9.7825317 -4.3616018 -0.33341974 45
-16.807755 -6.0743713 -0.66251028 53
-17.185524 -4.8306355 -0.76692867 45
-9.7975206 -4.3682852 -0.52371043 45
-16.790371 -6.0680885 -0.9778353 42
-17.173683 -4.8273072 -1.0817192 49
-9.7802544 -4.3605866 -0.7125597 49
-16.797815 -6.0707798 -1.2944049 39
-17.168015 -4.8257136 -1.3972515 45
-9.7636509 -4.3531837 -0.90049458 42
-16.751348 -6.0539861 -1.6059517 87
-8.2028952 -2.3057311 -0.81835771 1
-9.7549753 -4.3493161 -1.0888551 53
-7.8693228 -2.843996 -0.90249711 0
-7.4725571 -2.700604 -0.99784434 0
-7.1646566 -2.5893278 -1.0915563 0
-6.904223 -2.4952061 -1.183111 8
-6.6767006 -2.4129791 -1.2697015 0
-6.6182294 -2.3918474 -1.3840839 21
-6.6466427 -2.4021158 -1.5152464 29
-6.5849748 -2.3798292 -1.6253815 9
-6.6242485 -2.3940227 -1.7594264 2
-5.4176993 -1.9579723 -1.9817525 6
-1.5070561 -0.54465449 -0.74696535 5
-1.8742317 -0.66259611 0.5247454 8
-5.2875481 -1.8693038 1.0837351 39
-5.355835 -1.8934453 0.79472786 22
-6.1541805 -2.175684 0.56671542 12
-10.474036 -3.7028801 0.57152128 15
-15.276237 -5.4005995 0.54684395 21
-16.988934 -4.6476474 0.48982742 30
-9.8444471 -4.3070717 0.23559165 42
-15.396097 -5.4429736 0.2616621 21
-15.79864 -4.3220201 0.16581042 6
-9.8320665 -4.3016548 0.04532858 47
-16.857531 -5.9596334 -0.029646149 33
-17.253511 -4.7200284 -0.13487108 37
-9.8092804 -4.2916861 -0.14390086 37
-16.854401 -5.9585271 -0.34574634 45
-17.240793 -4.7165489 -0.45119792 41
-9.7907648 -4.2835851 -0.33267301 45
-16.845982 -5.9555502 -0.6623621 48
-17.214975 -4.7094855 -0.76675695 55
-9.7875156 -4.2821636 -0.52156484 46
-16.832323 -5.9507217 -0.9778353 40
-17.226221 -4.7125626 -1.0829296 53
-9.770236 -4.2746038 -0.7096383 48
-16.817221 -5.9453821 -1.2926701 41
-17.197441 -4.7046885 -1.396939 41
-9.7645903 -4.2721334 -0.89780855 45
-16.804472 -5.9408755 -1.6070292 81
-8.1880684 -2.2400026 -0.81529844 1
-9.7559357 -4.2683468 -1.0856097 53
-7.8664889 -2.7810354 -0.89992344 0
-7.4687777 -2.6404328 -0.99485379 0
-7.1489606 -2.5273678 -1.0864503 0
-6.921474 -2.4469447 -1.183111 7
-6.6711097 -2.3584335 -1.2654761 0
-6.6162643 -2.3390441 -1.3802241 19
-6.6448131 -2.3491371 -1.5110537 23
-6.5940814 -2.3312018 -1.6235725 10
-6.6151891 -2.3386641 -1.7526407 0
-5.4383688 -1.9226234 -1.984355 6
-1.4971491 -0.52928627 -0.74020553 6
-1.9153646 -0.66213143 0.53495449 8
-5.2819104 -1.8259284 1.0799404 36
-5.3539476 -1.8508313 0.79251105 22
-6.1654534 -2.1313646 0.56636941 9
-10.442999 -3.6100895 0.56843859 16
-16.639763 -5.7522779 0.59420198 33
-17.051878 -4.5371547 0.49071699 33
-9.8485518 -4.2271986 0.2349779 42
-16.907919 -5.8449783 0.28665555 30
-15.801372 -4.2044206 0.16552699 3
-9.8324518 -4.2202883 0.045193423 49
-16.883604 -5.8365722 -0.029619619 33
-17.29764 -4.6025467 -0.13496155 41
-9.8022499 -4.2073245 -0.14336331 19
-16.884249 -5.8367953 -0.3455143 48
-17.277166 -4.5970993 -0.45129886 40
-9.7873659 -4.2009363 -0.33155289 31
-16.868259 -5.8312678 -0.66162121 49
-17.255157 -4.5912428 -0.76710033 53
-9.7878008 -4.2011228 -0.52000445 48
-16.865908 -5.8304553 -0.9773978 46
-17.258701 -4.592186 -1.0829296 54
-9.7778349 -4.1968455 -0.70804477 38
-16.862089 -5.8291349 -1.2929592 43
-17.249132 -4.5896401 -1.3985013 42
-9.7648754 -4.1912827 -0.89512247 19
-16.838009 -5.8208103 -1.6063108 67
-8.2035065 -2.1827848 -0.81529844 1
-9.7598991 -4.189147 -1.08277 49
-7.8631606 -2.7182529 -0.89734977 0
-7.4907804 -2.5895231 -0.99535227 0
-7.2001109 -2.4890404 -1.0915563 0
-6.9271917 -2.3946936 -1.1812017 8
-6.7022977 -2.3169489 -1.268293 0
-6.6287241 -2.2915149 -1.3794522 22
-6.6573544 -2.3014121 -1.510215 19
-6.5954657 -2.2800176 -1.6199545 16
-6.6166835 -2.2873526 -1.7487632 0
-5.4337845 -1.8784305 -1.9778489 9
-1.5008079 -0.5188213 -0.74020553 6
-1.8835224 -0.63570553 0.5247454 8
-5.2877111 -1.7846494 1.0784227 37
-5.3523569 -1.806468 0.79029423 20
-6.1733599 -2.0835638 0.56567746 10
-10.514601 -3.5487711 0.57090473 19
-16.692844 -5.6339831 0.59460676 32
-12.47379 -3.2212965 0.35828012 2
-9.8350382 -4.1362872 0.23392576 44
-16.950312 -5.72088 0.28665555 33
-15.847258 -4.0924783 0.16568895 4
-9.8299398 -4.1341429 0.045041371 53
-16.948673 -5.7203274 -0.029659413 34
-17.338659 -4.4776258 -0.13502187 42
-9.8033323 -4.1229525 -0.14293328 39
-16.92658 -5.7128711 -0.3455143 44
-17.337502 -4.4773269 -0.45200545 37
-9.784729 -4.1151285 -0.33043277 44
-16.921913 -5.7112956 -0.66206574 49
-17.299957 -4.4676313 -0.76761538 47
-9.7962379 -4.1199689 -0.51883417 47
-16.911978 -5.7079425 -0.97761655 40
-17.288033 -4.4645519 -1.0826875 46
-9.7899418 -4.117321 -0.70671684 51
-16.911924 -5.7079244 -1.2935375 40
-17.282312 -4.4630747 -1.3985013 41
-9.7769661 -4.1118641 -0.8934437 43
-16.883997 -5.6984987 -1.60667 57
-8.2771149 -2.1375253 -0.82103455 1
-9.7683363 -4.1082344 -1.0803359 53
-7.8640342 -2.6541812 -0.89520508 0
-7.5659676 -2.5535812 -1.0028286 0
-7.1768947 -2.4222658 -1.0853156 0
-6.9445596 -2.3438504 -1.1812017 9
-6.6929865 -2.2589424 -1.2633635 1
-6.6304684 -2.2378418 -1.3763645 29
-6.6592226 -2.2475467 -1.5068609 24
-6.6009259 -2.2278712 -1.617241 12
-6.6259189 -2.2363064 -1.7468244 0
-5.4438243 -1.8373389 -1.9765476 8
-1.518311 -0.51244342 -0.74696535 6
-1.9356633 -0.63828576 0.53801721 8
-5.2702031 -1.7378515 1.0723513 42
-5.3610759 -1.7678168 0.78974003 21
-6.1953244 -2.0429106 0.56636941 7
-10.520151 -3.4690239 0.56987721 16
-16.74316 -5.5210638 0.59501153 31
-12.48434 -3.1312165 0.35794654 0
-9.8340998 -4.0553288 0.23322433 45
-16.963249 -5.5936379 0.28620693 28
-15.863804 -3.9788249 0.16556747 7
-9.8289785 -4.0532169 0.04490621 53
-16.976799 -5.5981059 -0.029639516 33
-17.369497 -4.3564701 -0.13502187 39
-9.805994 -4.0437388 -0.142557 38
-16.954657 -5.5908051 -0.34528226 45
-17.341187 -4.34937 -0.45129886 37
-9.7799549 -4.0330009 -0.32931268 48
-16.961372 -5.593019 -0.66206574 49
-17.330725 -4.346746 -0.76761538 50
-9.7989063 -4.0408163 -0.51746881 45
-16.947622 -5.5884848 -0.9773978 47
-17.334272 -4.3476353 -1.083656 54
-9.788929 -4.0367017 -0.70459217 53
-16.947571 -5.5884681 -1.2932484 43
-17.316919 -4.3432827 -1.3988136 41
-9.7685862 -4.0283127 -0.89008617 46
-16.927153 -5.5817351 -1.6070292 39
-8.3265944 -2.0884058 -0.82447624 1
-9.7710266 -4.0293193 -1.0774961 52
-7.8785954 -2.5979698 -0.89477611 0
-7.4893808 -2.4696262 -0.99036801 0
-7.197391 -2.3733425 -1.085883 0
-6.949502 -2.2916009 -1.1792924 8
-6.7235513 -2.2170937 -1.2661804 0
-6.6384749 -2.1890397 -1.3748206 19
-6.6636081 -2.1973274 -1.5043453 12
-6.6163187 -2.1817336 -1.617241 23
-6.6376843 -2.1887789 -1.745855 0
-5.4529262 -1.7981045 -1.9752464 7
-1.5080791 -0.49728966 -0.74020553 6
-1.9732045 -0.63542616 0.54720533 7
-5.2784691 -1.6998123 1.0715923 43
-5.3770576 -1.7315607 0.79029423 19
-6.1790905 -1.9898373 0.56360161 8
-10.551718 -3.3979437 0.57028818 15
-16.769882 -5.4003639 0.59460676 34
-17.136845 -4.1711736 0.49049461 30
-9.8399239 -3.9775872 0.23269826 46
-17.024729 -5.4824314 0.28659144 30
-15.891194 -3.8679776 0.16556747 6
-9.8273668 -3.9725113 0.044771053 51
-17.015467 -5.4794488 -0.029639516 34
-17.407261 -4.2369938 -0.13508219 42
-9.8080263 -3.9646935 -0.14218071 38
-17.004696 -5.4759803 -0.3455143 44
-17.378899 -4.2300906 -0.45150074 38
-9.7930431 -3.9586368 -0.32881483 46
-17.000006 -5.4744701 -0.66206574 47
-17.387829 -4.232264 -0.76881725 47
-9.8046513 -3.9633293 -0.51629847 44
-16.974819 -5.4663591 -0.97674149 42
-17.364202 -4.2265134 -1.083656 52
-9.7835674 -3.9548066 -0.70220196 53
-16.974781 -5.4663467 -1.292381 40
-17.354568 -4.2241683 -1.3994385 40
-9.7632093 -3.9465773 -0.8870644 46
-16.958126 -5.4609833 -1.6063108 29
-8.3564463 -2.0339909 -0.82600588 1
-9.7694016 -3.9490802 -1.0742506 53
-7.8549004 -2.5294943 -0.89005774 0
-7.4799953 -2.4087644 -0.98687905 0
-7.1647882 -2.3072593 -1.0785075 0
-6.9653311 -2.2430284 -1.1792924 8
-6.7238741 -2.1652725 -1.2633635 0
-6.6498594 -2.141438 -1.3740486 29
-6.6564493 -2.1435599 -1.4993141 14
-6.6202621 -2.1319067 -1.6145275 20
-6.6638846 -2.1459544 -1.7487632 0
-5.4725471 -1.7623109 -1.9778489 8
-1.5253179 -0.4911944 -0.74696535 6
-2.0144875 -0.63323379 0.55741441 7
-5.2714729 -1.6570342 1.0677978 34
