# .PCD v0.7 - Point Cloud Data file format
VERSION 0.7
FIELDS x y z intensity
SIZE 4 4 4 4
TYPE F F F F
COUNT 1 1 1 1
WIDTH 1387
HEIGHT 1
VIEWPOINT 0 0 0 1 0 0 0
POINTS 1387
DATA ascii
6.4906273 -3.5314598 -0.79697698 22
8.8968277 -4.8406396 -1.2719774 1
9.5995026 -5.2229552 -1.56585 1
8.6166086 -4.6881766 -1.5808756 3
7.8478384 -4.2698994 -1.5978661 3
7.2122803 -3.9241009 -1.6148931 4
6.6786666 -3.633769 -1.6301267 4
6.1880503 -3.3668318 -1.6353309 4
5.7814293 -3.1455948 -1.64407 6
4.3192434 -2.3500402 -1.6915812 7
3.2451196 -1.7656243 -1.7220763 9
5.5738578 -3.0832841 1.6814313 18
3.9349 -2.1766639 0.86896122 3
7.5082479 -4.1533284 1.2004048 20
13.787805 -7.6269827 1.3680054 22
13.782943 -7.6242933 0.810323 35
6.5415931 -3.6186051 0.25230649 1
13.81722 -9.0142088 0.45880318 33
6.5409775 -3.6182647 0.11977626 2
13.838603 -9.0281591 0.16726808 29
6.5001521 -3.002116 0.030241579 43
6.5418081 -3.6187241 -0.012395672 32
13.869068 -9.0480347 -0.12485828 31
6.474206 -2.9901326 -0.095844314 0
13.898537 -9.0672598 -0.41889739 31
6.4898038 -2.9973366 -0.22252874 46
6.5128427 -3.6027012 -0.27591011 48
9.1541128 -5.9720469 -0.46956569 0
6.4562073 -2.9818199 -0.34718978 3
6.5075626 -3.5997806 -0.40732199 0
8.7946405 -5.7375312 -0.63673258 2
6.4894905 -2.9971919 -0.47565949 0
6.521215 -3.6073325 -0.54008228 58
8.7872152 -5.7326865 -0.82204127 1
6.4736519 -2.9898767 -0.60066545 43
8.7704372 -5.7217412 -1.0057386 0
6.488369 -2.9966738 -0.72860801 0
6.4971347 -3.594012 -0.80083746 20
8.8003044 -4.8680539 -1.2630059 2
9.5697346 -5.2936783 -1.5669848 1
8.5767574 -4.7443943 -1.5796027 3
7.8316188 -4.3322072 -1.600683 4
7.1847086 -3.9743564 -1.6148931 4
6.6599798 -3.684093 -1.6318038 4
6.1814413 -3.4193804 -1.6398535 4
5.769515 -3.1915154 -1.6469781 5
4.2994218 -2.3783059 -1.6902801 7
3.2263689 -1.7847266 -1.7186964 9
5.5623102 -3.1278086 1.684494 20
3.9161851 -2.2021565 0.86820233 4
7.4687104 -4.1998191 1.1987422 19
13.650859 -7.6761765 1.3597019 23
13.792055 -7.7555742 0.81402218 30
6.5301094 -3.6720235 0.25284618 7
13.840625 -9.1678581 0.4616943 34
6.4702992 -3.0433133 0.15676884 0
6.5364752 -3.6756032 0.12016077 18
13.845266 -9.1709328 0.1681184 29
6.5007529 -3.0576372 0.030342948 60
6.5512514 -3.683912 -0.012461994 7
13.868924 -9.1866035 -0.1254313 33
6.4893661 -3.0522816 -0.096381858 0
6.4803171 -3.6440239 -0.14379026 0
13.914908 -9.217062 -0.42131993 31
6.4868102 -3.0510793 -0.22315103 40
6.5084376 -3.659837 -0.2767992 67
9.1921587 -6.0887718 -0.47368619 0
6.4641557 -3.0404236 -0.34875017 2
6.5240493 -3.6686156 -0.40994704 7
8.8142881 -5.8384752 -0.64109045 2
6.4792433 -3.0475202 -0.47645622 0
6.5132594 -3.6625483 -0.54152787 40
8.7203836 -5.7762737 -0.81954169 1
6.4670486 -3.0417845 -0.60200846 69
6.5039582 -3.6573181 -0.67276835 0
8.823225 -5.8443947 -1.0164461 1
6.5069008 -3.060529 -0.73307055 25
6.4892182 -3.6490293 -0.80298221 32
8.7522678 -4.9215918 -1.2610121 2
9.5394478 -5.3642402 -1.5681194 1
8.5503111 -4.8080268 -1.5808756 3
7.7771587 -4.3732667 -1.5957534 3
7.1773129 -4.0359602 -1.6195247 4
6.6409159 -3.7343323 -1.6334808 4
6.1472306 -3.4567223 -1.6371399 4
5.743711 -3.2298145 -1.6460088 6
4.2926044 -2.4138255 -1.6941837 7
3.2201509 -1.8107613 -1.7220763 9
5.5336223 -3.1627264 1.6824522 18
3.9314029 -2.2469823 0.8750326 4
7.4495263 -4.2577558 1.2004048 3
13.472383 -7.7001028 1.3472465 20
13.800002 -7.8873525 0.81772137 31
13.81733 -7.8972564 0.53712946 31
13.82937 -9.2999601 0.4634735 32
6.4885707 -3.107409 0.15773331 25
13.851202 -7.9166155 0.25563803 27
13.847285 -9.312007 0.16892822 35
13.870835 -9.3278437 -0.12603448 29
6.4931512 -3.1096027 -0.096758142 24
6.5068011 -3.7189438 -0.14495048 0
13.916585 -9.3586092 -0.42333871 31
6.4473228 -3.0876553 -0.22252874 0
9.3874626 -5.3653779 -0.40082538 1
9.278759 -6.2397699 -0.480382 0
6.4607892 -3.0941045 -0.34972543 43
8.8874531 -5.0795989 -0.5606693 1
8.8196974 -5.9310603 -0.64447993 1
6.4866076 -3.1064692 -0.47858089 38
8.7770443 -5.0164952 -0.73263836 1
8.7493362 -5.8837438 -0.82610303 1
6.4887948 -3.1075165 -0.60603756 0
6.5024781 -3.7164731 -0.67528272 0
8.7656889 -5.8947406 -1.0145341 1
6.4997325 -3.1127546 -0.73469329 43
8.6940737 -4.9690733 -1.0800797 6
8.7211409 -4.9845438 -1.2615105 1
9.5189543 -5.4405317 -1.5709561 1
8.5302496 -4.8754401 -1.5834213 3
7.7806234 -4.4469934 -1.6027956 4
7.1489615 -4.085969 -1.6195247 4
6.6146832 -3.7806036 -1.6334808 4
6.1330962 -3.5053542 -1.6398535 4
5.7243915 -3.27176 -1.6469781 5
4.2723637 -2.4418576 -1.6928825 7
3.197988 -1.8278011 -1.7170064 9
3.932601 -2.284236 0.87882715 4
8.8000956 -5.1115007 1.4237489 18
13.308032 -7.729918 1.3361752 21
13.792964 -8.0115891 0.82059848 33
13.834456 -8.0356903 0.53996283 27
13.833458 -9.4436235 0.46580863 34
6.5026646 -3.1701567 0.15861008 36
13.847474 -8.043251 0.25659931 26
13.848007 -9.4535561 0.16973804 35
6.5005736 -3.1691372 0.030545685 0
10.494148 -6.0954852 -0.020122239 0
13.878055 -9.4740677 -0.12669799 32
6.5108299 -3.1741376 -0.097349443 41
10.042633 -5.8332243 -0.22461909 0
13.916963 -9.5006285 -0.42535749 33
6.5010781 -3.1693833 -0.22514234 0
9.4534721 -5.4910121 -0.40527079 0
13.855758 -9.458847 -0.72074467 35
6.4785337 -3.1583927 -0.35187098 40
8.834507 -5.1314888 -0.55957556 1
8.8638124 -6.0510182 -0.6507746 1
6.4826994 -3.1604235 -0.47990882 43
8.7694082 -5.0936766 -0.73495132 2
8.7739172 -5.9896498 -0.83235192 0
6.4884386 -3.1632214 -0.60805207 0
8.7017679 -5.0543876 -0.90732133 5
8.7933798 -6.0029364 -1.0225648 1
6.4921503 -3.165031 -0.73631603 65
8.6557331 -5.0276489 -1.0796508 3
8.8920441 -5.1649094 -1.2914159 0
9.4670458 -5.4988966 -1.5686867 1
8.496006 -4.9348722 -1.5834213 3
7.759604 -4.5071359 -1.6049082 4
7.1338387 -4.143662 -1.6226125 4
6.6016579 -3.834547 -1.636835 4
6.1084762 -3.5480845 -1.6398535 4
5.7081232 -3.315541 -1.648917 6
4.2617545 -2.4754236 -1.6954849 7
3.1851501 -1.850082 -1.7170064 9
3.0109155 -1.7771056 0.92289859 10
3.9334695 -2.3216164 0.88262177 5
8.8119574 -5.2010026 1.4315077 25
13.219424 -7.802382 1.3327154 16
13.79174 -8.1401749 0.82388663 44
13.833105 -8.1645889 0.54212159 27
13.829635 -9.5832386 0.46792141 35
6.4947033 -3.2225862 0.15896079 56
13.839204 -8.168189 0.25749651 26
13.85071 -9.5978432 0.17058834 34
6.5105386 -3.2304435 0.030697737 1
10.423781 -6.1523347 -0.020069182 0
13.877328 -9.6162882 -0.12730116 32
6.4956775 -3.2230697 -0.097456954 14
10.018887 -5.9133573 -0.22500584 0
13.912744 -9.6408291 -0.42727536 32
6.4967003 -3.223577 -0.22576462 24
9.4424467 -5.5731306 -0.4064562 0
13.851794 -9.5985947 -0.72400677 39
6.4777994 -3.2141988 -0.35304129 42
8.8294239 -5.2113113 -0.56154436 1
9.0445118 -6.2673903 -0.66723764 31
6.4819293 -3.216248 -0.48150232 42
8.7714272 -5.1770806 -0.7381317 2
8.803997 -6.1007257 -0.83922571 0
6.4804792 -3.2155285 -0.60939509 24
8.6662693 -5.1150141 -0.90732133 3
8.8756199 -6.1503568 -1.0370963 1
8.6341228 -5.0960402 -1.0813665 1
8.7703228 -5.1764288 -1.2789553 1
9.4386559 -5.5708928 -1.5703888 1
8.4647484 -4.9960723 -1.5840577 2
7.7313399 -4.563199 -1.6056125 4
7.1081171 -4.1953602 -1.6233844 4
6.5747266 -3.8805418 -1.636835 4
6.1036901 -3.6025262 -1.6452804 4
5.6948638 -3.3612282 -1.6518251 6
4.2378545 -2.5012705 -1.6928825 7
3.1846454 -1.8796446 -1.7237662 8
3.0017521 -1.8000712 0.9239195 13
3.9272697 -2.3550797 0.88489848 5
8.8060083 -5.2807302 1.4364955 22
13.089444 -7.8493929 1.3251038 27
13.78939 -8.2691317 0.82717478 47
13.830624 -8.2938585 0.54428041 26
13.837619 -9.7324581 0.47047895 34
13.843582 -8.30163 0.25865006 27
13.852074 -9.7426243 0.17143865 34
6.498539 -3.2812257 0.030748421 35
13.865924 -8.3150272 -0.026807547 29
13.86875 -9.7543526 -0.12784402 33
10.066534 -6.036634 -0.22701688 0
13.900705 -9.7768288 -0.42899132 33
6.5025887 -3.2832704 -0.22676028 36
9.396452 -5.6348038 -0.40615985 0
13.866169 -9.7525377 -0.72829896 38
8.8168039 -5.2872038 -0.5630756 1
13.892703 -9.7712002 -1.0299089 29
6.4842567 -3.2740142 -0.48336139 4
8.7556 -5.2505012 -0.73986644 2
8.8557863 -6.228569 -0.84828657 0
6.4863372 -3.2750647 -0.61208111 40
8.6645136 -5.1958795 -0.91091329 2
8.9008608 -6.2602715 -1.0451269 2
6.5006104 -3.2822714 -0.7424013 0
8.6256199 -5.1725559 -1.0847981 1
8.8394861 -5.3008056 -1.2944065 0
9.4266996 -5.6529422 -1.5749274 2
8.4635305 -5.0753551 -1.5904219 2
7.6959176 -4.6150379 -1.6049082 4
7.0752883 -4.2428627 -1.6226125 4
6.5508294 -3.9283588 -1.6376735 4
6.0650244 -3.6370347 -1.6416625 4
5.6779156 -3.4048955 -1.6537639 7
4.2267766 -2.5346861 -1.6954849 7
3.1745546 -1.9036963 -1.7254562 9
2.9759007 -1.8129351 0.91983587 4
3.9375644 -2.3987858 0.89096987 5
8.8264399 -5.3771162 1.445917 25
12.942439 -7.8846054 1.3157624 11
13.785908 -8.3984509 0.83046293 32
13.823595 -8.4214106 0.54630423 30
13.824662 -9.8683176 0.47236931 34
6.5059905 -3.3421891 0.16036364 0
13.846769 -8.4355288 0.25980359 26
13.852085 -9.8878927 0.17228897 34
6.4968219 -3.3374789 0.03084979 48
13.862191 -8.4449234 -0.026913662 30
13.884957 -9.9113579 -0.12862816 33
6.5034084 -3.3408628 -0.098263271 0
10.181252 -6.2024751 -0.23057491 0
13.913477 -9.931716 -0.4315148 34
6.5008469 -3.3395467 -0.22750703 50
9.3841944 -5.7169027 -0.40734529 0
13.862799 -9.8955402 -0.73173267 33
6.4713821 -3.3244104 -0.35518685 0
8.8001432 -5.3610959 -0.56438816 1
13.902142 -9.923624 -1.0357194 38
6.4754434 -3.3264968 -0.48442373 7
8.7834654 -5.3509355 -0.74535978 3
13.914334 -9.9323273 -1.3394492 24
6.4952245 -3.3366585 -0.61510295 38
8.651845 -5.2707515 -0.91342765 1
12.713419 -9.0750904 -1.500195 5
6.5093946 -3.3439379 -0.74605244 0
8.6096773 -5.2450628 -1.0873717 1
8.8090429 -5.3665175 -1.2954034 0
9.3903866 -5.720675 -1.5754948 2
8.4278917 -5.1343184 -1.5904219 2
7.666873 -4.6707015 -1.6056125 4
7.0589023 -4.3003221 -1.6257002 4
6.5432849 -3.9862053 -1.6427048 5
6.0428128 -3.6813149 -1.6425669 4
5.657321 -3.446471 -1.6547332 6
4.2122083 -2.5661006 -1.6967862 7
3.1518984 -1.920154 -1.7203863 9
3.0059257 -1.8601228 0.93310761 5
3.9374206 -2.4365492 0.89476442 5
8.8122673 -5.4531951 1.4497964 24
12.744757 -7.8866925 1.3012311 11
13.808467 -8.5449362 0.83539516 32
13.839257 -8.5639906 0.54927254 32
13.833144 -10.020887 0.47503808 35
6.5143976 -3.404197 0.16115275 19
13.852161 -8.5719757 0.26102123 24
13.857218 -10.038326 0.17322026 31
13.887935 -8.5941124 -0.027079469 27
13.886687 -10.059675 -0.12929165 32
6.5118299 -3.4028552 -0.09874706 23
10.124102 -6.2649822 -0.23026551 1
13.927996 -10.0896 -0.43413922 31
9.4120369 -5.8243437 -0.41030887 0
13.874284 -10.05069 -0.73602486 34
6.4975886 -3.3954134 -0.35791755 24
8.813447 -5.4539251 -0.56766945 1
13.90689 -10.07431 -1.0412878 38
6.4732862 -3.3827136 -0.48601723 41
8.756073 -5.4184213 -0.74622715 2
13.928618 -10.090051 -1.3475728 29
8.6453276 -5.3498893 -0.91666037 1
12.694895 -9.1963272 -1.5055487 3
6.4999986 -3.3966725 -0.74767518 45
8.6134329 -5.3301525 -1.092519 8
8.872611 -5.4905372 -1.310356 0
9.3704224 -5.7985921 -1.5788988 2
8.4019175 -5.1992626 -1.5923312 2
7.6374283 -4.7261829 -1.6063167 4
7.0453963 -4.3598223 -1.6295599 4
6.5053205 -4.0256133 -1.6401892 3
6.0302196 -3.7316122 -1.6461849 4
5.6496224 -3.4960916 -1.6595801 5
4.1974082 -2.5974343 -1.6980873 7
3.1538315 -1.9516495 -1.7288362 10
3.0033484 -1.8861889 0.93617034 9
3.9311516 -2.4688759 0.8970412 4
8.812808 -5.5346961 1.4558926 26
12.658422 -7.9498525 1.2977713 5
13.802236 -8.6681995 0.83847779 34
13.836322 -8.6896067 0.5514313 31
13.830829 -10.159756 0.47726205 35
6.5199323 -3.462332 0.16185418 40
13.866131 -8.7083273 0.26236704 26
13.854808 -10.17737 0.17403008 34
6.5108423 -3.457505 0.031137001 0
13.891604 -8.7243252 -0.027198849 28
13.890584 -10.20365 -0.12995516 34
6.513845 -3.4590995 -0.099123344 54
10.20425 -6.4085617 -0.23305005 2
13.922004 -10.22673 -0.43605706 35
6.5254035 -3.4652376 -0.22999616 0
9.4239769 -5.9185276 -0.41253155 0
13.881399 -10.196903 -0.73997372 35
6.496098 -3.4496753 -0.35908785 44
8.8075218 -5.5313764 -0.56963825 1
13.897689 -10.208869 -1.0456457 41
6.4965339 -3.4499066 -0.48946983 32
8.7064304 -5.4678879 -0.74507064 5
13.935311 -10.236506 -1.354759 26
6.4914432 -3.4472034 -0.61913198 0
8.6332712 -5.4219418 -0.91917473 1
12.694594 -9.3251076 -1.5128145 3
6.5089588 -3.4565048 -0.75132632 68
8.6014671 -5.4019675 -1.0955217 14
8.879694 -5.5767026 -1.3168355 0
9.3384657 -5.8648238 -1.5800334 2
8.3906584 -5.2695742 -1.5967861 2
7.6392598 -4.7976742 -1.6133589 3
7.0130029 -4.4043665 -1.628788 4
6.4884143 -4.0749102 -1.6427048 2
6.0218358 -3.7818856 -1.6507074 5
5.6230254 -3.5314209 -1.6586107 5
4.1768856 -2.6232038 -1.6967862 7
3.1285374 -1.9648112 -1.7220763 9
2.9998891 -1.9133493 0.93923306 4
3.933687 -2.5089316 0.9015947 6
8.8106928 -5.6195183 1.4619888 24
12.542137 -7.9994583 1.2915437 3
13.802007 -8.8030109 0.84217697 32
13.84947 -8.8332834 0.55439961 30
13.836506 -10.313412 0.47993079 36
6.5167136 -3.5191665 0.16238025 60
13.848833 -8.8328772 0.26320016 26
13.853973 -10.326431 0.17492087 33
6.5323 -3.5275834 0.031356633 1
13.884315 -8.8555088 -0.027304964 28
13.892774 -10.355352 -0.13064881 33
6.5141721 -3.5177939 -0.09949962 19
13.824417 -8.8173046 -0.3171275 40
13.920805 -10.376246 -0.43827772 33
6.5186419 -3.5202079 -0.23061843 24
9.4633102 -6.0357623 -0.41608787 0
13.880365 -10.346104 -0.74375081 37
6.492949 -3.5063329 -0.36025816 42
8.7956305 -5.6099114 -0.5713883 0
13.912516 -10.370068 -1.0521824 36
6.5003848 -3.5103483 -0.49159449 30
8.8765898 -5.6615477 -0.76299632 3
13.943443 -10.393121 -1.3625702 29
6.5022907 -3.5113776 -0.62248951 22
8.6422319 -5.5120726 -0.92420346 1
12.689841 -9.4587145 -1.5200803 4
6.491672 -3.5056434 -0.75213766 1
8.610486 -5.4918251 -1.1015269 19
8.9342365 -5.6983156 -1.3307915 0
9.3173227 -5.9426503 -1.5834374 2
8.3669834 -5.3365178 -1.5993319 2
7.6088991 -4.8530064 -1.614063 4
6.9953194 -4.4616613 -1.6318758 4
6.4532127 -4.1159019 -1.6410277 3
5.9985714 -3.8259287 -1.6516119 4
5.6015058 -3.5726774 -1.6595801 5
4.1616592 -2.6543341 -1.6980873 7
3.1300273 -1.9963522 -1.7305261 9
3.2818582 -2.1255679 1.0321355 6
3.9325573 -2.5470076 0.90538931 5
8.8344212 -5.7218075 1.4725187 24
13.833923 -8.9598455 1.4309738 30
13.797214 -8.9360695 0.84567058 31
13.827729 -8.9558344 0.55601871 30
13.850273 -10.474878 0.48293313 36
13.850613 -8.9706545 0.26441777 25
13.854918 -10.478391 0.17585216 34
6.5320582 -3.586576 0.031474896 37
13.896016 -9.000061 -0.027450874 27
13.887136 -10.502758 -0.13128215 35
13.822946 -8.9527359 -0.31851977 39
13.92457 -10.531069 -0.44070026 32
6.5254493 -3.5829473 -0.23173855 37
9.5886955 -6.21033 -0.42349684 0
13.877921 -10.495789 -0.74752796 41
8.8300028 -5.718946 -0.5762009 0
13.909839 -10.519927 -1.0575087 39
6.5072069 -3.5729308 -0.49398473 20
8.8401966 -5.7255487 -0.7632854 1
13.940517 -10.54313 -1.3694439 26
6.4985824 -3.5681953 -0.62450409 39
8.6269464 -5.5874319 -0.92671776 0
12.677485 -9.5879059 -1.5265813 3
6.494946 -3.5661988 -0.75538313 0
8.5986404 -5.5690989 -1.1049584 25
8.9541988 -5.7993846 -1.339763 1
9.275609 -6.0075526 -1.5834374 3
8.332839 -5.3969469 -1.5999683 2
7.5814438 -4.9102893 -1.6154715 4
6.9804721 -4.5210567 -1.6357354 3
6.4407353 -4.1714845 -1.6452204 3
5.9815269 -3.8740678 -1.6543254 4
5.5764275 -3.6116962 -1.6595801 6
4.1462021 -2.6853793 -1.6993886 7
3.1007993 -2.008301 -1.7220763 9
3.2403436 -2.1325586 1.0239682 7
3.9301841 -2.5865614 0.90918392 1
8.8154039 -5.8016582 1.4763981 21
13.82779 -9.1004457 1.4372014 26
13.79474 -9.0786943 0.84957528 28
13.841856 -9.1097031 0.55925685 28
13.827029 -10.617524 0.48482352 37
6.5110693 -3.6374221 0.16352007 0
13.85464 -9.1181164 0.26576358 26
13.860217 -10.643008 0.17690493 34
6.5370197 -3.6519194 0.031626947 56
13.896495 -9.1456623 -0.027583519 26
13.879569 -10.657868 -0.13194565 29
6.522521 -3.6438196 -0.10041345 0
13.830443 -9.1021919 -0.32022142 40
13.919945 -10.688872 -0.44302186 29
6.5164614 -3.6404343 -0.23236084 54
13.870281 -9.1284103 -0.61553741 39
13.873511 -10.653216 -0.75147676 46
6.4909353 -3.6261742 -0.36298886 0
8.8212061 -5.8054762 -0.57838845 1
13.908351 -10.67997 -1.0633192 36
6.5052319 -3.6341608 -0.4958438 35
8.8379803 -5.8165154 -0.76675493 0
13.941931 -10.705754 -1.377255 23
6.5070486 -3.6351759 -0.62786162 36
8.6456575 -5.6899428 -0.93318325 0
12.610019 -9.6830034 -1.5269637 3
6.5172663 -3.6408842 -0.76106274 1
8.6007729 -5.6604033 -1.1105347 31
9.2065058 -6.0590529 -1.3841227 1
9.2445526 -6.0840921 -1.5857068 2
8.2930536 -5.4578848 -1.5999683 3
7.5288 -4.9549088 -1.6119504 4
6.9307508 -4.5613165 -1.6318758 4
6.4099836 -4.218585 -1.6452204 3
5.9399486 -3.9092422 -1.6507074 4
5.5498023 -3.6524763 -1.6595801 7
4.1232462 -2.7136209 -1.6980873 6
3.0829659 -2.0289841 -1.7203863 9
3.1964357 -2.1357896 1.01478 7
5.6884465 -3.8008978 1.3220353 20
8.8175068 -5.8916688 1.4836028 23
13.823564 -9.2366085 1.443429 29
13.797453 -9.219162 0.85368544 33
13.844402 -9.2505331 0.56195533 28
13.837732 -10.780143 0.48782587 31
6.527246 -3.7064855 0.16457221 15
13.857158 -9.2590551 0.26704529 26
13.867617 -10.803423 0.1779577 40
6.5322347 -3.7093182 0.031728316 1
13.882197 -9.2757864 -0.027683003 24
13.886866 -10.818419 -0.13272978 33
10.214916 -5.8005223 -0.15787703 0
13.826418 -9.2385159 -0.3216137 41
13.914381 -10.839854 -0.44524252 28
13.866042 -9.2649918 -0.61820465 35
13.88392 -10.816124 -0.75611234 39
6.4967289 -3.6891563 -0.36474431 16
8.866806 -5.9246097 -0.58407611 0
13.905895 -10.833243 -1.0688876 37
6.4901137 -3.6853998 -0.49664056 5
8.7872076 -5.8714237 -0.76588756 0
13.958079 -10.873897 -1.3863159 24
8.7344437 -4.9598389 -0.8461023 1
8.6587229 -5.785573 -0.93893033 0
12.551536 -9.7781439 -1.5281109 2
8.7720852 -4.9812136 -1.0284083 1
8.6040344 -5.7490311 -1.1161109 34
9.1936827 -6.1430211 -1.3886086 1
9.215023 -6.1572804 -1.5879762 2
8.2580328 -5.5178404 -1.6006048 3
7.516943 -5.0226603 -1.6168799 4
6.9020023 -4.6117697 -1.6326476 4
6.3901334 -4.2697501 -1.6477361 2
5.9189925 -3.9549439 -1.6525164 4
5.5403028 -3.7019114 -1.664427 6
4.113637 -2.7486439 -1.701991 7
3.0657117 -2.0484428 -1.7186964 9
3.1526413 -2.1385131 1.0055919 6
5.6032701 -3.8008339 1.3083748 4
8.8155003 -5.9797683 1.4902532 20
13.834595 -9.3843422 1.4513866 26
13.812099 -9.3690825 0.85861766 26
13.835727 -9.3851099 0.56424904 29
13.815468 -10.918629 0.48971623 32
13.809445 -7.9696751 0.34957346 35
13.851758 -9.3959837 0.26819885 23
13.860897 -10.954532 0.17884851 34
10.563016 -6.0961027 0.051512055 0
13.88662 -9.419631 -0.02782228 26
13.892594 -10.979583 -0.13351391 31
10.14646 -5.855701 -0.157447 0
13.831087 -9.3819628 -0.32323802 46
13.9168 -10.998713 -0.44776598 33
9.8065739 -5.6595469 -0.35246164 0
13.873797 -9.4109344 -0.62146455 40
13.870781 -10.962343 -0.7595461 43
8.8814201 -6.0244827 -0.58779496 0
13.911373 -10.994424 -1.0751823 40
8.7872009 -5.0712485 -0.67511249 1
8.7922258 -5.9639807 -0.76993525 0
13.94753 -11.023 -1.3928772 21
8.7134142 -5.0286651 -0.84744531 1
8.6741695 -5.8839002 -0.94503659 0
12.470471 -9.8556519 -1.5265813 5
8.7439899 -5.0463109 -1.0292197 1
8.6229305 -5.849143 -1.123832 3
9.2195463 -6.2538424 -1.3990755 1
9.1750898 -6.2236862 -1.5885435 2
8.2323818 -5.5842247 -1.6031504 3
7.4914718 -5.0816469 -1.6189926 4
6.885879 -4.6708589 -1.6365074 4
6.3634057 -4.316453 -1.6485746 3
5.9009113 -4.0027313 -1.6552299 4
5.5143237 -3.7404997 -1.664427 6
4.0912175 -2.7751722 -1.7006898 7
3.0663381 -2.0799716 -1.7271461 9
3.1089661 -2.1407304 0.99640375 3
5.518374 -3.7997684 1.2947143 17
8.8094292 -6.0658793 1.4963495 22
13.831105 -9.5236378 1.4579601 29
13.792416 -9.4969978 0.86149484 32
13.822551 -9.5177479 0.5664078 26
13.838735 -11.094849 0.49327457 36
13.808665 -8.0982533 0.35097632 40
13.858294 -9.5423594 0.26960874 25
13.8621 -11.113581 0.17986077 41
10.489147 -6.1514835 0.05136 1
13.892999 -9.5662556 -0.027968189 26
13.881141 -11.128846 -0.13414726 31
10.184685 -5.972928 -0.15868336 0
13.834423 -9.5259228 -0.32486233 44
13.911433 -11.153132 -0.45008758 31
9.732338 -5.7076435 -0.35121706 0
13.873604 -9.5529013 -0.62442815 38
13.874978 -11.123906 -0.76400995 38
8.9018021 -5.2205663 -0.50381529 0
8.9411211 -6.156558 -0.59457636 0
13.905927 -11.148718 -1.0807507 37
8.7619114 -5.138526 -0.67590922 3
8.9541016 -6.1654959 -0.78786093 8
13.954241 -11.187452 -1.4013132 23
8.7090406 -5.1075191 -0.85046709 1
8.6689739 -5.9691663 -0.94898772 0
12.432428 -9.9673786 -1.5304054 3
8.7531719 -5.1334004 -1.0344936 1
8.6342936 -5.9452872 -1.130695 2
9.2148886 -6.3450646 -1.4050566 2
9.1444607 -6.2965708 -1.5908129 1
8.2159643 -5.657239 -1.6076053 2
7.4558125 -5.1338239 -1.6189926 4
6.8724971 -4.7321725 -1.641139 3
6.329895 -4.3585548 -1.6477361 3
5.8728232 -4.0438304 -1.6552299 4
5.5008607 -3.7877095 -1.6683046 6
4.0717435 -2.8036668 -1.7006898 6
3.0517423 -2.1013281 -1.7271461 8
5.2210326 -3.6490209 1.6814313 15
5.4369879 -3.7999539 1.2818127 27
8.8123245 -6.1590033 1.5041083 21
13.836138 -9.670187 1.4655718 27
13.810908 -9.6525536 0.86683804 30
13.844239 -9.675849 0.57005072 33
13.841595 -11.256783 0.49616572 35
13.799888 -8.2231197 0.35220382 55
13.863458 -9.6892805 0.27101862 24
13.867959 -11.278224 0.18095402 40
13.837442 -8.2454977 0.068035103 30
13.891447 -9.7088423 -0.028100835 26
13.886894 -11.293623 -0.13496155 32
10.314532 -6.146255 -0.16137108 0
13.836419 -9.6703835 -0.32648665 58
13.920094 -11.320623 -0.45291388 30
9.7815504 -5.8286605 -0.35445294 0
13.88193 -9.7021914 -0.62783629 38
13.886894 -11.293623 -0.76898891 33
8.9097557 -5.3091726 -0.50635093 0
13.896865 -9.7126293 -0.92861539 30
13.91139 -11.313545 -1.0872875 38
8.7909679 -5.238389 -0.68095529 4
9.0024014 -6.2918496 -0.79595637 41
13.93458 -11.332404 -1.4072497 24
8.6937151 -5.1804376 -0.8524816 1
8.7119894 -6.0888786 -0.95832676 0
12.39652 -10.081565 -1.5346119 3
8.8777895 -5.2901244 -1.0535607 2
8.6773291 -6.0646544 -1.1418476 0
10.191826 -7.123148 -1.5615616 1
9.1067705 -6.3647943 -1.5919476 1
8.1730318 -5.7121968 -1.606969 3
7.4230165 -5.188005 -1.6196969 4
6.845727 -4.784533 -1.6426829 4
6.3057232 -4.4071202 -1.6494131 4
5.857223 -4.0936599 -1.6588479 4
5.4774647 -3.8282435 -1.669274 6
4.0520706 -2.8320243 -1.7006898 6
3.0429409 -2.1267354 -1.7305261 9
5.1891222 -3.6809051 1.6793896 20
5.3718886 -3.8105505 1.2727057 28
8.8240414 -6.2593365 1.5135298 22
13.8333 -9.8126545 1.4724914 30
13.805093 -9.7926464 0.87074274 30
13.844829 -9.8208332 0.57288414 30
13.827443 -11.406575 0.49850088 34
13.80372 -8.3565378 0.35378203 39
13.86072 -9.8321056 0.27230033 24
13.875277 -11.446033 0.18208778 42
13.841133 -8.3791866 0.068339214 35
13.904894 -9.8634405 -0.02826664 28
13.887936 -11.456476 -0.13574569 35
10.233735 -6.1953292 -0.16077977 1
13.83055 -9.8107042 -0.32795626 37
13.877738 -11.448064 -0.45412517 38
9.7816629 -5.9216523 -0.35594642 0
13.882327 -9.8474321 -0.63094807 39
13.887862 -11.456416 -0.77345276 41
8.8998165 -5.3877974 -0.50791132 0
13.910165 -9.8671789 -0.93408424 34
13.902906 -11.468826 -1.0928559 52
8.8122263 -5.3347716 -0.68547022 4
13.930367 -9.8815098 -1.2377367 35
13.895116 -11.462399 -1.4113114 30
8.6846151 -5.2575183 -0.85516769 1
8.7732487 -6.2233067 -0.96982092 0
12.335049 -10.175465 -1.5357591 3
8.8542585 -5.3602171 -1.0551834 1
8.8423786 -6.2723436 -1.1693 0
10.18717 -7.2262716 -1.5685395 1
9.0556564 -6.4236321 -1.5908129 1
8.1426191 -5.7759686 -1.6088783 3
7.3866177 -5.2396994 -1.6196969 4
6.7961531 -4.8208532 -1.6388232 4
6.2811837 -4.4555593 -1.6510903 4
5.8189683 -4.127687 -1.6561344 4
5.4506059 -3.8663888 -1.669274 6
4.0352864 -2.8624315 -1.701991 6
3.0339341 -2.152122 -1.733906 10
5.1834326 -3.728791 1.6855149 21
5.2859235 -3.8025193 1.2582862 29
8.8241396 -6.3477955 1.5207344 23
13.845553 -9.9600353 1.4807949 31
13.807941 -9.9329786 0.87505841 31
13.84754 -9.9614649 0.57571751 30
13.80057 -11.539064 0.50028002 40
13.81273 -8.4876833 0.35544792 44
13.856894 -9.9681931 0.27351797 27
13.814403 -11.550632 0.18229023 44
13.84319 -8.5064011 0.068626426 36
13.894371 -9.9951534 -0.028379388 29
13.842337 -11.573987 -0.13604727 40
13.869326 -8.5224609 -0.21878091 32
13.836602 -9.9535971 -0.32965791 40
13.881269 -11.60654 -0.45674959 38
9.823926 -6.036633 -0.35893339 0
13.881608 -9.9859724 -0.63391167 39
13.826906 -11.561086 -0.77431124 54
8.8945227 -5.4655304 -0.5096668 0
13.902777 -10.001201 -0.93802184 38
13.869423 -11.596635 -1.0962453 52
8.7596483 -5.3826523 -0.68414229 3
13.935774 -10.024938 -1.2440975 32
13.892215 -11.615692 -1.4188101 32
8.6801186 -5.3337827 -0.85818946 0
12.745168 -9.1684542 -1.4155793 46
12.294785 -10.280034 -1.5392008 3
8.8490267 -5.4375739 -1.0588346 1
11.464004 -8.2468271 -1.5231783 4
10.119689 -7.2797713 -1.565549 1
9.0224972 -6.4904876 -1.5925149 1
8.1201601 -5.8413763 -1.6120603 3
7.370883 -5.3023705 -1.6239221 4
6.7863326 -4.8818645 -1.6442267 4
6.270545 -4.5108237 -1.6561215 4
5.8009534 -4.1730151 -1.6588479 4
5.4374442 -3.9115186 -1.6731515 6
4.0315657 -2.9001758 -1.708497 6
3.0078216 -2.163728 -1.7271461 10
5.1465912 -3.7598429 1.6824522 22
5.21351 -3.8087304 1.2476614 28
8.8381472 -6.4567094 1.5312643 22
13.833308 -10.105926 1.4873685 30
13.812173 -10.090485 0.87999064 35
13.85162 -10.119304 0.57895565 34
13.776586 -11.691662 0.50250399 40
13.821369 -8.6331978 0.35728917 33
13.867417 -10.130844 0.27518418 26
13.808652 -11.718876 0.18334299 38
13.844923 -8.6479101 0.06894742 36
13.907937 -10.160445 -0.028558459 28
13.833365 -11.739849 -0.13680126 40
13.860757 -8.6578007 -0.21964099 31
13.834311 -10.106658 -0.33135957 37
13.875084 -11.775254 -0.45937398 37
9.9455671 -6.2122679 -0.36503178 1
13.885499 -10.144053 -0.63746798 44
13.82101 -11.729363 -0.7787751 43
8.8745508 -5.5432825 -0.51083708 0
13.912942 -10.164103 -0.94370949 35
13.863192 -11.765162 -1.10254 50
8.7131853 -5.4424891 -0.68361109 3
13.929564 -10.176245 -1.250169 32
13.879665 -11.779142 -1.4263088 29
8.6712122 -5.4162717 -0.86121124 0
12.748387 -9.3133364 -1.4234816 182
12.243386 -10.390494 -1.5422601 4
8.8696804 -5.5402403 -1.066137 1
11.47068 -8.3799067 -1.5321862 3
10.098101 -7.3771687 -1.5705333 1
8.9842691 -6.5634589 -1.5942169 2
8.0930672 -5.9123912 -1.6152425 2
7.3445339 -5.3655505 -1.626739 4
6.7503648 -4.9314799 -1.6442267 4
6.2436266 -4.5612822 -1.6577985 4
5.7796464 -4.2223215 -1.6615614 4
5.3898234 -3.9375365 -1.6673352 6
4.0285234 -2.9430385 -1.7163044 7
2.9830976 -2.1793022 -1.7220763 10
5.126431 -3.8002877 1.684494 23
5.1457782 -3.81463 1.2377955 29
8.8278608 -6.5442042 1.5373605 22
13.852057 -10.268703 1.4970559 26
13.805574 -10.234245 0.88410085 29
13.844869 -10.263375 0.58165413 27
13.78251 -11.863201 0.50572872 38
13.808039 -8.7594662 0.35851666 34
13.863826 -10.277428 0.27653 24
13.805321 -11.882835 0.18439576 42
13.838255 -8.778635 0.069217741 39
13.907358 -10.309699 -0.028704369 26
13.829887 -11.903981 -0.13758539 37
13.860771 -8.7929182 -0.22060856 27
13.843735 -10.262534 -0.33329329 39
13.859214 -11.929224 -0.46159464 36
13.892447 -8.8130131 -0.51213968 31
13.865721 -10.278833 -0.63983881 40
13.817536 -11.89335 -0.78323901 44
8.8828669 -5.6350632 -0.51356781 0
13.912234 -10.313313 -0.94852209 37
13.850316 -11.921565 -1.1081084 51
8.6918297 -5.5138741 -0.68493903 2
13.931894 -10.327888 -1.2568189 32
13.881718 -11.948594 -1.4350572 28
8.6567488 -5.4916201 -0.86356151 0
12.737464 -9.4424419 -1.4295878 113
12.158476 -10.465325 -1.5407305 3
8.8576689 -5.6190786 -1.0693824 1
11.424678 -8.4692574 -1.5339019 2
10.062294 -7.4593048 -1.5730253 2
8.966856 -6.647243 -1.5993229 3
8.045249 -5.9640436 -1.6139696 2
7.3037333 -5.4143491 -1.6260347 4
6.728384 -4.9878354 -1.6473144 3
6.2179151 -4.6094184 -1.6594757 5
5.7625494 -4.2718501 -1.6651794 4
5.3622031 -3.9750686 -1.6673352 6
3.9987636 -2.9643335 -1.7124008 6
2.9881978 -2.2151885 -1.733906 10
5.0750499 -3.8173845 1.6763269 23
5.0625286 -3.807966 1.2241349 27
8.8199511 -6.6342487 1.544011 21
13.843724 -10.413064 1.5039755 31
13.804025 -10.383202 0.88862205 31
13.839973 -10.410242 0.5844875 32
13.77767 -12.027499 0.5086199 39
13.827235 -8.907629 0.36062095 38
13.874843 -10.43647 0.27819622 22
13.803382 -12.049946 0.18548901 36
13.85061 -8.9226875 0.069589421 36
13.905374 -10.459435 -0.028850278 24
13.842869 -12.084416 -0.13855048 37
13.862932 -8.9306259 -0.2216299 25
13.851655 -10.419029 -0.33522698 36
13.923202 -12.154545 -0.46654066 27
13.884358 -8.9444284 -0.51413101 31
13.87668 -10.437853 -0.64369148 36
13.806421 -12.052599 -0.78735948 40
8.873539 -5.7164135 -0.51532322 0
13.916501 -10.467805 -0.95377225 32
13.875031 -12.112494 -1.1168242 41
8.7940435 -5.6652021 -0.69609356 2
13.942351 -10.487249 -1.264336 31
13.94817 -12.176341 -1.4506794 22
8.6617603 -5.5799842 -0.86792636 0
12.725359 -9.5718441 -1.4356942 63
12.100117 -10.563045 -1.5426425 3
8.8918219 -5.7281919 -1.0783074 3
11.393879 -8.570323 -1.5377624 1
10.01949 -7.5365262 -1.5745206 2
8.9202328 -6.7096796 -1.5993229 3
8.0128851 -6.027185 -1.6158789 2
7.2877851 -5.4817739 -1.6309643 4
6.6902633 -5.0323262 -1.6465425 2
6.1668305 -4.6386075 -1.6544443 4
5.7201314 -4.3026061 -1.6615614 4
5.3529305 -4.0264025 -1.6731515 6
3.9658804 -2.9830821 -1.7071959 6
2.9755578 -2.2381747 -1.7355961 9
5.0083075 -3.8222189 1.6630551 22
5.0046005 -3.8193898 1.2165457 26
8.8206558 -6.7317109 1.5523241 21
13.837216 -10.560228 1.5112411 28
13.794712 -10.52779 0.8927322 29
13.852764 -10.572094 0.58813047 32
13.819103 -12.234714 0.51329023 31
13.818255 -9.03897 0.3620238 34
13.86841 -10.584034 0.27954203 24
13.847696 -12.260028 0.18723013 37
13.844885 -9.0563898 0.069876634 35
13.89243 -10.602365 -0.028976291 23
13.883949 -12.292125 -0.13981715 28
13.867188 -9.0709791 -0.22270499 27
13.845342 -10.566429 -0.3368513 36
13.921838 -12.325669 -0.46936697 30
13.878456 -9.0783491 -0.5162468 30
13.882913 -10.595102 -0.64739597 39
13.874541 -12.283795 -0.79611558 34
8.8902521 -5.8154035 -0.51863909 0
13.916107 -10.620436 -0.95880359 35
13.909709 -12.314931 -1.1265082 38
8.82442 -5.7723398 -0.70167077 1
13.932225 -10.632736 -1.2701185 32
13.946424 -12.347437 -1.4594278 23
8.6659565 -5.6686835 -0.87229115 0
12.72473 -9.7112055 -1.4432372 61
12.038002 -10.65782 -1.5441722 3
8.8216429 -5.7705235 -1.0746562 1
11.349576 -8.6617212 -1.5399071 1
9.9634752 -7.6038833 -1.5740222 1
8.8763208 -6.7741928 -1.5998902 2
7.9831691 -6.0925612 -1.6184245 2
7.2493372 -5.5325184 -1.6309643 4
6.6549683 -5.0789104 -1.6465425 2
6.1560607 -4.6981564 -1.6603142 4
5.7116361 -4.3589821 -1.6678928 4
5.327775 -4.0660291 -1.6741208 6
3.9479649 -3.0129912 -1.708497 6
2.9540958 -2.2544944 -1.7322161 10
4.9448056 -3.8286777 1.6508042 23
4.9343395 -3.8205738 1.2059208 15
8.8204288 -6.8295059 1.5606371 21
13.848229 -10.722445 1.5205826 30
13.806159 -10.689871 0.89828098 30
13.832355 -10.710154 0.59042412 36
13.819634 -12.408357 0.51651496 32
13.811447 -9.1728315 0.3635143 39
13.866915 -10.736913 0.28101599 24
13.865935 -12.449928 0.18864731 41
13.844632 -9.1948709 0.070197634 34
13.890816 -10.755419 -0.029128833 25
13.893038 -12.474263 -0.14078224 31
13.870158 -9.2118244 -0.22378008 26
13.843967 -10.719145 -0.33863029 36
13.921737 -12.500032 -0.47229421 29
13.891339 -9.2258921 -0.51910931 31
13.881299 -10.748051 -0.6508041 36
13.877656 -12.460453 -0.80126619 38
8.8960314 -5.9082723 -0.52136981 0
13.914258 -10.77357 -0.96383494 35
13.918466 -12.497095 -1.1342556 37
8.797205 -5.8426375 -0.7027331 1
13.949135 -10.800574 -1.2785031 31
13.948902 -12.524424 -1.4688013 24
8.6726551 -5.7599177 -0.87699175 0
12.729073 -9.8559017 -1.4514986 19
11.95738 -10.736278 -1.5434073 2
8.7546234 -5.8143573 -1.0714108 1
11.31713 -8.7626581 -1.5437676 1
9.928977 -7.6878352 -1.5770128 2
8.8569889 -6.8578134 -1.6049963 2
7.9466853 -6.1529813 -1.6196975 2
7.216763 -5.5878153 -1.6323727 3
6.6255541 -5.1300526 -1.6480864 2
6.1107416 -4.7314415 -1.65696 4
5.6625805 -4.3844385 -1.6624658 4
5.3053966 -4.1078768 -1.6760596 6
3.9268341 -3.0404799 -1.708497 6
2.9440176 -2.2795022 -1.7355961 9
4.8753757 -3.8296583 1.6365116 22
4.1848493 -3.2872427 1.028334 5
8.8317242 -6.9374108 1.571167 22
13.841977 -10.873017 1.5281942 28
13.822294 -10.857555 0.90424073 29
13.851561 -10.880545 0.59447181 33
13.827277 -12.590679 0.52007329 37
13.803441 -9.3070326 0.36500484 38
13.876539 -10.900166 0.28274632 24
13.861489 -12.621832 0.18978105 39
13.846434 -9.3360195 0.070535526 40
13.912903 -10.92873 -0.029334433 27
13.909124 -12.665207 -0.14183781 31
13.875154 -9.3553848 -0.22490893 24
13.847421 -10.877293 -0.34056401 38
13.940571 -12.693841 -0.47592801 27
13.886262 -9.362874 -0.52134949 33
13.887655 -10.908897 -0.65465677 38
13.878972 -12.637752 -0.80641681 41
8.9307575 -6.0216031 -0.52585596 0
13.920368 -10.934594 -0.9695226 35
13.91354 -12.669228 -1.1410345 36
8.7694387 -5.9128337 -0.70379543 1
13.951826 -10.959305 -1.2857312 31
13.958426 -12.710099 -1.4791119 21
8.6884155 -5.8582029 -0.88269955 0
13.079761 -10.274287 -1.4996306 3
11.923352 -10.857026 -1.548761 1
8.7369146 -5.8909039 -1.0742506 1
11.274443 -8.8561926 -1.5463413 1
9.9093952 -7.7839327 -1.5824955 2
8.8182364 -6.9268165 -1.6066983 1
7.9283795 -6.2278247 -1.6247888 2
7.1806726 -5.6404929 -1.6330769 3
6.5772328 -5.1664848 -1.6449987 3
6.0837116 -4.7788191 -1.6586372 5
5.6563458 -4.4431181 -1.6697018 4
5.2857437 -4.1520066 -1.6789677 6
3.9114604 -3.0724928 -1.7110995 6
2.9223299 -2.2955205 -1.7322161 9
4.8061762 -3.8298585 1.6222188 22
4.1003695 -3.2674282 1.0131557 4
8.8171558 -7.0260558 1.5772632 25
12.41004 -9.8890877 1.3776928 1
13.805517 -11.00109 0.90814543 31
13.856551 -11.041758 0.59797984 34
13.830106 -12.770996 0.52352041 33
13.823932 -9.4618998 0.36728448 39
13.868917 -11.051612 0.2841562 20
13.86119 -12.799701 0.19099578 42
13.843635 -9.4753857 0.070856526 34
13.901961 -11.077943 -0.029473709 28
13.911463 -12.846124 -0.14277273 32
13.865612 -9.490428 -0.22582275 26
13.843081 -11.031024 -0.342343 38
13.936807 -12.869526 -0.47885525 28
13.886544 -9.504755 -0.52383864 31
13.886185 -11.065372 -0.65821308 39
13.896102 -12.831939 -0.81259757 42
8.9511433 -6.1266809 -0.52956194 0
13.928028 -11.098715 -0.975429 34
13.912753 -12.847315 -1.1482977 40
8.7773504 -6.0077267 -0.70777917 0
13.940498 -11.108652 -1.2918028 33
13.954315 -12.885695 -1.4881728 21
8.7065115 -5.9592404 -0.88874316 0
13.007714 -10.365352 -1.4996306 5
11.896994 -10.985923 -1.5552621 1
8.7218475 -5.9697375 -1.0774961 0
11.243443 -8.9594717 -1.5506307 2
9.8703308 -7.8652906 -1.5849875 2
8.7727604 -6.9906783 -1.6072657 1
7.8847084 -6.2830234 -1.6247888 2
7.1503587 -5.6978483 -1.6351895 3
6.5594201 -5.2269521 -1.6496303 3
6.0563192 -4.8260498 -1.6603142 4
5.6160474 -4.475214 -1.6669884 4
5.2505584 -4.18397 -1.677029 7
3.9017479 -3.1091542 -1.7163044 6
2.9147391 -2.3226445 -1.737286 9
4.7402215 -3.8317108 1.608947 22
4.0530248 -3.2762222 1.0070844 3
8.8233452 -7.1322632 1.5872389 22
13.840675 -11.187972 1.5451472 25
13.812261 -11.165003 0.91369414 31
13.844419 -11.190998 0.60081321 33
13.825249 -12.946496 0.5267452 34
13.81337 -9.5969667 0.36877501 39
13.872296 -11.213532 0.28582242 22
13.85616 -12.975443 0.19217002 43
13.842846 -9.6174459 0.071194425 36
13.911387 -11.245131 -0.029659413 27
13.900271 -13.01675 -0.14358702 31
13.861427 -9.6303558 -0.22684409 24
13.849711 -11.195276 -0.3444314 38
13.937102 -13.05124 -0.48198435 28
13.895368 -9.6539364 -0.52670115 31
13.886314 -11.224864 -0.66191757 38
13.884939 -13.002392 -0.81723315 44
9.0262709 -6.2710857 -0.53658372 0
13.909223 -11.243382 -0.97958535 36
13.915982 -13.031463 -1.156045 39
8.8794146 -6.1690559 -0.71946484 1
13.927763 -11.258368 -1.2978743 32
13.965894 -13.078201 -1.4991083 20
8.7334366 -6.0676365 -0.89579397 0
13.01249 -10.518517 -1.5086104 2
11.837445 -11.08504 -1.5575565 1
8.8466282 -6.1462774 -1.0981859 1
11.1899 -9.0452452 -1.5519176 2
9.8398743 -7.9539642 -1.588975 2
8.7391405 -7.0641975 -1.6101023 1
7.8498664 -6.3453612 -1.6266981 2
7.1134686 -5.7501016 -1.6358938 3
6.5349798 -5.2824855 -1.6527181 2
6.0194387 -4.8657532 -1.6594757 3
5.5846686 -4.5143113 -1.6669884 4
5.2483845 -4.2424793 -1.6857535 6
3.8828888 -3.1386945 -1.7176056 6
2.8928144 -2.3383777 -1.733906 9
4.6728225 -3.8287485 1.5946544 20
4.6721902 -3.8282304 1.1672161 17
8.8310032 -7.2358174 1.5972145 22
13.84323 -11.342663 1.5537966 29
13.824426 -11.327254 0.91944844 28
13.862661 -11.358583 0.6048609 32
13.834795 -13.128728 0.5304147 34
13.831141 -9.7459564 0.37096697 41
13.874961 -11.368662 0.28742456 24
13.851039 -13.144143 0.19330376 38
13.86377 -9.7689476 0.071633689 42
13.920039 -11.405597 -0.029838484 28
13.900681 -13.191251 -0.14449179 30
13.86918 -9.7727604 -0.22802669 23
13.840119 -11.340114 -0.34605572 38
13.948858 -13.23697 -0.48541629 28
13.889863 -9.7873354 -0.52894139 32
13.885768 -11.377516 -0.66547388 38
13.882467 -13.173967 -0.8222121 43
13.857199 -9.7643185 -0.82759899 32
13.93012 -11.413857 -0.98636675 37
13.910343 -13.20042 -1.1628238 17
8.936182 -6.2967796 -0.72743237 0
13.945366 -11.426349 -1.306548 37
13.974308 -13.261122 -1.509419 20
8.8168154 -6.2126694 -0.90855271 0
12.951687 -10.612163 -1.5096879 5
11.792551 -11.190712 -1.5613806 2
8.8512115 -6.2369061 -1.1038655 0
11.114283 -9.106657 -1.5497729 2
9.7807646 -8.014019 -1.5879781 2
8.6982222 -7.1270218 -1.611237 2
7.8106642 -6.3997874 -1.6273345 2
7.0843134 -5.8046403 -1.6380064 4
6.4998007 -5.3257113 -1.6527181 2
6.0082121 -4.9229202 -1.6653454 3
5.5576196 -4.5537205 -1.6678928 4
5.2171297 -4.274735 -1.6847841 7
3.8736897 -3.1739669 -1.7228105 6
2.8800461 -2.3598099 -1.7355961 8
4.6102862 -3.8316133 1.5824035 20
4.6151462 -3.8356526 1.1596268 21
8.8229256 -7.3327417 1.6049733 21
13.788224 -11.459407 1.5565645 25
13.812598 -11.479664 0.92396963 29
13.81992 -11.485748 0.60648 30
13.84364 -13.322032 0.53430665 32
13.81156 -9.8771696 0.37228215 37
13.819862 -11.485701 0.28793725 28
13.868457 -13.345914 0.19484243 40
13.870067 -9.9190102 0.072022267 42
13.861608 -11.520396 -0.029884908 33
13.900478 -13.376728 -0.14545688 31
13.878699 -9.9251833 -0.2293168 26
13.846732 -11.508033 -0.34822148 44
13.945427 -13.419984 -0.48854539 28
13.915508 -9.9515076 -0.53255063 29
13.836741 -11.499729 -0.66695565 48
13.863441 -9.9142714 -0.83208513 37
13.868527 -11.526147 -0.98767924 44
13.885036 -9.9297152 -1.1358993 34
13.895939 -11.548928 -1.3094393 38
13.979083 -13.452372 -1.5200421 21
13.9412 -9.9698811 -1.443746 19
12.742476 -10.590284 -1.4938834 3
11.785863 -11.341788 -1.5709409 2
12.199669 -8.7244463 -1.5290221 14
11.062671 -9.1941957 -1.5514886 2
9.7245779 -8.0821066 -1.5879781 2
8.6665258 -7.2027578 -1.6146411 2
7.7688327 -6.4566846 -1.6279709 2
7.0617862 -5.8690577 -1.6422317 4
6.4654813 -5.3734679 -1.6534899 3
5.9646735 -4.9572458 -1.6628299 3
5.5107107 -4.579957 -1.6633704 4
5.184175 -4.3085728 -1.6838146 6
3.8485281 -3.1985154 -1.7215092 6
2.8690782 -2.3844936 -1.738976 8
4.5568118 -3.8412704 1.5732154 20
4.558229 -3.8424654 1.1520377 29
8.8290682 -7.442668 1.6155032 22
13.61039 -11.473195 1.5454931 24
13.771827 -11.609282 0.92664123 33
13.809701 -11.641209 0.60958326 37
13.836147 -13.502131 0.5376426 33
13.829653 -10.036772 0.37464947 35
13.834139 -11.661809 0.28992391 28
13.869414 -13.534595 0.19617863 38
13.858751 -10.057889 0.07232637 43
13.851187 -11.67618 -0.030037452 32
13.906945 -13.57122 -0.14651245 32
13.889995 -10.080564 -0.23066066 25
13.793576 -11.627616 -0.3489176 44
13.954426 -13.617554 -0.49217921 19
13.903937 -10.090683 -0.53479081 29
13.835586 -11.663029 -0.67080832 46
12.819114 -12.50965 -0.76950395 0
13.855323 -10.055401 -0.83579111 42
13.873229 -11.694761 -0.9938044 39
12.770267 -12.461983 -1.0819613 2
13.892897 -10.08267 -1.1422733 35
13.897335 -11.715082 -1.3172456 35
12.825985 -12.516355 -1.4041252 4
13.939002 -10.116131 -1.4507968 21
12.707832 -10.712363 -1.4985529 4
11.689297 -11.407107 -1.5686464 2
12.209317 -8.8608246 -1.5379472 2
11.037745 -9.3045235 -1.5570649 1
9.6982651 -8.1753778 -1.5929623 2
8.6372232 -7.2809482 -1.6186124 2
7.7386661 -6.5234885 -1.631153 1
7.0236521 -5.9207506 -1.642936 2
6.4398136 -5.4285908 -1.6565777 3
5.9418826 -5.0088482 -1.6661839 3
5.4934988 -4.6308727 -1.6678928 4
5.1510029 -4.3421578 -1.6828452 6
3.8318894 -3.2301803 -1.7241117 6
2.8495898 -2.4021282 -1.737286 9
4.4857898 -3.83529 1.5579017 20
4.507412 -3.8537767 1.1459663 27
8.8100138 -7.532443 1.6215994 23
13.433036 -11.485065 1.5344218 23
13.763313 -11.767447 0.93157345 36
13.801019 -11.799685 0.6128214 30
13.849547 -13.705272 0.54186809 34
13.833307 -10.187618 0.37666607 36
13.825343 -11.820482 0.29146197 28
13.876936 -13.732375 0.19763629 40
13.865497 -10.211324 0.072731845 43
13.84838 -11.840178 -0.03020989 30
13.922742 -13.777704 -0.14768866 30
13.88047 -10.222352 -0.231682 25
13.794135 -11.7938 -0.351006 40
13.910414 -10.244404 -0.53777778 30
13.832818 -11.826873 -0.67466098 44
12.617845 -12.486401 -0.76263648 0
13.855559 -10.204006 -0.84008223 34
13.86714 -11.856218 -0.9992733 40
12.583626 -12.452538 -1.0734876 2
13.896083 -10.23385 -1.1483817 37
13.897082 -11.881818 -1.3250519 36
12.576723 -12.445707 -1.3863159 2
13.932227 -10.260468 -1.4575119 18
12.717519 -10.873308 -1.5086104 3
11.586735 -11.466032 -1.5655872 2
12.108708 -8.9175272 -1.5330789 7
10.999722 -9.4046144 -1.5609254 1
9.6288872 -8.2325687 -1.5909686 2
8.5922012 -7.3462162 -1.619747 1
7.7109437 -6.5927534 -1.6349716 2
6.9582043 -5.9491711 -1.6373022 3
6.3928089 -5.4657655 -1.6542619 4
5.8978515 -5.0425839 -1.6636684 3
5.475843 -4.6817718 -1.6724154 4
5.1117148 -4.3704472 -1.6799371 6
3.8063698 -3.254395 -1.7228105 6
2.8492839 -2.4360995 -1.7474258 8
4.4225025 -3.837652 1.545651 19
4.446413 -3.8584006 1.1376182 25
8.784481 -7.6227841 1.6271415 24
7.5425711 -6.5451097 0.86702615 9
13.749094 -11.930856 0.93650568 30
13.789637 -11.966037 0.61619449 31
13.836175 -13.894257 0.54531527 35
13.815903 -10.331857 0.37824428 39
13.813841 -11.987041 0.29306412 27
13.874682 -13.932926 0.19905348 42
13.863947 -10.367785 0.073120423 42
13.848829 -12.017402 -0.030402225 31
13.906046 -13.964421 -0.14859343 32
13.88524 -10.383709 -0.23302586 27
13.788867 -11.965369 -0.3530944 40
12.550467 -12.603151 -0.44897726 0
13.898981 -10.393985 -0.54026693 29
13.824246 -11.99607 -0.67851365 43
12.40754 -12.459625 -0.75542557 0
13.850777 -10.357937 -0.84437335 41
13.846221 -12.015139 -1.0040859 42
12.421573 -12.473717 -1.067435 7
13.86544 -10.368902 -1.1520998 38
13.915072 -12.074884 -1.3351712 29
12.392297 -12.444318 -1.3760052 1
13.930056 -10.417223 -1.4652343 20
12.685615 -11.008016 -1.5143574 3
11.530468 -11.578872 -1.5694112 2
11.992025 -8.9679184 -1.526588 2
10.936495 -9.4902067 -1.5617832 1
9.5832682 -8.3159361 -1.5934608 2
8.5441008 -7.4141932 -1.6208818 3
7.6624093 -6.6490998 -1.6349716 2
6.9441466 -6.0258236 -1.6443443 3
6.3466425 -5.5073357 -1.6527181 4
5.8725448 -5.0959349 -1.6670226 4
5.4384336 -4.7192321 -1.6715108 4
5.0971265 -4.4230609 -1.6857535 6
3.7852685 -3.2846887 -1.7241117 6
2.8203967 -2.4474156 -1.7406659 8
4.3607631 -3.8377719 1.5334001 20
4.3869371 -3.8608072 1.1292702 26
8.6864433 -7.6446686 1.6188284 21
7.4937019 -6.5949745 0.86668015 1
13.761428 -12.111006 0.94308197 28
13.816801 -12.159738 0.62118661 35
13.828491 -14.081801 0.5488736 46
13.816712 -10.483653 0.38026088 35
13.864926 -12.202091 0.29594797 20
13.872362 -14.126477 0.20043017 44
13.864521 -10.519928 0.073509 41
13.911728 -12.243279 -0.030727204 22
13.911916 -14.166755 -0.1497093 33
13.888883 -10.538413 -0.23431596 28
13.816078 -12.159101 -0.35595629 39
12.383729 -12.610575 -0.44615096 1
13.905707 -10.551179 -0.54337835 29
13.875193 -12.211125 -0.68518174 38
12.241855 -12.466102 -0.75061834 0
13.854517 -10.512338 -0.84905452 40
13.911916 -12.243444 -1.0150236 32
12.303418 -12.528792 -1.0647719 1
13.888102 -10.53782 -1.1600673 37
13.944241 -12.271893 -1.3461579 30
12.226886 -12.450859 -1.3672568 1
13.920499 -10.562403 -1.4719493 17
12.677238 -11.156844 -1.5226189 3
11.485621 -11.696016 -1.5743825 1
11.925958 -9.0490122 -1.5261823 2
10.881915 -9.5768356 -1.563499 1
9.5547714 -8.4088583 -1.5984449 1
8.4742966 -7.4579654 -1.6174778 2
7.6365542 -6.7206941 -1.6394266 2
6.9048653 -6.0767574 -1.6450486 2
6.325717 -5.5670671 -1.6573497 3
5.8397617 -5.1393929 -1.6678611 4
5.4082794 -4.7596588 -1.6724154 4
5.0573835 -4.4508462 -1.6828452 6
3.7594051 -3.3085358 -1.7228105 6
2.8086851 -2.4718366 -1.7440459 8
4.2905831 -3.8294926 1.5180864 19
4.3422966 -3.8756487 1.1247166 26
8.5678425 -7.6470928 1.6066359 24
7.492074 -6.686933 0.87186986 1
13.801715 -12.318503 0.95171338 26
13.838944 -12.351732 0.62604386 30
13.827199 -14.278533 0.55276555 47
13.819238 -10.638402 0.38236517 39
13.874885 -12.383811 0.2979987 25
13.879138 -14.332168 0.20196883 41
13.873148 -10.679903 0.073948264 41
13.912457 -12.417346 -0.030919541 25
13.926759 -14.381342 -0.15094583 32
13.887866 -10.691234 -0.23555233 29
13.829316 -12.34314 -0.35850877 37
12.195245 -12.593309 -0.44251716 0
13.929916 -10.723605 -0.5472365 32
13.888017 -12.395531 -0.69007164 34
12.087806 -12.482364 -0.74649781 0
13.866267 -10.674606 -0.85432088 39
13.915494 -12.420056 -1.0215863 33
12.090661 -12.485312 -1.0538772 2
13.886936 -10.690518 -1.1661757 36
13.953474 -12.453954 -1.3554099 27
12.08973 -12.484351 -1.3616328 2
13.922222 -10.717682 -1.4800075 12
12.676318 -11.314049 -1.5319579 3
11.439697 -11.8131 -1.5793539 2
11.875106 -9.1417599 -1.527805 2
10.847429 -9.6817026 -1.5682174 1
9.4928741 -8.4727154 -1.5979465 1
8.4367952 -7.530129 -1.6203144 2
7.5835567 -6.7685843 -1.6381537 2
6.8710861 -6.1326799 -1.6471612 2
6.2896256 -5.6137066 -1.6581216 4
5.80374 -5.180037 -1.6678611 4
5.3865471 -4.8076777 -1.6760334 4
5.0377693 -4.4963818 -1.6867228 6
3.7446816 -3.3422568 -1.7267141 6
2.7940648 -2.4937987 -1.7457359 8
4.2379384 -3.8359935 1.5088984 19
4.2860179 -3.8795128 1.1171274 26
8.4613829 -7.6588674 1.5966603 22
7.4836178 -6.773838 0.87636763 1
13.792385 -12.484254 0.95705664 26
13.841295 -12.528525 0.63009155 29
13.845921 -14.49906 0.55754703 48
13.829727 -10.801081 0.38473248 35
13.874085 -12.558206 0.2998572 22
13.880951 -14.535743 0.203467 45
13.861299 -10.825738 0.074286163 39
13.929227 -12.608116 -0.031151669 24
13.925467 -14.582358 -0.15203156 30
13.872781 -10.834705 -0.23657365 24
13.831762 -12.519896 -0.36082923 37
12.049035 -12.617412 -0.44039744 0
13.914578 -10.867351 -0.5496012 32
13.884123 -12.56729 -0.69422066 35
11.934129 -12.497085 -0.74237734 0
13.860677 -10.825253 -0.858612 37
13.917283 -12.597306 -1.028149 32
11.901176 -12.462578 -1.0449194 0
13.887455 -10.846167 -1.1725497 39
13.957883 -12.634055 -1.3643727 23
11.944443 -12.507885 -1.3550714 0
13.935017 -10.883312 -1.4894086 11
12.626561 -11.429002 -1.5355498 3
11.351447 -11.886917 -1.5785891 2
11.807858 -9.2219915 -1.5273993 1
10.820854 -9.7945566 -1.5742226 3
9.4717455 -8.5734034 -1.604426 1
8.4133768 -7.6154151 -1.6259878 1
7.5331922 -6.8187108 -1.6375173 2
6.8397832 -6.1910677 -1.649978 3
6.2590127 -5.66538 -1.6604375 3
5.787734 -5.2387991 -1.6737309 4
5.3384094 -4.8320909 -1.6715108 4
5.0120111 -4.5366497 -1.6886616 6
3.7184536 -3.3657789 -1.7254128 6
2.7604601 -2.4986458 -1.7355961 9
4.1825638 -3.8393331 1.4986893 19
4.2414703 -3.8934054 1.112574 23
8.3464231 -7.6614966 1.5850221 22
7.4713736 -6.8582559 0.88051939 2
13.807892 -12.674785 0.96424943 28
13.850679 -12.714061 0.63454401 30
13.843046 -14.700164 0.56155014 30
13.832346 -10.959453 0.38692442 34
13.880359 -12.741304 0.30190793 23
13.877851 -14.737123 0.20492467 38
13.863763 -10.984344 0.074708529 42
13.908642 -12.767267 -0.03130421 28
13.9193 -14.781139 -0.15308711 31
13.86577 -10.985935 -0.23775625 27
13.838298 -12.702695 -0.36330438 36
11.856484 -12.5906 -0.43656173 0
13.916716 -11.026299 -0.55271262 30
13.89028 -12.750412 -0.69896245 36
11.786318 -12.516089 -0.73860019 0
13.856789 -10.978819 -0.86309814 43
13.923154 -12.780588 -1.0351491 29
11.742714 -12.469787 -1.0386246 0
13.892733 -11.007298 -1.1794549 41
13.960451 -12.814825 -1.3733355 18
11.769346 -12.498067 -1.3450732 0
13.899312 -11.01251 -1.4937735 10
12.53766 -11.508791 -1.5344722 3
11.32005 -12.020952 -1.5858549 2
11.786856 -9.3387985 -1.5330789 1
10.769791 -9.8859978 -1.5767963 3
9.4175091 -8.6446867 -1.605423 1
8.3745909 -7.6873531 -1.6288245 1
7.502861 -6.8871589 -1.6413358 2
6.7934942 -6.2360048 -1.6492739 3
6.225091 -5.7142458 -1.6619813 4
5.7452564 -5.273788 -1.6720538 4
5.3246379 -4.8876858 -1.6778423 4
