# .PCD v0.7 - Point Cloud Data file format
VERSION 0.7
FIELDS x y z intensity
SIZE 4 4 4 4
TYPE F F F F
COUNT 1 1 1 1
WIDTH 1373
HEIGHT 1
VIEWPOINT 0 0 0 1 0 0 0
POINTS 1373
DATA ascii
-7.8559589 2.0024607 -0.63519949 0
-18.318874 1.9156927 -1.5515232 36
-8.5925255 1.5352027 -0.78699172 0
-7.6548843 1.9512073 -0.75870174 0
-18.324579 1.9162892 -1.8783158 37
-8.2292013 1.4702886 -0.90163922 9
-7.9037724 1.4121451 -1.0083113 11
-7.7956738 1.3928314 -1.134674 14
-7.8177328 1.3967726 -1.2798474 14
-7.7251487 1.3802309 -1.4035025 16
-7.6924763 1.3743935 -1.5369275 4
-7.8273525 1.3984914 -1.704757 3
-7.8861041 1.4089884 -1.8596462 1
-7.7665968 1.3876363 -1.9707514 5
-5.5628705 0.99390262 -1.9440173 6
-1.5632002 0.27929267 -0.74020553 12
-2.0608976 0.38308081 0.55333078 16
-5.3052974 0.98615175 1.0427535 35
-5.2189093 0.97009379 0.74263269 4
-6.3665857 1.1834246 0.56221765 3
-11.731275 2.1806159 0.61385614 17
-15.44254 2.8704681 0.53011346 22
-13.51331 3.5451474 0.38852599 9
-13.683685 1.5276165 0.30187646 16
-14.021986 2.6064148 0.22852977 12
-15.254966 4.0020618 0.15965579 19
-15.861323 1.7707232 0.06741 11
-18.39292 3.4188864 -0.031019023 30
-18.39691 4.826335 -0.14340608 36
-18.352324 2.0488129 -0.24818464 36
-18.350187 3.4109433 -0.36098391 90
-18.399311 4.8269649 -0.48016745 37
-18.364962 2.0502238 -0.5752393 38
-18.36067 3.4128921 -0.69229436 47
-18.34569 4.8128977 -0.81482953 61
-18.324205 2.0456741 -0.90015775 44
-8.88624 1.6517793 -0.49504277 1
-8.0908432 2.1225913 -0.50720716 9
-18.329348 2.046248 -1.2272599 46
-8.4369764 1.56827 -0.62190413 0
-7.8379321 2.0562413 -0.63488704 0
-18.32486 2.045747 -1.553202 36
-8.3465929 1.5514696 -0.76544017 0
-7.6526313 2.0076284 -0.75984895 0
-18.330528 2.0463798 -1.8803442 40
-8.0232382 1.4913641 -0.88019204 12
-7.7415438 1.4390025 -0.98887271 2
-7.6923313 1.4298549 -1.1210579 28
-7.7068453 1.4325528 -1.2633003 23
-7.626287 1.4175786 -1.3873055 21
-7.6132369 1.4151528 -1.5230325 21
-7.671279 1.4259417 -1.6728923 0
-7.864583 1.4618732 -1.8569328 2
-7.7757969 1.4453696 -1.9755983 5
-5.5483589 1.0313321 -1.9414148 6
-1.5825988 0.29417437 -0.75034529 12
-2.06197 0.39819255 0.55435169 15
-5.2982836 1.0231657 1.0427535 28
-4.9397402 0.95392644 0.70383847 22
-6.3972964 1.235399 0.56567746 3
-11.782443 2.2753391 0.6173498 18
-15.363246 2.9668374 0.52808958 13
-13.519114 3.6477349 0.38941559 10
-13.970524 1.6584661 0.30845234 24
-14.05057 2.7133434 0.2292988 10
-15.249825 4.1147161 0.15989874 14
-15.97171 1.8960305 0.067933738 6
-18.396097 3.5525193 -0.031065449 30
-18.405249 4.966114 -0.14373782 34
-18.365376 2.180187 -0.24856092 31
-18.353415 3.544277 -0.36152536 83
-18.392187 4.9625902 -0.48087403 35
-18.362112 2.1797996 -0.57561266 38
-18.367794 3.5470538 -0.69347978 49
-18.354086 4.9523091 -0.81671804 62
-18.325348 2.1754353 -0.90093797 44
-8.6352758 1.6675813 -0.48169872 1
-8.0989571 2.1852651 -0.50865978 12
-18.322542 2.175102 -1.2277911 50
-8.1947098 1.5825024 -0.60484588 8
-7.854187 2.119221 -0.63738662 0
-18.318048 2.1745687 -1.5538735 36
-8.0617485 1.5568259 -0.74029666 0
-7.6384287 2.0610051 -0.75984895 0
-10.835363 1.2862856 -1.1123849 1
-7.8642497 1.5186863 -0.8638922 12
-7.6572695 1.4787158 -0.97940266 25
-7.6316204 1.4737626 -1.1136825 39
-7.6346178 1.4743415 -1.2531176 29
-7.5582132 1.4595867 -1.3767422 23
-7.5415144 1.456362 -1.5106815 32
-7.572813 1.4624062 -1.6536058 1
-7.8580117 1.5174817 -1.8578373 2
-7.7769475 1.5018271 -1.9785064 4
-5.5447373 1.0707591 -1.942716 7
-1.5733871 0.30384102 -0.74696535 12
-2.05914 0.41257811 0.55435169 15
-5.3218179 1.0663023 1.0488248 34
-4.9368443 0.98916739 0.70439267 20
-6.3728862 1.2768989 0.56429356 3
-11.766271 2.3575406 0.6173498 15
-15.252004 3.0559568 0.52498639 9
-13.512584 3.7473698 0.38997158 10
-13.974476 1.7579548 0.30880305 26
-13.96462 2.7980111 0.22820933 9
-15.251561 4.2296309 0.16022266 16
-15.930303 2.003993 0.067815475 10
-18.410067 3.68872 -0.031131772 32
-18.393257 5.1008997 -0.14391878 40
-18.377485 2.3118429 -0.2489372 32
-18.351751 3.6770356 -0.36198944 62
-18.399481 5.1026258 -0.48198435 37
-18.374214 2.3114312 -0.57648385 37
-18.3661 3.6799107 -0.69436884 47
-18.34602 5.0878 -0.81791991 62
-18.329533 2.3058105 -0.90191323 41
-8.4863586 1.7003632 -0.4740423 1
-8.0911989 2.2438872 -0.50914401 12
-18.32275 2.3049572 -1.2288535 42
-8.0309029 1.6091062 -0.59357005 15
-7.816144 2.1676078 -0.63551193 0
-18.310329 2.3033946 -1.554545 37
-7.9256845 1.5880241 -0.72880244 11
-7.6583858 2.1238575 -0.76329064 0
-10.269415 1.2918674 -1.0551834 6
-7.6896787 1.540737 -0.84587657 0
-7.7129145 1.5453926 -0.98787588 5
-7.6094985 1.5246718 -1.1119804 46
-7.5854177 1.5198469 -1.2467533 53
-7.5516996 1.513091 -1.3774465 1
-7.5388594 1.5105182 -1.5122254 155
-7.4933906 1.5014079 -1.6385121 2
-7.8739696 1.5776623 -1.8641688 2
-7.7548585 1.5537968 -1.9755983 5
-5.537127 1.1094425 -1.942716 6
-1.5498987 0.31054437 -0.73682559 12
-2.0372756 0.4230122 0.54924715 16
-5.3257804 1.1058248 1.0511016 43
-4.9453335 1.0268303 0.70660949 22
-6.3677182 1.3221689 0.56463951 4
-11.745615 2.4388151 0.61714429 12
-15.300755 3.1769907 0.52741498 4
-13.53993 3.85695 0.39152834 13
-13.977719 1.8575796 0.30915377 29
-14.030897 2.9133224 0.22961922 7
-15.244742 4.3425784 0.16046561 21
-16.054703 2.1336019 0.06840679 6
-18.387783 3.8179696 -0.031138403 33
-12.048353 3.4320633 -0.094458006 1
-18.360899 2.4400854 -0.2489372 29
-18.356958 3.8115695 -0.36260822 44
-12.017939 3.4233994 -0.31543478 7
-18.353666 2.4391243 -0.57635939 37
-18.359531 3.8121035 -0.69510978 48
-18.348488 5.2267036 -0.81963676 64
-18.32091 2.4347711 -0.90230328 61
-8.6932745 1.8050386 -0.48629257 2
-8.0676565 2.2981322 -0.50865978 10
-18.329948 2.4359725 -1.2304469 49
-7.8391728 2.2330468 -0.63863641 0
-18.317511 2.4343193 -1.5565596 32
-7.6318836 2.1739991 -0.76214343 0
-10.07869 1.339415 -1.036522 1
-7.6943111 1.5976176 -0.84759235 2
-7.7019377 1.5992012 -0.98787588 8
-7.5947924 1.5769539 -1.1114131 43
-7.570756 1.5719631 -1.2461169 43
-7.5216756 1.5617723 -1.3739254 66
-7.4704881 1.5511439 -1.5006464 255
-7.4674091 1.5505046 -1.6351579 3
-8.4731674 1.7593364 -2.0088882 2
-7.7742195 1.6142095 -1.9833534 6
-5.5329499 1.1488408 -1.9440173 6
-1.5299442 0.31767184 -0.72837573 14
-2.0342727 0.43722478 0.54924715 16
-5.3179302 1.1429789 1.0511016 40
-4.9535356 1.0646598 0.7088263 24
-6.3505402 1.364917 0.56394756 3
-11.708775 2.5165584 0.61611676 5
-12.937028 2.7805462 0.44659597 6
-11.904662 3.4811671 0.34493637 17
-13.980252 1.9573352 0.30950448 28
-14.068869 3.0238118 0.23058051 7
-11.84723 3.4643726 0.12495505 18
-15.991879 2.2389774 0.068204053 9
-18.407608 3.9563339 -0.03121799 30
-11.793753 3.448735 -0.092648469 13
-18.371143 2.5720913 -0.24931347 35
-18.357271 3.9455152 -0.36314967 43
-11.725085 3.4286554 -0.30836904 15
-18.363907 2.5710783 -0.57723063 37
-18.359825 3.946064 -0.69614702 40
-11.928975 3.4882767 -0.53394854 23
-18.343033 2.5681555 -0.90425378 45
-8.6336031 1.8556141 -0.48366752 2
-8.0744085 2.3611224 -0.5101124 12
-18.328308 2.5660942 -1.2315092 49
-7.8321319 1.6833545 -0.58055949 1
-7.8119092 2.2843623 -0.63769907 0
-10.172407 1.4242096 -0.86524028 5
-7.8131571 1.6792762 -0.72054106 0
-7.6470933 2.2361667 -0.7652027 0
-9.7065268 1.3589832 -0.99919909 1
-7.6713057 1.6487882 -0.84630549 3
-7.5858197 1.6304147 -0.97441846 18
-7.5913401 1.6316013 -1.1125478 37
-7.5518751 1.6231191 -1.2448441 38
-7.4990406 1.6117634 -1.3718128 13
-7.4824996 1.6082083 -1.505278 35
-7.4525781 1.6017772 -1.6343194 4
-8.4454393 1.8151723 -2.0052702 2
-7.758966 1.667629 -1.982384 5
-5.5137005 1.1850557 -1.9401135 6
-1.5560453 0.33443969 -0.7418955 13
-2.0311708 0.45141602 0.54924715 15
-5.3213229 1.1826333 1.0533783 38
-4.9537168 1.100935 0.70993471 23
-6.3641977 1.4144062 0.56602347 3
-11.386754 2.5306404 0.60008705 2
-12.86657 2.8595209 0.44484195 6
-11.63113 3.4895074 0.33770847 18
-13.479605 1.9832805 0.29872003 25
-14.090363 3.1315019 0.23128545 6
-11.562241 3.4688396 0.12220167 20
-16.078751 2.3656981 0.068643317 6
-18.399063 4.0890856 -0.031251151 29
-11.508868 3.452827 -0.090597652 15
-18.372524 2.7031853 -0.24958225 31
-18.344896 4.0770473 -0.36345905 75
-11.455739 3.4368875 -0.30190894 16
-18.357376 2.7009568 -0.577604 33
-18.37085 4.0828156 -0.6976288 47
-11.624905 3.4876397 -0.52141535 24
-18.332563 2.6973057 -0.90464389 45
-8.5931463 1.9097772 -0.48213622 2
-8.0653763 2.4197295 -0.51059657 12
-18.329691 2.6968832 -1.2328372 48
-7.8085055 1.7353953 -0.57969213 0
-7.8492455 2.3548872 -0.64207327 0
-18.376379 2.7037525 -1.5646178 0
-7.8090215 1.7355101 -0.72125942 0
-7.6541781 2.2963641 -0.76749712 0
-9.3464117 1.3751558 -0.96309322 1
-7.6518435 1.7005781 -0.8454476 2
-7.6013722 1.6893612 -0.97790742 30
-7.5758996 1.6837 -1.1119804 45
-7.5519247 1.6783718 -1.2467533 37
-7.4722304 1.6606601 -1.3689959 41
-7.4710903 1.6604067 -1.505278 39
-7.48703 1.6639493 -1.6443819 2
-8.3983297 1.8664804 -1.9971298 2
-7.7433472 1.7209142 -1.9814146 7
-5.5126781 1.225161 -1.942716 6
-1.5430553 0.34293514 -0.73682559 13
-2.0242004 0.46471989 0.54822624 8
-5.3129368 1.2197543 1.0533783 23
-4.9536319 1.1372645 0.71104312 23
-6.3502841 1.4579105 0.56567746 4
-10.97168 2.5188994 0.57912511 5
-12.803432 2.9394369 0.4433578 5
-11.342789 3.4894989 0.33003581 15
-13.48124 2.0797765 0.29907075 15
-14.099342 3.2369545 0.23179814 6
-11.293071 3.4742038 0.11961025 16
-16.069752 2.4791112 0.068677105 5
-18.401257 4.224596 -0.03130421 31
-11.235983 3.4566412 -0.088637315 24
-18.361111 2.8326037 -0.24968976 31
-18.358862 4.2148633 -0.36430991 56
-11.198326 3.4450564 -0.29575166 32
-18.377586 2.8351452 -0.57884854 36
-18.357483 4.2145467 -0.6982215 44
-11.332898 3.4864562 -0.50939721 25
-18.321184 2.8264439 -0.90503401 40
-8.5173197 1.9554228 -0.47863615 2
-8.0902643 2.4888914 -0.51325977 13
-9.8494425 1.5194923 -0.66316122 7
-7.7845345 1.7871886 -0.57882476 0
-7.8478599 2.4143178 -0.64332306 0
-9.4306421 1.4548831 -0.80379719 0
-7.7578869 1.7810708 -0.71766746 0
-7.6645994 2.3579397 -0.77017403 0
-9.065217 1.3985083 -0.93510103 1
-7.6320329 1.7521769 -0.84458971 2
-7.5545793 1.734395 -0.97342157 86
-7.560101 1.7356627 -1.1114131 42
-7.5323262 1.7292861 -1.2454805 47
-7.4527798 1.7110236 -1.3675874 37
-7.4554911 1.7116461 -1.504506 38
-7.547658 1.732806 -1.6603142 3
-8.0129299 1.839624 -1.9084891 2
-7.7689676 1.7836146 -1.9911084 7
-5.4966173 1.261924 -1.9401135 6
-1.5547577 0.35694429 -0.74358547 12
-2.0547769 0.48686442 0.55741441 11
-4.1540098 0.98426235 0.82494396 10
-4.9455724 1.1718173 0.71104312 23
-6.3360744 1.5012866 0.56533152 4
-10.650635 2.5235903 0.56309539 3
-12.72425 3.0149183 0.44133395 3
-11.169429 3.5217097 0.32569909 39
-13.490079 2.1776664 0.29959682 16
-14.126994 3.3472884 0.23263125 7
-11.180803 3.5252962 0.11867896 47
-16.083643 2.5963383 0.068812266 5
-18.382992 4.3557162 -0.031324107 31
-11.184874 3.5265794 -0.088426203 45
-18.372477 2.9658184 -0.25011981 30
-18.356232 4.3493752 -0.36485133 56
-11.177815 3.524354 -0.2958526 43
-18.36524 2.9646504 -0.57909745 38
-18.36651 4.3518105 -0.69970334 44
-11.148204 3.5150175 -0.5021863 63
-18.320724 2.9574645 -0.90600926 41
-8.4801435 2.0093081 -0.47732362 2
-8.0955391 2.5525153 -0.51471233 13
-9.4327574 1.5227041 -0.63580614 0
-7.7990437 1.8479265 -0.58084863 0
-7.8460259 2.4738441 -0.64457285 0
-9.1684189 1.4800327 -0.78230888 0
-7.7685237 1.840695 -0.71982265 0
-7.6669378 2.4173777 -0.77208608 0
-8.8273783 1.4249796 -0.91157138 1
-7.604136 1.8017446 -0.84287393 1
-7.5500121 1.7889203 -0.97441846 5
-7.5516534 1.7893093 -1.1119804 41
-7.5239129 1.7827363 -1.2461169 41
-7.452148 1.7657322 -1.3697001 48
-7.4395413 1.7627451 -1.5037341 34
-7.5467944 1.7881579 -1.6628299 1
-7.870985 1.8649726 -1.8777362 3
-7.7487745 1.8360157 -1.9891696 7
-5.4803133 1.2985203 -1.9375112 6
-1.5522281 0.36778912 -0.74358547 12
-2.0362999 0.49752581 0.55333078 14
-4.0325832 0.98527449 0.80217642 5
-4.9449673 1.2081958 0.71215153 26
-6.325439 1.5454841 0.56533152 6
-10.524101 2.5713365 0.5573411 6
-12.65629 3.0922906 0.43971488 1
-11.167402 3.6069696 0.32636628 42
-13.498207 2.2757809 0.30012289 16
-14.091625 3.4429836 0.232439 4
-11.178759 3.6106377 0.11892191 45
-16.100622 2.714545 0.068964317 4
-18.406534 4.4972386 -0.03141696 31
-11.179014 3.6107204 -0.088577002 42
-18.378931 3.098665 -0.25049609 35
-18.356499 4.4850135 -0.36547011 67
-11.175772 3.609673 -0.29645824 42
-18.371693 3.0974445 -0.57996863 34
-18.366745 4.4875169 -0.70088875 43
-11.146213 3.6001256 -0.50321645 63
-18.327209 3.0899448 -0.90737462 44
-8.4426298 2.0627739 -0.4760111 2
-8.1041183 2.6175568 -0.51640707 10
-9.2015009 1.5513617 -0.62093347 0
-7.8247075 1.9117979 -0.58373988 0
-7.8437448 2.5334585 -0.64582258 0
-8.8827343 1.4976178 -0.75880599 0
-7.7554836 1.8948846 -0.71982265 0
-7.6536646 2.4720643 -0.77246851 0
-8.5778513 1.4462152 -0.88682467 0
-7.591372 1.8547875 -0.84287393 0
-7.533483 1.8406435 -0.97392005 4
-7.5428243 1.8429259 -1.1125478 43
-7.5227923 1.8380315 -1.2480261 41
-7.4396391 1.8177148 -1.3697001 47
-7.4423046 1.8183661 -1.5068219 11
-7.5797195 1.8519404 -1.6728923 1
-8.3990355 2.0521226 -2.0070794 5
-7.7433076 1.8919097 -1.9911084 8
-5.4784627 1.3385438 -1.9401135 6
-1.5461006 0.37775624 -0.7418955 13
-2.040278 0.51361805 0.5553726 16
-3.9151595 0.9855994 0.78016782 6
-4.9517784 1.2465571 0.71436834 26
-6.306766 1.5876607 0.56463951 4
-10.521389 2.6486468 0.55816317 8
-13.26243 3.3386745 0.46157244 2
-11.17991 3.6973996 0.32747826 37
-13.525316 2.3775768 0.30108735 14
-14.086637 3.5461597 0.23275942 6
-11.179862 3.6973836 0.11920534 43
-16.140373 2.8372705 0.069217741 5
-18.405724 4.6334434 -0.031470016 34
-11.187712 3.6999798 -0.088848434 45
-18.380487 3.2310538 -0.25081861 34
-18.344131 4.6179385 -0.36585686 78
-11.173079 3.6951401 -0.29706386 42
-18.377186 3.2304733 -0.58083987 35
-18.362103 4.6224623 -0.70192599 43
-11.154955 3.6891465 -0.50476164 78
-18.3288 3.2219677 -0.9085449 37
-8.439642 2.1245894 -0.47666734 2
-8.1387177 2.691622 -0.51979655 8
-8.9545927 1.5741024 -0.60499853 0
-7.830514 1.9712479 -0.58518547 0
-7.8750854 2.604434 -0.6498844 0
-8.6129656 1.5140488 -0.73664618 0
-7.7227492 1.9441192 -0.7180267 0
-7.6815834 2.5404394 -0.77705741 0
-8.3480663 1.4674829 -0.86410642 0
-7.5859509 1.9096818 -0.84373182 0
-7.5358443 1.8970679 -0.9759137 52
-7.5297742 1.8955399 -1.1125478 38
-7.517436 1.8924339 -1.249299 54
-7.4344044 1.8715315 -1.3711085 48
-7.4560704 1.8769858 -1.5122254 4
-7.6500468 1.9258173 -1.6913402 4
-8.3807259 2.1097579 -2.0061748 6
-7.7299109 1.9459221 -1.9911084 7
-5.4616485 1.3749114 -1.9375112 5
-1.522331 0.38323051 -0.73175567 16
-2.047874 0.53076029 0.55843532 16
-3.8625627 1.0010844 0.77106082 6
-4.942955 1.2810966 0.71436834 25
-6.314816 1.6366503 0.56636941 3
-10.537444 2.7310553 0.56001276 6
-12.851812 3.3308845 0.44808012 6
-11.180337 3.7843337 0.32825667 39
-13.53199 2.4762626 0.30161342 12
-14.131226 3.662478 0.23391296 4
-11.17272 3.7817554 0.1194078 42
-16.147715 2.9549224 0.069336005 4
-18.415518 4.7728648 -0.031542972 28
-11.195707 3.7895365 -0.089119859 44
-18.381086 3.3636146 -0.25114113 38
-18.350159 4.7559257 -0.36663035 42
-11.173522 3.782027 -0.29777044 44
-18.369913 3.3615699 -0.58133769 35
-18.368078 4.7605696 -0.70340782 42
-11.151641 3.7746205 -0.50579178 74
-18.313719 3.3512869 -0.90893501 38
-8.4052734 2.1784472 -0.47557357 2
-8.2256212 2.7842181 -0.52657545 6
-8.6999741 1.5920364 -0.58853233 0
-7.7663565 2.0128551 -0.58142692 2
-7.9058156 2.6759698 -0.65394616 0
-8.3747807 1.5325283 -0.71717238 0
-7.7128448 1.9989862 -0.71838588 0
-7.6938329 2.6042178 -0.78011668 0
-8.1458139 1.4906288 -0.84422791 0
-7.5762835 1.9635928 -0.8441608 0
-7.5301003 1.9516232 -0.97691053 46
-7.5278559 1.9510415 -1.1142498 38
-7.5116868 1.9468509 -1.2505718 43
-7.4249692 1.9243757 -1.3718128 39
-7.4427848 1.9289931 -1.5122254 2
-7.6061273 1.9713275 -1.6846319 5
-8.3544769 2.165282 -2.0034614 5
-7.7198939 2.0008132 -1.9920778 5
-5.4629011 1.4158542 -1.9414148 5
-1.523128 0.39475861 -0.73344564 16
-2.0553293 0.54803348 0.56149805 16
-3.8478901 1.0260023 0.76954293 6
-4.9492016 1.3196561 0.71658516 24
-6.3263392 1.6868564 0.56844532 3
-10.514261 2.8035247 0.55980724 8
-13.341993 3.5575118 0.46602491 5
-11.176314 3.8701451 0.32892385 38
-13.628303 2.5923448 0.30415609 11
-14.151686 3.7734087 0.23468199 3
-11.183842 3.8727517 0.1198127 45
-16.185635 3.0787947 0.069589421 6
-18.412668 4.9095578 -0.031596031 31
-11.187877 3.8741491 -0.089270659 44
-18.376802 3.4955938 -0.25140992 33
-18.366745 4.8973126 -0.36763588 43
-11.177074 3.8704085 -0.29857796 43
-18.365637 3.4934697 -0.58195996 36
-18.353708 4.8938365 -0.70414871 43
-11.143898 3.8589201 -0.50665021 73
-18.3409 3.4887643 -0.91147065 42
-8.2818022 2.2082615 -0.46944845 4
-11.163911 3.86585 -0.71638471 47
-8.4377117 1.6050024 -0.57153499 3
-7.794518 2.0783319 -0.58460724 7
-7.9020138 2.7363172 -0.65519595 0
-8.1171913 1.5440336 -0.69601983 3
-7.6910028 2.0507307 -0.71766746 0
-7.7018018 2.6669877 -0.78279358 0
-7.9201989 1.5065622 -0.82191527 9
-7.5470204 2.0123391 -0.84244502 0
-7.5277963 2.0072131 -0.97840583 49
-7.529355 2.0076289 -1.1165192 39
-7.5093594 2.0022972 -1.2524811 40
-7.418963 1.9781938 -1.3732212 41
-7.4405141 1.9839402 -1.5145413 2
-7.6375284 2.0364723 -1.6946944 4
-8.3579817 2.2285738 -2.0079837 5
-7.6944885 2.0516601 -1.9891696 5
-5.4492288 1.4529834 -1.9401135 5
-1.5308442 0.40818462 -0.73851556 15
-2.0514534 0.56236899 0.56149805 16
-3.8254833 1.0486873 0.76650727 6
-4.9475093 1.3562706 0.71769357 26
-6.3144088 1.7309815 0.56844532 2
-10.532959 2.8874209 0.56186229 6
-13.366954 3.6643095 0.46777889 7
-11.179176 3.9587538 0.32981342 45
-13.656951 2.6967213 0.30520824 10
-14.302428 3.920753 0.23762994 11
-11.182925 3.9600813 0.12009614 43
-16.183367 3.1955912 0.069673896 4
-18.408808 5.046443 -0.031649087 39
-11.190722 3.962842 -0.089511931 45
-18.379419 3.6292267 -0.2517862 36
-18.355249 5.0317612 -0.36809996 43
-11.176167 3.9576883 -0.29928452 43
-18.380022 3.6293459 -0.58320451 36
-18.357647 5.0324178 -0.70563048 46
-11.139289 3.9446287 -0.50768036 60
-18.323936 3.6182711 -0.91186076 51
-8.1852942 2.2438509 -0.46485457 36
-11.151704 3.9490254 -0.71735311 45
-8.2305222 1.6252109 -0.55825585 8
-7.7836666 2.1337521 -0.58489639 2
-7.9466228 2.8140466 -0.6605075 0
-7.9576192 1.571323 -0.68326116 11
-7.71492 2.1149063 -0.72125942 0
-7.7242813 2.7353115 -0.78700006 0
-7.7611361 1.5325252 -0.8064993 2
-7.5788126 2.077595 -0.84759235 0
-7.521256 2.0618167 -0.97940266 50
-7.5342493 2.0653787 -1.1193558 40
-7.4990067 2.0557177 -1.2531176 40
-7.4163642 2.0330627 -1.3753339 39
-7.4340529 2.0379117 -1.5160851 255
-7.6306696 2.0918107 -1.6963716 3
-8.323431 2.2817187 -2.0034614 5
-7.6650071 2.1012237 -1.9852921 5
-5.4498959 1.4939908 -1.9440173 5
-1.5209644 0.41694498 -0.73513561 18
-2.0549228 0.57877421 0.56353986 18
-3.8369699 1.0806923 0.77030188 7
-4.9531722 1.3950735 0.71991038 23
-6.3098421 1.7771829 0.56913728 3
-10.512544 2.9608846 0.56186229 10
-13.356438 3.7618744 0.46831861 7
-11.170065 4.0435076 0.33036941 42
-13.708312 2.8064365 0.30678645 9
-14.182315 3.9944847 0.23609188 8
-11.185095 4.0489483 0.12042007 46
-15.941216 3.2635679 0.068727791 10
-18.400078 5.1824288 -0.031695511 29
-11.189111 4.0504022 -0.089723043 44
-18.377144 3.7622638 -0.25210872 33
-18.362019 5.1717091 -0.36895078 43
-11.182106 4.0478663 -0.30019298 44
-18.385572 3.7639892 -0.5842002 35
-18.36054 5.1712928 -0.70711231 46
-11.137782 4.0318213 -0.50888216 60
-18.325628 3.7517171 -0.91322613 45
-8.3962517 2.3648255 -0.47776112 2
-11.157652 4.0390143 -0.71953207 44
-8.093854 1.6570156 -0.54975718 9
-7.8069811 2.1988561 -0.58778763 2
-7.9830279 2.8898163 -0.66519415 1
-7.9152164 1.6204439 -0.68057513 1
-7.7038007 2.169795 -0.72161859 0
-7.7424369 2.8027234 -0.79082417 0
-7.7619433 1.5890651 -0.80771637 0
-7.5832639 2.1358454 -0.84973705 0
-7.5295987 2.1207306 -0.98239321 45
-7.5348916 2.1222212 -1.1216252 39
-7.4996767 2.1123028 -1.2556633 41
-7.4095697 2.0869241 -1.3767422 37
-7.4347553 2.0940177 -1.5191729 255
-7.6309385 2.1492732 -1.6997257 3
-8.3035479 2.3387151 -2.0025568 6
-7.6538863 2.1557364 -1.9862615 5
-5.4211292 1.5268747 -1.9375112 6
-1.511037 0.42558739 -0.73175567 19
-2.0471168 0.59203172 0.56251895 17
-3.8066952 1.1009065 0.76574838 6
-4.950923 1.4318203 0.72101879 22
-6.2896247 1.8189764 0.56844532 4
-10.576041 3.0586195 0.56638354 7
-11.947325 3.4551985 0.41974622 16
-11.179066 4.135263 0.3314814 39
-13.856606 2.9377275 0.31055662 12
-11.898805 3.4411664 0.19847354 12
-11.182814 4.1366496 0.1207035 47
-16.152824 3.424547 0.069741473 3
-11.823464 3.4193778 -0.020407427 13
-11.186821 4.1381321 -0.089934155 44
-18.377819 3.8962665 -0.25248501 33
-11.997993 3.469852 -0.24155834 2
-11.179826 4.1355443 -0.30089957 42
-18.366671 3.8939028 -0.58444911 35
-11.992 3.4681187 -0.46276438 13
-11.146845 4.1233444 -0.51059902 65
-18.326349 3.8853543 -0.91459149 47
-8.3948841 2.4278233 -0.47863615 2
-11.147905 4.1237369 -0.72074258 43
-8.0157146 1.699405 -0.54524231 1
-7.8297648 2.264389 -0.59067881 1
-11.141739 4.1214557 -0.93077195 40
-7.8725176 1.669046 -0.67788911 0
-7.6961193 2.2257385 -0.72233701 0
-7.797369 2.8843353 -0.79847234 0
-7.7156253 1.6357834 -0.80406523 0
-7.5643473 2.1876297 -0.84930807 0
-7.5260477 2.1765532 -0.98388851 48
-7.5427141 2.1813734 -1.1250292 36
-7.4961281 2.1679003 -1.2575725 39
-7.4137325 2.1440713 -1.3802633 31
-7.4350362 2.1502326 -1.5222607 255
-7.6307759 2.206841 -1.7030798 1
-8.2982473 2.3998754 -2.0052702 6
-7.6088257 2.2004931 -1.9785064 5
-5.4067035 1.5636332 -1.9362099 6
-1.5254427 0.44116214 -0.74020553 15
-2.0577648 0.61070937 0.56660253 18
-3.7989173 1.1274537 0.76574838 6
-4.9408073 1.466347 0.72101879 22
-6.2882347 1.8662405 0.56948328 4
-10.581239 3.1403306 0.5678221 6
-11.6738 3.4645841 0.41097623 15
-11.179846 4.2245135 0.33237097 41
-13.917789 3.0523839 0.31239787 13
-11.613767 3.4467671 0.19411571 10
-11.191078 4.2287583 0.12110841 43
-16.030846 3.5158095 0.069319107 2
-11.57306 3.4346862 -0.020016124 14
-11.195076 4.2302685 -0.090235747 42
-18.37752 4.0304708 -0.25286129 29
-11.76261 3.4909415 -0.2373042 13
-11.173125 4.2219744 -0.30150518 40
-18.370281 4.0288835 -0.58544475 34
-11.710751 3.4755502 -0.45283636 29
-11.147693 4.2123642 -0.51197255 62
-18.326094 4.0191927 -0.91595685 46
-8.4236784 2.5000038 -0.48126122 2
-11.148725 4.2127538 -0.72267938 48
-8.019249 1.7587438 -0.54630464 5
-7.8634882 2.3337486 -0.59443742 0
-11.153728 4.2146444 -0.93420881 44
-7.8373137 1.7188426 -0.67587453 0
-7.699491 2.2850771 -0.72413296 0
-11.136664 4.2081971 -1.1434063 39
-7.669034 1.6819364 -0.80041403 0
-7.5565171 2.242645 -0.85016596 0
-7.506866 2.2279093 -0.98339009 22
-7.5348949 2.2362278 -1.1261638 35
-7.4921689 2.2235477 -1.2594818 39
-7.4099088 2.1991341 -1.382376 21
-7.4348955 2.2065496 -1.5253483 255
-7.6526799 2.2711844 -1.7114652 0
-8.2402029 2.4455514 -1.9953208 6
-7.6267629 2.2634926 -1.9872309 4
-5.3992829 1.6024147 -1.9375112 6
-1.5362285 0.45592633 -0.74696535 13
-2.0386515 0.62055546 0.56251895 16
-3.8172536 1.1619532 0.77106082 6
-4.949398 1.5065725 0.72378981 25
-6.2903018 1.914737 0.57086718 4
-10.585808 3.2222679 0.56926066 5
-11.385441 3.465672 0.40166652 16
-11.172463 4.3110976 0.33303818 38
-13.950743 3.161849 0.31362537 14
-11.340721 3.4520597 0.18995015 12
-11.191136 4.3183026 0.12143234 43
-15.9669 3.6187985 0.069150157 5
-11.296241 3.4385202 -0.019578395 13
-11.195124 4.3198409 -0.09047702 39
-18.384041 4.1666284 -0.25334507 39
-11.470137 3.4914532 -0.23188983 21
-11.188146 4.3171487 -0.30271646 24
-18.376799 4.1649871 -0.58656484 36
-11.422343 3.4769051 -0.44261199 18
-11.14784 4.3015966 -0.51334602 59
-9.0396957 2.0487907 -0.452517 0
-8.501543 2.5878279 -0.4867301 2
-11.145117 4.3005452 -0.72437412 46
-7.9873133 1.8102748 -0.54497671 2
-7.866086 2.394398 -0.59588307 0
-11.153795 4.303894 -0.93670839 43
-7.8173485 1.7717534 -0.67520303 0
-7.6909719 2.341094 -0.72485137 0
-11.151591 4.3030434 -1.1479952 37
-7.6881533 1.7424721 -0.8036595 0
-7.5596991 2.3011353 -0.85231072 0
-7.5139098 2.2871971 -0.98638064 27
-7.5342507 2.2933888 -1.1284332 37
-7.4840193 2.2780986 -1.2607547 40
-7.4395776 2.2645707 -1.3908266 17
-7.4305735 2.2618301 -1.5276642 255
-7.7002449 2.3439167 -1.7257205 0
-8.2341118 2.5064232 -1.9980344 6
-7.5922117 2.3110318 -1.982384 5
-5.3879642 1.6400698 -1.9375112 6
-1.5017929 0.45713839 -0.73175567 15
-2.0342693 0.63477278 0.56251895 15
-3.8052995 1.1874044 0.77030188 7
-4.9614496 1.5481691 0.72711504 25
-6.2729769 1.9574176 0.57052118 5
-10.624069 3.3151309 0.57254881 6
-11.196869 3.4938674 0.39586481 32
-11.815457 4.6542296 0.35316503 11
-13.799831 3.2290988 0.31073198 33
-11.186535 3.4906428 0.18777123 26
-15.250624 6.0073767 0.1659319 18
-16.256721 3.8040001 0.070518635 2
-11.191773 3.4922774 -0.019439118 36
-18.421745 7.2565141 -0.14928707 36
-18.370081 4.2985168 -0.2535601 34
-11.185879 3.490438 -0.22663015 38
-18.412682 7.252944 -0.49954778 36
-18.382309 4.3013783 -0.58768499 37
-11.187922 3.4910758 -0.43446213 44
-11.143568 4.3895655 -0.51454782 1
-8.99405 2.1045675 -0.45095661 1
-8.6014633 2.6839979 -0.4935115 3
-18.369921 7.2360997 -1.1972026 48
-7.9123006 1.8514429 -0.54072738 0
-7.8720288 2.4563854 -0.59761781 0
-18.377115 7.2389336 -1.5475372 37
-7.8125505 1.8281019 -0.67587453 0
-7.7048645 2.4042234 -0.72772491 0
-18.367525 7.2351561 -1.8959894 36
-7.671926 1.7951964 -0.80325383 0
-7.5662279 2.3609633 -0.85488439 1
-7.5280685 2.349056 -0.99036801 49
-7.5407352 2.3530085 -1.1318372 35
-7.4943209 2.3385255 -1.2652097 48
-7.4311042 2.3187995 -1.392235 8
-7.4483213 2.3241718 -1.5346116 176
-9.0165787 2.8135302 -2.0250802 2
-8.2164125 2.5638468 -1.9980344 8
-7.5610743 2.3593552 -1.9785064 4
-5.3763828 1.6776448 -1.9375112 7
-1.4985648 0.4676117 -0.73175567 14
-2.0408399 0.65249258 0.56558162 16
-3.7819541 1.2091576 0.76726621 9
-4.9542933 1.5839752 0.72766918 19
-6.2667503 2.0035908 0.57121319 4
-10.657741 3.4074681 0.57563144 12
-11.191244 3.5780385 0.39653942 34
-11.137152 4.4771047 0.33381656 5
-13.994646 3.3779061 0.31564194 31
-11.192369 3.5783982 0.18828392 25
-15.249136 6.1301112 0.16637729 17
-16.241434 3.9202166 0.070569314 2
-11.189981 3.5776346 -0.019478912 33
-18.418882 7.4043403 -0.14967914 35
-18.38628 4.4379206 -0.25420514 31
-11.14981 3.5647914 -0.2263981 67
-18.420961 7.4051762 -0.50116277 35
-18.371265 4.4342966 -0.58830726 34
-11.163278 3.5690973 -0.43446213 53
-18.343105 7.373878 -0.84933871 34
-8.9558363 2.1616819 -0.44978631 1
-8.5254526 2.7257378 -0.49023017 2
-18.363409 7.38204 -1.2001078 69
-7.8797841 1.9019538 -0.53939945 0
-7.9306898 2.5355816 -0.60340023 0
-10.770717 4.3297987 -0.90952569 4
-7.795723 1.8816639 -0.67553878 0
-7.7030711 2.4628081 -0.72916168 0
-18.357204 7.3795457 -1.900196 34
-7.6359968 1.8431107 -0.80081975 0
-7.5571375 2.4161503 -0.85574228 2
-7.541728 2.4112236 -0.99435538 37
-7.5429821 2.4116247 -1.134674 35
-7.4890966 2.3943965 -1.2671189 42
-7.4709926 2.3886082 -1.4027983 5
-7.4431295 2.3797002 -1.5369275 69
-9.0078926 2.8799825 -2.0275958 2
-8.1908913 2.6187727 -1.9962254 6
-7.5555081 2.4156294 -1.9814146 5
-5.3537316 1.7116827 -1.9336075 6
-1.4987172 0.47916636 -0.73344564 14
-2.0546124 0.67274183 0.57068616 17
-3.7846174 1.2391975 0.76954293 8
-5.5944157 1.8317798 0.82354641 18
-6.2677579 2.0522523 0.57259709 5
-11.131019 3.64463 0.60255313 17
-11.184987 3.6623008 0.39721406 33
-10.828169 4.4409547 0.32547671 9
-13.986246 3.4793868 0.31599265 26
-11.193721 3.6651604 0.18873252 26
-15.254076 6.2561507 0.16690367 18
-16.178734 4.0248165 0.070417263 1
-11.198944 3.6668706 -0.019538602 34
-18.414852 7.5524793 -0.15007122 33
-18.382019 4.5729322 -0.25458142 31
-11.147455 3.6500118 -0.22686219 71
-18.431709 7.5593925 -0.50287879 35
-18.370899 4.5701656 -0.5893029 38
-11.16468 3.6556516 -0.43549937 54
-18.357733 7.5290527 -0.85242909 40
-8.9211416 2.2193305 -0.44881105 2
-8.3505898 2.7342339 -0.48126122 1
-18.377918 7.5373316 -1.2044656 50
-7.850822 1.9530648 -0.53833711 0
-7.9431267 2.6008182 -0.60571325 0
-10.522545 4.315609 -0.89109147 9
-7.7823963 1.9360424 -0.67553878 0
-7.7235498 2.5289223 -0.73275357 0
-18.353128 7.5271645 -1.9051673 38
-7.6345286 1.8992571 -0.80203676 0
-7.5741005 2.4799881 -0.85960275 3
-7.5397978 2.4687562 -0.9963491 39
-7.5523028 2.4728508 -1.1386453 33
-7.5022221 2.4564528 -1.2722102 36
-7.487813 2.451735 -1.4091362 2
-7.444984 2.4377115 -1.5407871 17
-8.9726992 2.9379315 -2.0242417 2
-8.1724091 2.6758924 -1.9962254 6
-7.5347714 2.4671104 -1.9804453 5
-5.3488402 1.751371 -1.9362099 5
-1.4918898 0.48848957 -0.73175567 14
-2.0461986 0.68584013 0.56966525 16
-3.7907691 1.2705812 0.77257866 7
-5.6115398 1.8808631 0.82798004 20
-6.2721701 2.1022916 0.57432699 5
-11.12803 3.7298675 0.60378623 23
-11.189471 3.7504613 0.39829344 33
-10.575578 4.4238596 0.31880483 4
-13.984858 3.5828991 0.31651872 26
-11.194405 3.752115 0.18918112 26
-15.265378 6.3856454 0.16751103 18
-16.223864 4.1565294 0.070738263 1
-11.199619 3.7538629 -0.019585028 34
-18.420717 7.7055521 -0.15055376 34
-18.372894 4.7071071 -0.25490394 45
-11.144454 3.7353725 -0.22732627 81
-18.426441 7.7079463 -0.50419098 37
-18.373402 4.7072372 -0.59042305 37
-11.161628 3.7411287 -0.43638846 57
-18.360023 7.6801634 -0.85500443 41
-8.9093008 2.2825491 -0.44900611 1
-11.156365 3.7393651 -0.64445251 46
-18.372734 7.6854806 -1.207613 50
-7.844728 2.0098073 -0.53886831 0
-7.9550371 2.6663511 -0.60802621 0
-10.300858 4.3089418 -0.87484437 9
-7.7686906 1.9903266 -0.67553878 0
-7.7321482 2.5916436 -0.73526794 0
-18.35523 7.6781583 -1.9109035 36
-7.594099 1.9455966 -0.79919702 0
-7.5716853 2.5378602 -0.86131853 5
-7.5562468 2.5326853 -1.0008349 35
-7.5573807 2.5330653 -1.1420493 34
-7.5148444 2.5188084 -1.2773017 46
-7.4518476 2.4976931 -1.4056151 2
-7.4724402 2.5045955 -1.5500504 2
-8.9371367 2.9955289 -2.0208874 2
-7.8284216 2.6239123 -1.9166296 2
-7.5284028 2.5233529 -1.9833534 5
-5.336483 1.7886702 -1.9362099 5
-1.5056307 0.50465387 -0.74020553 13
-2.0486774 0.70261794 0.57170707 17
-3.7892358 1.2995629 0.77409649 7
-5.5795364 1.9135674 0.82520902 18
-6.2611098 2.1473212 0.57467294 5
-11.135727 3.8191283 0.60563576 20
-11.197049 3.8401594 0.39950773 35
-10.489268 4.4740524 0.31713685 3
-13.994306 3.6896205 0.31730783 32
-11.190637 3.8379602 0.18956563 26
-15.264576 6.5108938 0.16799693 16
-16.217657 4.2758107 0.070839636 1
-11.195842 3.8397455 -0.019624822 34
-18.421661 7.8575053 -0.15100615 32
-18.385992 4.8474956 -0.25554901 32
-11.144585 3.8221662 -0.22786772 84
-18.412642 7.8536572 -0.5053013 34
-18.394215 4.8496633 -0.59216541 37
-11.173048 3.8319278 -0.43787026 52
-18.368448 7.8348079 -0.85792309 43
-8.8854208 2.3426552 -0.448616 1
-11.1451 3.8223429 -0.64532751 50
-18.370047 7.8354897 -1.2110025 50
-7.8189278 2.0614724 -0.53807151 0
-7.951324 2.727 -0.60918272 0
-10.068782 4.2946997 -0.85765994 8
-7.7661691 2.0475626 -0.67654604 0
-7.7327085 2.6520231 -0.73706388 0
-18.370764 7.8357954 -1.9181693 33
-7.5918746 2.0016096 -0.80041403 0
-7.5951633 2.6048505 -0.86603689 7
-7.5609059 2.5931015 -1.0038254 34
-7.5769663 2.5986094 -1.1477227 34
-7.5157542 2.5776162 -1.2804837 37
-7.4751987 2.5637071 -1.4133615 1
-7.4510603 2.5554285 -1.5492784 1
-8.364768 2.8687954 -1.8959446 2
-7.8172836 2.6810291 -1.9184386 3
-7.4885778 2.5682957 -1.977537 5
-5.3167105 1.8234282 -1.9336075 6
-1.5089297 0.51750517 -0.74358547 13
-2.0400729 0.71562314 0.57068616 17
-3.7837772 1.3272852 0.77485538 5
-5.5959463 1.9629635 0.82964265 22
-6.2534871 2.1936178 0.57536495 5
-11.138949 3.9073555 0.60727984 22
-11.185057 3.9235291 0.40004742 34
-10.685121 4.6460238 0.32403111 21
-13.991366 3.7935011 0.3178339 28
-11.193763 3.9265828 0.19007832 26
-15.262764 6.6364403 0.16848283 13
-18.395664 4.9876456 0.080503426 39
-11.191409 3.9257574 -0.019664615 33
-18.43605 8.0162249 -0.15157916 36
-18.382587 4.9840999 -0.25597903 33
-11.14782 3.9104671 -0.22848651 71
-18.419703 8.0091162 -0.50701725 37
-18.367628 4.9800439 -0.59241432 35
-11.172427 3.9190989 -0.4389075 52
-18.364611 7.9851623 -0.86032671 44
-8.8996992 2.4129896 -0.45017639 1
-11.159601 3.9145997 -0.64773387 51
-18.36982 7.9874272 -1.2146341 48
-7.8197546 2.1201825 -0.53913385 0
-7.9584446 2.791688 -0.61120659 0
-9.8520451 4.283792 -0.84172529 7
-7.7824621 2.1100712 -0.67923212 0
-7.7628756 2.7230856 -0.74173343 0
-18.377687 7.9908481 -1.9246702 39
-7.6199641 2.0660129 -0.80487657 0
-7.5993099 2.6657095 -0.86861056 4
-7.5725799 2.6563332 -1.0078129 35
-7.5885305 2.6619284 -1.1522614 33
-7.5348406 2.6430948 -1.2868481 37
-7.4794121 2.6236515 -1.4175868 5
-7.4700747 2.6203761 -1.5569978 1
-8.3223925 2.9193547 -1.8909134 1
-7.7983761 2.7355387 -1.9184386 5
-7.481451 2.6243668 -1.9804453 5
-5.3074198 1.8617533 -1.9349087 5
-1.4744903 0.51722628 -0.72837573 15
-2.0459485 0.73376495 0.57374889 16
-3.7818122 1.3563201 0.77637321 6
-5.5783768 2.0006454 0.82908845 19
-6.2455225 2.2399125 0.5760569 5
-11.152761 3.9998589 0.60954046 20
-11.187496 4.0123162 0.40112683 34
-10.959496 4.8565817 0.33337176 23
-13.987656 3.8975272 0.31835997 26
-11.196195 4.0154357 0.19059101 25
-15.256288 6.7606587 0.16892822 16
-18.391222 5.1245389 0.08063858 41
-11.197617 4.0159459 -0.019724306 37
-18.419863 8.1625633 -0.15191092 34
-18.397432 5.1262693 -0.25667784 34
-11.154128 4.000349 -0.22918263 76
-18.4328 8.1682959 -0.50893509 31
-18.382481 5.1221037 -0.59403229 34
-11.174894 4.0077968 -0.44009295 52
-18.381491 8.1455584 -0.86376047 46
-8.874939 2.4729173 -0.44978631 0
-11.162076 4.0031996 -0.64948386 50
-18.368364 8.1397409 -1.2182655 48
-7.8009176 2.1736515 -0.53886831 0
-7.8711648 2.8229377 -0.60600239 0
-9.5958567 4.2522998 -0.82235372 4
-7.7790594 2.1675611 -0.68023938 0
-7.796175 2.7960429 -0.7467621 0
-18.383337 8.1463766 -1.9311712 41
-7.5938549 2.1159556 -0.8036595 0
-7.6329231 2.7374938 -0.87461579 3
-7.5837359 2.7198534 -1.0118002 33
-7.5921249 2.722862 -1.1556654 33
-7.5533762 2.7089651 -1.2932123 30
-7.4609132 2.6758037 -1.4175868 36
-7.4663763 2.677763 -1.5600855 2
-8.2834015 2.9707832 -1.8867207 3
-7.790091 2.7938612 -1.9211521 4
-7.4519887 2.6726031 -1.977537 5
-5.2871723 1.8962069 -1.9323063 5
-1.484494 0.53240329 -0.73513561 15
-2.0335138 0.74536747 0.57170707 16
-3.7575021 1.377281 0.77333754 7
-5.5679941 2.0409017 0.82964265 21
-6.2559247 2.293057 0.57847875 6
-11.150823 4.0872407 0.61097902 22
-11.185489 4.0999475 0.4020713 35
-10.969053 4.9527202 0.33470613 27
-13.994707 4.0049872 0.31914908 31
-11.197931 4.1045084 0.1911037 24
-15.256106 6.8883996 0.1694546 13
-18.401146 5.266016 0.080841318 35
-11.20311 4.1064062 -0.019783996 32
-18.424402 8.3189411 -0.15242362 32
-12.012643 3.4377627 -0.16792913 5
-11.144706 4.0849991 -0.22956938 82
-18.422703 8.3181734 -0.51024729 36
-11.992537 3.4320087 -0.38830519 13
-11.16541 4.0925875 -0.44083384 53
-18.382452 8.2999992 -0.86650747 39
-9.4835501 2.7139902 -0.48157951 1
-11.160108 4.0906444 -0.65101516 51
-18.383869 8.3006392 -1.2231077 49
-7.785553 2.2280595 -0.53886831 0
-11.162583 4.0915513 -0.86158735 43
-9.4023848 4.2453418 -0.8082937 1
-7.7560735 2.2196231 -0.67956787 0
-7.8250928 2.8682222 -0.75143164 0
-18.376822 8.2974577 -1.936525 37
-7.605679 2.1765833 -0.8064993 0
-7.6771049 2.8139787 -0.88190782 17
-7.6055551 2.7877526 -1.0172828 30
-7.6175447 2.7921474 -1.1624734 31
-7.5565281 2.7697823 -1.2970308 28
-7.4642339 2.7359526 -1.4218121 32
-7.4880366 2.7446773 -1.5685768 3
-7.9356337 2.9087403 -1.8120904 2
-7.7923479 2.85622 -1.926579 4
-7.4295063 2.7232234 -1.9765677 5
-5.2702551 1.9317679 -1.9310051 5
-1.4705292 0.53901017 -0.7300657 14
-2.0318825 0.76090229 0.57272798 17
-3.7367616 1.3993478 0.77106082 8
-5.5536103 2.0797238 0.82964265 18
-6.2211041 2.3296881 0.57674885 6
-11.155685 4.1775966 0.61282861 21
-11.186544 4.1891532 0.40315068 32
-13.480685 6.2004185 0.41265598 2
-11.879119 3.4894564 0.27145207 18
-11.195223 4.1924028 0.1915523 25
-15.254889 7.0164609 0.16998099 15
-11.820462 3.4722264 0.05203579 20
-11.20039 4.1943378 -0.019830421 32
-18.427658 8.47577 -0.15293632 36
-11.738913 3.4482713 -0.16443509 13
-11.149623 4.1753263 -0.23026551 57
-18.436846 8.4799957 -0.5122661 34
-11.69593 3.4356451 -0.37946877 14
-11.170257 4.1830535 -0.44216746 52
-18.367632 8.4481611 -0.86856771 44
-9.2497082 2.7170746 -0.47065669 1
-11.168682 4.1824641 -0.65320271 48
-18.372633 8.4504614 -1.2262549 48
-7.7966137 2.2902324 -0.54072738 0
-11.152428 4.1763768 -0.86303294 45
-18.364632 8.4467821 -1.5837808 37
-7.751862 2.277087 -0.68057513 0
-7.8309941 2.9325619 -0.75394595 0
-18.369095 8.4488344 -1.9418787 34
-7.5902982 2.2296278 -0.8064993 0
-7.6796184 2.8758745 -0.88448149 10
-7.623075 2.8546999 -1.0222671 31
-7.6349468 2.8591459 -1.1681468 29
-7.5591965 2.8307786 -1.3008493 21
-7.4892006 2.8045666 -1.4302627 30
-7.5017724 2.8092744 -1.5755243 3
-7.9114714 2.9626989 -1.8112519 2
-7.7722182 2.9105513 -1.926579 4
-7.3885078 2.7668591 -1.9707514 4
-5.2708092 1.9738201 -1.9362099 6
-1.4531494 0.54417747 -0.72330582 14
-2.0373578 0.77921367 0.5757907 16
-3.7452424 1.4324161 0.77485538 8
-5.5389557 2.1184447 0.82964265 20
-6.1898003 2.3673687 0.57536495 7
-11.171022 4.272501 0.61529475 20
-11.201834 4.2842851 0.40476975 33
-12.343565 5.7821455 0.37907416 0
-11.578783 3.4892263 0.26513925 17
-11.191831 4.2804594 0.1920009 25
-15.26711 7.1516333 0.17066933 13
-11.520185 3.4715681 0.050819371 20
-11.208196 4.2867184 -0.019896744 36
-18.433237 8.6347542 -0.15347917 36
-11.461804 3.4539752 -0.16088729 13
-11.15382 4.2659221 -0.23096165 49
-18.442375 8.6390352 -0.51408303 31
-11.399869 3.4353113 -0.37063232 14
-11.178117 4.2752142 -0.44364926 49
-18.373346 8.6066999 -0.87165809 40
-9.0507231 2.7274044 -0.46148932 1
-11.169055 4.2717485 -0.65495276 48
-18.381886 8.6106997 -1.230855 45
-7.7957206 2.3492134 -0.54178971 0
-11.15281 4.2655354 -0.86534595 46
-18.388273 8.6136923 -1.5909669 38
-7.7624903 2.3391998 -0.6829254 0
-11.136883 4.2594438 -1.0750644 29
-18.378172 8.6089602 -1.9491445 34
-7.563117 2.2791193 -0.80528224 0
-7.7559314 2.9663556 -0.895634 58
-7.6474438 2.9248631 -1.0282482 28
-7.6517835 2.9265227 -1.1738203 27
-7.5650702 2.8933582 -1.3053043 26
-7.5062156 2.8708484 -1.4373049 28
-7.5076389 2.871393 -1.5809278 1
-7.934432 3.0346255 -1.8213143 2
-7.7917423 2.980052 -1.9365286 4
-7.3581376 2.8142142 -1.9678433 5
-5.2498355 2.0078669 -1.9336075 6
-1.4560875 0.55689937 -0.72668576 13
-2.035471 0.7948249 0.57681161 15
-3.727834 1.4556707 0.77333754 7
-5.5351014 2.1613851 0.83130527 22
-6.1879702 2.4163218 0.57674885 8
-11.178133 4.3649154 0.6173498 19
-11.830777 4.6197648 0.42865115 1
-12.194629 5.8165379 0.37573823 4
-11.301968 3.4920604 0.25935248 16
-14.533275 5.6750546 0.24999849 1
-15.26013 7.2787066 0.17115521 16
-11.270187 3.4822412 0.04982258 21
-18.443693 7.2020221 -0.032829627 27
-18.437489 8.7942286 -0.15402204 36
-11.200486 3.4607048 -0.15755451 25
-11.161019 4.358233 -0.23173513 45
-18.428532 8.7899561 -0.51539522 36
-11.180795 3.4546206 -0.36428502 41
-11.170339 4.3618717 -0.44453833 26
-18.370523 8.7622871 -0.87440509 39
-8.8444204 2.7327321 -0.45193186 1
-11.191046 4.3699579 -0.65801531 4
-18.371777 8.7628851 -1.2342445 44
-7.7829432 2.4047589 -0.54205531 0
-11.156205 4.3563533 -0.86794806 10
-18.385279 8.7693253 -1.5959661 40
-7.7840528 2.4051018 -0.68628293 0
-11.140274 4.350132 -1.0782973 50
-18.371529 8.7627668 -1.9548806 35
-7.5964475 2.347136 -0.81055617 0
-7.7276244 3.0175369 -0.89477611 2
-7.6859894 3.0012789 -1.0362229 23
-7.6901789 3.0029147 -1.1828976 25
-7.581471 2.9604657 -1.3116685 23
-7.5483432 2.9475298 -1.4492766 255
-7.5056891 2.9308741 -1.5847875 0
-8.7109156 3.401499 -2.0049551 3
-7.7816362 3.0386276 -1.939242 4
-7.3383112 2.865515 -1.9678433 5
-5.2251196 2.0403411 -1.9297038 6
-1.4589185 0.56968868 -0.7300657 6
-2.0298724 0.80901581 0.57681161 16
-3.7321737 1.4874766 0.77637321 7
-5.512517 2.1970413 0.83019686 23
-6.2264776 2.4815941 0.58193856 7
-11.826472 4.7135 0.65495801 23
-11.062936 4.4091887 0.40193635 17
-12.063804 5.8578672 0.37295827 3
-11.174376 3.5382838 0.25698516 40
-12.669099 5.0493331 0.21853238 3
-15.273709 7.4165134 0.17188406 14
-11.180775 3.5403099 0.049535371 44
-18.43012 7.3454175 -0.032895949 46
-18.440411 8.9541807 -0.1545649 36
-11.172239 3.5376072 -0.15750076 33
-18.370975 7.3218446 -0.3824867 45
-18.427868 8.9480906 -0.51711118 35
-11.17165 3.5374207 -0.36478287 43
-18.372936 7.3226261 -0.73319185 45
-18.370018 8.9200001 -0.87732381 43
-8.6461096 2.7377269 -0.44276449 0
-18.372883 7.3226051 -1.0832752 38
-18.378393 8.9240665 -1.2388444 48
-7.811625 2.4734936 -0.54524231 0
-10.884627 4.3381233 -0.84915501 7
-18.38818 8.9288187 -1.60159 37
-7.7632728 2.4581831 -0.68594718 0
-18.340885 7.3098526 -1.7801602 42
-18.38154 8.9255953 -1.9625288 37
-7.5950513 2.404917 -0.81217885 0
-18.331259 7.306016 -2.1284175 40
-18.301254 7.2940569 -2.4741755 5
-7.5973024 3.0279431 -1.3180327 18
-7.5861053 3.0234804 -1.460544 1
-7.5616083 3.0137169 -1.6009983 0
-8.7160215 3.4738142 -2.0116634 5
-7.7928081 3.1058629 -1.9473825 4
-7.3289423 2.9209869 -1.9707514 5
-5.2142615 2.0781701 -1.9310051 6
-1.4111238 0.56241047 -0.70809615 5
-2.0349228 0.82753813 0.57987434 15
-3.7326124 1.5179343 0.77864999 5
-5.5153923 2.242934 0.83296788 21
-6.2163839 2.5280049 0.58263052 7
-11.819181 4.8064837 0.65639657 23
-11.439238 4.6519728 0.41677791 12
-12.259195 6.0588713 0.38029733 3
-11.172226 3.6236122 0.25751123 38
-14.141414 5.7508616 0.24461529 9
-15.268174 7.5460014 0.17241044 16
-11.18242 3.6269188 0.049653634 43
-18.422853 7.4919868 -0.032975536 31
-18.43841 9.1128292 -0.15507761 34
-11.177706 3.6253896 -0.15793079 34
-18.371275 7.4710112 -0.3835696 45
-18.422308 9.1048708 -0.51872623 37
-11.165697 3.6214945 -0.36540514 43
-18.376909 7.4733024 -0.73541456 40
-18.36462 9.0763597 -0.88007081 41
-11.131214 3.6103106 -0.57130271 64
-18.369411 7.470253 -1.0861191 39
-18.39081 9.089304 -1.2439286 47
-7.7941666 2.5279686 -0.54524231 0
-10.61386 4.316318 -0.83036202 5
-18.382597 9.0852442 -1.6065892 37
-7.7800446 2.5233884 -0.68896902 0
-18.348452 7.461729 -1.7859073 42
-18.375891 9.0819311 -1.9686474 29
-7.5970025 2.4640205 -0.81420732 0
-18.331383 7.4547882 -2.1344228 46
-16.64328 6.7682905 -2.2563643 1
-13.952563 5.6740623 -2.15815 1
-12.115712 4.9270735 -2.1078341 1
-10.679735 4.3431072 -2.0619445 4
-9.5690899 3.8914433 -2.0317392 4
-8.6734428 3.5272124 -2.0074708 4
-7.7889819 3.1675303 -1.951905 4
-7.3083711 2.9720812 -1.9707514 5
-5.1961226 2.1130972 -1.9297038 6
-1.3265618 0.53947031 -0.66753691 2
-2.0326681 0.84320629 0.58089525 12
-3.7473173 1.5544896 0.78396243 6
-5.5178947 2.2889736 0.8357389 20
-6.1985836 2.5713418 0.58263052 8
-11.807477 4.8980637 0.65762961 17
-11.170156 4.6336856 0.40814283 11
-12.088 6.0796318 0.3762942 16
-11.169427 3.7090824 0.2580373 37
-13.894044 5.7636285 0.24102649 5
-15.27944 7.6847587 0.17313927 14
-11.179604 3.7124619 0.049755 44
-18.443996 7.651073 -0.033108182 27
-18.424366 9.2664919 -0.15549983 34
-11.174898 3.7108994 -0.15825331 35
-18.362999 7.6174731 -0.38449776 42
-18.436886 9.272788 -0.52094686 33
-11.170496 3.7094374 -0.36640081 42
-18.375978 7.622858 -0.7374891 39
-18.379349 9.2438507 -0.88384795 41
-11.132279 3.6967466 -0.57266808 56
-18.379528 7.6243296 -1.0898379 38
-18.387543 9.2479725 -1.2480444 48
-7.8255692 2.5986724 -0.54869485 0
-10.358681 4.2970634 -0.81272548 0
-18.397099 9.2527771 -1.6134629 35
-7.7925005 2.5876911 -0.69165504 0
-18.317991 7.598803 -1.7880625 67
-8.2453976 4.1470037 -0.88642669 3
-7.617382 2.5295386 -0.81826413 0
-18.341341 7.608489 -2.1417148 48
-16.617617 6.8934412 -2.2593548 1
-13.894325 5.7637458 -2.1553133 1
-12.091963 5.0160766 -2.1097434 2
-10.638244 4.413034 -2.0598319 5
-9.5525656 3.9626651 -2.0340552 4
-8.6558323 3.5906756 -2.0091479 4
-7.7774758 3.2263093 -1.9546185 2
-7.2874446 3.023031 -1.9707514 5
-5.1777496 2.147872 -1.9284027 6
-1.2457416 0.51676762 -0.62866771 0
-2.1692088 0.91764891 0.62173146 6
-3.7110548 1.5699022 0.77864999 8
-5.534616 2.3413305 0.84072673 21
-6.2025023 2.6238689 0.58470637 9
-11.824501 5.0021653 0.66050678 12
-10.993943 4.6508112 0.40288082 12
-12.020347 6.1511235 0.37551582 25
-11.165981 3.7946846 0.25856337 38
-15.282647 6.4650784 0.26589176 1
-12.038621 6.1604748 0.13689989 25
-11.176139 3.7981367 0.049856368 45
-18.438023 7.7999096 -0.0331944 38
-12.017531 6.149683 -0.10178664 21
-11.171442 3.7965407 -0.15857585 35
-18.368301 7.7704153 -0.38573533 44
-11.982008 6.1315045 -0.33976111 22
-11.178399 3.7989047 -0.3675209 43
-18.381218 7.7758784 -0.73985994 43
-12.081507 6.1824207 -0.5830512 7
-11.136464 3.7846537 -0.57422847 57
-18.384706 7.7773542 -1.093338 41
-12.0456 6.1640463 -0.82048929 23
-7.8525844 2.6686487 -0.55188185 0
-18.382471 7.7764091 -1.4464837 39
-12.016653 6.1492338 -1.0576243 22
-7.8006644 2.6510041 -0.69400531 0
-18.326868 7.7528872 -1.7941687 52
-8.1028204 4.1464238 -0.87418956 8
-7.6259117 2.5916157 -0.82110393 0
-18.34638 7.7611413 -2.1485779 49
-16.495983 6.9783607 -2.2493863 1
-13.835514 5.8528919 -2.1524765 1
-12.053013 5.0988336 -2.109107 2
-10.599922 4.484127 -2.0584233 4
-9.5282822 4.030787 -2.034827 4
-8.6233492 3.6479695 -2.0074708 5
-7.8014131 3.3002627 -1.9663769 2
-7.2590137 3.0708091 -1.9688126 4
-5.1661124 2.1854408 -1.9297038 6
-1.2387645 0.52403945 -0.62697774 0
-2.1307881 0.91898465 0.61254328 5
-5.2939644 2.2832265 1.1140918 19
-5.5108614 2.3767719 0.83961833 21
-6.1840339 2.6671035 0.58470637 11
-11.825974 5.1004086 0.66256183 21
-10.79602 4.6562004 0.39680928 16
-11.881351 6.1850419 0.37251347 23
-11.165658 3.8817377 0.25917712 38
-14.524681 6.2643294 0.25345913 0
-11.832117 6.1594129 0.1350373 21
-11.168242 3.8826358 0.049940843 46
-18.416182 7.9426894 -0.033254091 51
-11.804004 6.1447778 -0.10033901 24
-11.174889 3.8849468 -0.15900588 37
-18.372368 7.9237933 -0.3869729 44
-11.779299 6.131917 -0.33521885 23
-11.181816 3.8873549 -0.36851656 42
-18.366859 7.9214177 -0.74148995 42
-11.87499 6.1817312 -0.57515359 24
-11.143735 3.8741162 -0.57598394 54
-18.388645 7.9308138 -1.096838 40
-11.849986 6.168715 -0.8100788 28
-7.9053898 2.7483063 -0.55692792 1
-18.390015 7.9314046 -1.4513988 36
-11.817794 6.1519566 -1.0438768 25
-7.8346748 2.7237225 -0.69870591 0
-18.349121 7.9137669 -1.8017118 52
-7.9500628 4.1385422 -0.86080521 9
-7.6452203 2.6578586 -0.82516074 0
-18.339224 7.9094992 -2.1541543 51
-16.4578 7.098062 -2.2508817 1
-13.765233 5.9367881 -2.1479378 1
-12.009872 5.1797214 -2.1078341 2
-10.571977 4.5595732 -2.0591276 4
-9.4854965 4.0909867 -2.0317392 3
-8.5904913 3.7049811 -2.0057938 4
-7.8068066 3.366987 -1.9736129 4
-7.2409635 3.1229451 -1.969782 4
-5.1403108 2.2169576 -1.9258002 5
-1.2517214 0.53985316 -0.63542753 0
-2.0818341 0.91516125 0.60029244 7
-5.2778955 2.3201299 1.1140918 36
-5.5231462 2.4279406 0.84405196 20
-6.1944485 2.7230408 0.58747423 10
-11.819335 5.1957059 0.66420591 25
-10.583923 4.652627 0.39019805 10
-11.689466 6.1892567 0.36784315 22
-11.183502 3.9756682 0.26022926 41
-15.330025 6.7389832 0.268327 2
-11.640363 6.1632581 0.13333668 22
-11.18609 3.9765882 0.050143581 44
-18.444502 8.1080885 -0.033406634 40
-11.608814 6.1465535 -0.099042177 23
-11.181411 3.9749248 -0.15948968 33
-18.375179 8.0776148 -0.38821048 41
-11.594845 6.1391573 -0.33118129 20
-11.180774 3.9746983 -0.36938778 43
-18.369659 8.0751877 -0.74386078 42
-11.679677 6.1840739 -0.56777102 24
-11.135238 3.9585106 -0.57695919 67
-18.4023 8.0895367 -1.1009943 40
-11.658431 6.1728244 -0.79991049 28
-7.9236164 2.8167984 -0.55958378 0
-18.381674 8.0804691 -1.4551574 38
-11.61949 6.1522059 -1.0301292 25
-7.8455133 2.7890332 -0.70139194 0
-18.326246 8.0561037 -1.8049445 53
-7.8118916 4.1361856 -0.84895051 9
-7.6789708 2.7298284 -0.83084035 0
-18.330889 8.0581446 -2.1597304 48
-16.353346 7.1888289 -2.2434053 1
-13.705327 6.024776 -2.1451011 1
-11.940882 5.2491369 -2.1021063 2
-10.514654 4.6221766 -2.054198 3
-9.4423332 4.1507907 -2.0286515 4
-8.5465136 3.756994 -2.001601 4
-7.8259139 3.440223 -1.9844669 6
-7.2012215 3.165612 -1.9649351 5
-5.1281705 2.2543118 -1.9271015 5
-1.2578788 0.55295569 -0.64049745 0
