# .PCD v0.7 - Point Cloud Data file format
VERSION 0.7
FIELDS x y z intensity
SIZE 4 4 4 4
TYPE F F F F
COUNT 1 1 1 1
WIDTH 1343
HEIGHT 1
VIEWPOINT 0 0 0 1 0 0 0
POINTS 1343
DATA ascii
-5.2455244 -7.2864947 0.77949315 21
-5.3586617 -7.4436526 0.47184926 4
-5.3440094 -7.4232993 0.30870441 19
-6.1940289 -7.4027224 0.26843211 17
-9.4728909 -15.403989 0.39648136 14
-9.3538036 -12.993256 0.25653523 3
-12.269009 -14.663164 0.19354671 8
-12.226252 -19.881264 0.098580793 54
-12.804396 -17.786432 -0.036338087 31
-13.398679 -16.013277 -0.15743001 37
-12.185449 -19.814915 -0.31263632 39
-13.886184 -19.289131 -0.4596802 19
-13.376831 -15.987165 -0.5261957 42
-12.155517 -19.766241 -0.7223472 41
-12.88904 -17.904011 -0.81780231 27
-13.389277 -16.002039 -0.89638114 22
-12.186702 -19.816952 -1.1357787 44
-13.952002 -19.380558 -1.3079367 8
-13.371932 -15.981311 -1.263539 45
-6.0610123 -9.8558893 -0.76992565 0
-13.975988 -19.413877 -1.7335831 13
-13.342768 -15.946455 -1.6290852 47
-6.0550671 -9.8462219 -0.97368914 0
-7.0990481 -9.8612022 -1.0955385 0
-13.327467 -15.928168 -1.9946513 39
-5.9451203 -9.6674366 -1.1570101 46
-6.9566255 -9.6633644 -1.2842568 81
-6.9447594 -9.6468821 -1.4927791 36
-6.9678769 -9.6789942 -1.708819 29
-6.9447579 -9.6468792 -1.9156343 29
-6.9566984 -9.6634655 -2.1295493 2
-6.205039 -8.6193447 -2.0888627 3
-5.6326952 -7.8243093 -2.0670073 3
-5.019608 -6.9726772 -1.9944164 3
-4.7545958 -6.6045518 -2.0327919 5
-3.3214612 -4.613802 -1.9557282 6
-2.3956587 -3.327781 -1.9113526 8
-1.6403682 -2.245388 0.73403102 2
-2.2310262 -3.0538993 0.73083812 15
-2.736448 -3.7457368 0.64897233 23
-5.2516017 -7.1885586 0.77291954 21
-5.4145699 -7.4116344 0.30978379 19
-6.2791924 -7.398931 0.26987767 22
-9.6522322 -15.4528 0.39946243 12
-9.3876629 -12.85013 0.25499716 6
-12.376254 -14.583252 0.1936277 9
-12.288465 -19.673292 0.097972579 51
-12.869267 -17.61586 -0.036172282 37
-13.44803 -15.846154 -0.1567062 43
-12.2578 -19.624201 -0.31096992 45
-14.133749 -19.346724 -0.46339291 15
-13.420843 -15.814118 -0.52357125 42
-12.216965 -19.558825 -0.71786678 44
-12.945339 -17.71999 -0.81350511 21
-13.441191 -15.838095 -0.89243233 62
-12.254907 -19.619568 -1.129342 52
-12.824108 -17.554045 -1.190684 21
-13.436674 -15.832772 -1.2591811 48
-6.1423583 -9.8336458 -0.77151918 0
-12.845037 -17.582693 -1.5780348 15
-13.407323 -15.798187 -1.6234612 45
-6.1088781 -9.7800455 -0.97133887 0
-7.0267153 -9.6183901 -1.0739869 14
-13.371354 -15.755804 -1.9847087 43
-6.0461979 -9.679697 -1.163501 40
-7.0591092 -9.6627321 -1.2906909 77
-7.0493979 -9.6494389 -1.5007539 36
-7.0703158 -9.678072 -1.717329 31
-7.0608573 -9.6651249 -1.9289992 28
-7.0077333 -9.5924072 -2.1246197 2
-6.2743235 -8.5884924 -2.0919504 2
-5.7010255 -7.8037443 -2.0720387 3
-5.0543737 -6.9185867 -1.9889894 2
-4.8028784 -6.5743322 -2.0337613 5
-3.353591 -4.5905013 -1.9557282 6
-2.4166942 -3.3080475 -1.9096626 8
-1.6368072 -2.2095973 0.72586381 4
-2.2208409 -2.9980099 0.72097218 15
-2.7635884 -3.7306886 0.64952654 16
-5.2564654 -7.0959315 0.76669192 21
-6.1490688 -8.3008957 0.53144693 10
-5.4921622 -7.4141088 0.31140286 19
-6.3724494 -7.4086571 0.27176803 12
-9.829443 -15.506661 0.40253118 8
-9.4322109 -12.732952 0.25390771 1
-12.399668 -14.415945 0.19249395 7
-12.343719 -19.473114 0.097381264 42
-12.931055 -17.456194 -0.036019739 43
-13.505877 -15.702032 -0.15616333 44
-12.306313 -19.414103 -0.30892724 43
-12.983407 -17.526865 -0.42185694 22
-13.475884 -15.667163 -0.52165341 42
-12.273638 -19.362556 -0.71363527 42
-12.965024 -17.50205 -0.80742979 31
-13.504239 -15.700128 -0.88968533 50
-12.312034 -19.423128 -1.1227103 47
-12.940249 -17.468605 -1.190684 18
-13.476293 -15.667637 -1.2531285 57
-6.2587261 -9.8735952 -0.77789313 0
-12.885375 -17.394529 -1.5687828 9
-13.446793 -15.63334 -1.6156501 46
-6.1928134 -9.7696133 -0.97436064 0
-7.1259232 -9.6195936 -1.0793748 25
-13.428819 -15.612444 -1.9778253 49
-6.1379595 -9.6830778 -1.1687748 39
-7.1656504 -9.6732235 -1.298412 42
-7.1486769 -9.6503105 -1.5082303 36
-7.1649876 -9.6723289 -1.7247044 32
-7.1577125 -9.662508 -1.9379091 28
-7.0735426 -9.5488834 -2.125324 2
-6.3358192 -8.5529985 -2.0934944 2
-5.7456727 -7.7563338 -2.0695229 3
-5.1187034 -6.9099603 -1.9962254 2
-4.8509951 -6.5485697 -2.0356998 5
-3.3929684 -4.5803156 -1.9609331 6
-2.438581 -3.2919466 -1.9096626 8
-1.6336031 -2.1733837 0.71769655 2
-2.225199 -2.9604568 0.7156598 14
-2.7919464 -3.7144709 0.65008074 11
-5.2627783 -7.0017233 0.76046425 22
-6.1468654 -8.1779337 0.52630919 11
-5.57021 -7.4107375 0.31288701 18
-6.45293 -7.3971329 0.27299121 22
-10.028367 -15.578892 0.40621367 6
-9.4656029 -12.593259 0.25243375 1
-12.463195 -14.28683 0.19192708 7
-12.414411 -19.285566 0.096874423 41
-12.987716 -17.279161 -0.035840668 47
-13.552062 -15.535021 -0.15543951 45
-12.374432 -19.223461 -0.30726084 40
-13.030961 -17.336695 -0.41945913 17
-13.537617 -15.518462 -0.51983654 43
-12.337098 -19.165464 -0.70952815 37
-13.034059 -17.340816 -0.80416983 26
-13.553094 -15.536204 -0.88573653 51
-12.378128 -19.229204 -1.1164687 51
-13.073887 -17.393805 -1.1917777 14
-13.524977 -15.503973 -1.2475601 58
-6.3577456 -9.876646 -0.78161132 0
-14.792314 -19.68004 -1.7841797 18
-13.495312 -15.469967 -1.6084639 42
-6.3104854 -9.8032284 -0.98208302 0
-7.3532805 -9.7829762 -1.1034408 31
-13.479902 -15.452303 -1.9694122 43
-6.2312551 -9.6801443 -1.1736431 43
-7.2760181 -9.6801844 -1.3061329 35
-7.2659512 -9.6667919 -1.5186971 32
-7.2727823 -9.6758795 -1.7343491 30
-7.2629585 -9.6628094 -1.9480919 28
-7.1471314 -9.5087109 -2.1274366 1
-6.4165993 -8.5367937 -2.1004417 2
-5.8114314 -7.7316637 -2.0737157 3
-5.3072853 -7.060936 -2.0504951 3
-4.9082532 -6.530055 -2.0405469 5
-3.4203167 -4.5504694 -1.9583306 6
-2.4636817 -3.2777398 -1.9113526 7
-1.6346641 -2.1434746 0.71157116 1
-2.2243779 -2.9167445 0.70882952 12
-2.8202116 -3.6980395 0.65063494 7
-5.2704487 -6.9109445 0.75458264 20
-6.1505132 -8.0649405 0.521788 11
-5.6460514 -7.4034591 0.31423625 18
-6.5309091 -7.3818493 0.27410319 20
-12.353301 -18.899416 0.4950318 27
-9.4999294 -12.456907 0.25102386 1
-12.504325 -14.133567 0.19103627 7
-12.474339 -19.084591 0.096300006 40
-13.032832 -17.089472 -0.035635069 16
-13.596578 -15.368134 -0.1547157 44
-12.429558 -19.016081 -0.30532569 42
-14.963269 -19.620783 -0.47723824 18
-13.579385 -15.348701 -0.51731306 40
-12.400599 -18.971777 -0.70554554 41
-13.111167 -17.192188 -0.80150259 19
-13.610914 -15.384338 -0.88247442 50
-12.437752 -19.028616 -1.1098369 48
-15.035707 -19.715767 -1.3580316 13
-13.582618 -15.352356 -1.2429601 55
-6.4549308 -9.8754501 -0.78506392 0
-15.076918 -19.769806 -1.8018162 17
-13.550136 -15.315641 -1.6022149 43
-6.3962173 -9.7856245 -0.98476905 0
-7.4431396 -9.7599144 -1.1066735 0
-13.518853 -15.280282 -1.9594696 44
-6.337873 -9.6963634 -1.1809454 43
-7.3868279 -9.6860752 -1.3138539 37
-7.3693595 -9.6631689 -1.5261736 35
-7.378571 -9.6752472 -1.7434266 3
-7.3661599 -9.6589737 -1.9576383 22
-7.2157254 -9.4617147 -2.1281407 1
-6.4712787 -8.485549 -2.0988979 2
-5.8723798 -7.7002349 -2.0762312 4
-5.3540859 -7.0206151 -2.0495906 3
-4.9443069 -6.4832869 -2.0366693 6
-3.456588 -4.5324965 -1.9609331 5
-2.4843054 -3.2575781 -1.9096626 7
-2.9891398 -3.863313 1.2894037 12
-2.21825 -2.8669767 0.70048141 15
-3.197463 -4.1325603 0.7309944 7
-5.2673578 -6.807795 0.74731702 16
-6.1479983 -7.9459786 0.51685578 11
-5.7318497 -7.4081273 0.31612518 19
-6.6276798 -7.3866687 0.27599356 20
-12.40976 -18.699423 0.49205074 30
-9.5548477 -12.34916 0.25019073 1
-12.554609 -13.992339 0.19030744 8
-12.529858 -18.88039 0.095708683 36
-13.088181 -16.915815 -0.035462629 42
-13.647439 -15.210318 -0.15408236 49
-12.517779 -18.86219 -0.3042506 23
-15.261408 -19.724604 -0.4823432 18
-13.624787 -15.185072 -0.51499146 42
-12.572539 -18.944704 -0.70778579 15
-13.174613 -17.027525 -0.79809445 23
-13.664607 -15.229452 -0.87904066 50
-12.492972 -18.82481 -1.1030102 27
-13.071055 -16.893682 -1.1699022 0
-13.625471 -15.185834 -1.2371497 57
-6.5479937 -9.8667269 -0.78798532 0
-15.380583 -19.87863 -1.8214766 14
-13.606129 -15.164277 -1.5962785 45
-6.5040507 -9.8005114 -0.9908126 0
-15.26354 -19.72736 -2.2489071 16
-13.579996 -15.135151 -1.9529686 42
-6.4318171 -9.6916685 -1.1858137 50
-7.5005097 -9.6940317 -1.3220038 46
-7.4803581 -9.6679869 -1.5351452 34
-7.4992433 -9.6923952 -1.7559079 6
-7.4696617 -9.6541624 -1.9671845 2
-7.3008819 -9.4360228 -2.1337745 2
-6.5231566 -8.4308519 -2.0965822 2
-5.9188151 -7.6497712 -2.0737157 4
-5.4005842 -6.9799838 -2.0486863 3
-4.9941983 -6.4547505 -2.0386081 7
-3.4858322 -4.5052629 -1.9596318 5
-2.5003314 -3.2315526 -1.9045928 7
-3.0351419 -3.8666885 1.2975708 19
-2.218812 -2.8267064 0.69441009 16
-3.194438 -4.0696278 0.72378981 10
-5.2655458 -6.7081628 0.74039745 8
-6.151525 -7.8368759 0.5125401 10
-5.8204541 -7.4151011 0.31814903 20
-6.7248325 -7.3904958 0.27788395 22
-12.475203 -18.516151 0.48950806 21
-9.5889692 -12.216087 0.24884495 1
-12.611606 -13.859977 0.18970007 7
-11.76512 -17.462219 0.0889339 2
-13.149152 -16.751663 -0.03531009 43
-13.699451 -15.055504 -0.15347917 39
-12.821239 -19.029751 -0.30838969 17
-15.534553 -19.7906 -0.48659736 16
-13.687405 -15.042264 -0.51337641 42
-12.84523 -19.065359 -0.71562654 12
-13.224059 -16.847094 -0.79394543 26
-13.697974 -15.053881 -0.87440509 49
-12.673201 -18.810028 -1.1073014 5
-13.144288 -16.745466 -1.1659646 0
-13.682786 -15.037189 -1.2327918 54
-6.6635489 -9.8902826 -0.79356259 6
-13.134482 -16.732975 -1.5416052 5
-13.647248 -14.998134 -1.5887799 42
-6.5879025 -9.7780056 -0.99316293 0
-15.55832 -19.820879 -2.2718954 18
-13.612972 -14.960464 -1.9426435 42
-6.5326738 -9.6960335 -1.1918988 48
-7.6097484 -9.6946135 -1.3292959 40
-7.635891 -9.7279186 -1.5530884 3
-7.6425157 -9.7363586 -1.7734954 3
-7.5880833 -9.6670122 -1.9805495 3
-7.3592858 -9.3755312 -2.1316619 2
-6.5963964 -8.4036303 -2.1012137 2
-5.979321 -7.6174932 -2.0762312 3
-5.439559 -6.9298511 -2.0450683 3
-5.043932 -6.4258327 -2.0405469 8
-3.5195353 -4.4837928 -1.9609331 5
-2.5362623 -3.2311294 -1.9147326 7
-3.0933816 -3.8847363 1.3108426 18
-2.2262597 -2.7957857 0.69061548 13
-3.1832891 -3.9976437 0.71492255 6
-4.8952127 -6.1475148 0.68227279 15
-6.1438766 -7.7156143 0.50740236 10
-5.8944917 -7.4024315 0.31936333 21
-6.8196497 -7.3903837 0.27966312 19
-9.2109947 -13.467442 0.35772756 2
-11.873907 -14.911511 0.30543265 18
-12.645673 -13.703984 0.18876877 8
-11.780607 -17.224485 0.088139847 2
-13.208471 -16.587486 -0.035157546 38
-13.749974 -14.900704 -0.152876 41
-13.053125 -19.085039 -0.3107549 19
-13.260826 -16.653234 -0.41172433 21
-13.727004 -14.875813 -0.5109539 43
-12.583032 -18.397715 -0.69384664 68
-13.211873 -16.591759 -0.7862401 69
-13.759375 -14.910892 -0.87165809 48
-12.664369 -18.516638 -1.0952082 11
-13.188722 -16.562685 -1.1596208 23
-13.727863 -14.876743 -1.2274655 60
-6.7504568 -9.8698769 -0.79568726 27
-13.186365 -16.559725 -1.534088 8
-13.719171 -14.867324 -1.5850306 45
-6.7122574 -9.8140259 -1.0015568 0
-13.182425 -16.554777 -1.9080329 4
-13.673882 -14.818244 -1.936525 39
-6.6406407 -9.7093143 -1.1992012 55
-7.7267904 -9.7034721 -1.3378748 35
-7.7258692 -9.7023153 -1.5575743 3
-7.7423668 -9.7230339 -1.7808708 13
-7.699666 -9.6694088 -1.9920051 6
-7.4221077 -9.3208456 -2.1309576 2
-6.6549044 -8.3573742 -2.1012137 3
-6.0347915 -7.5786228 -2.0770698 3
-5.4999418 -6.9069471 -2.0495906 3
-5.0814176 -6.3813548 -2.0376387 7
-3.5578208 -4.467989 -1.9648367 6
-2.5564995 -3.2105081 -1.9130425 7
-3.1315002 -3.8739877 1.3149263 19
-2.244225 -2.7763369 0.68985653 10
-3.1826236 -3.9372325 0.7082721 9
-4.9226084 -6.0897722 0.67985094 8
-6.1550665 -7.61445 0.50370318 12
-5.9762402 -7.3932228 0.32084748 20
-6.9173694 -7.3868918 0.28144228 20
-10.927217 -15.728063 0.41989148 21
-11.945181 -14.777415 0.30447137 17
-12.704779 -13.567127 0.18816142 8
-11.797004 -16.97999 0.087328896 9
-13.271873 -16.418669 -0.035005003 37
-13.804151 -14.74112 -0.15227282 42
-12.711156 -18.295773 -0.2994127 51
-13.334775 -16.496487 -0.41025472 2
-13.791947 -14.728088 -0.50933886 43
-12.681055 -18.252447 -0.69185531 52
-13.272831 -16.419855 -0.78268379 3
-13.810943 -14.748373 -0.86805266 49
-12.697181 -18.275658 -1.0864309 29
-16.244907 -20.096619 -1.4153454 14
-13.790152 -14.726171 -1.2233497 57
-6.8180704 -9.8135729 -0.79515606 1
-16.286892 -20.148558 -1.8775665 15
-13.756914 -14.690677 -1.576907 44
-6.8090339 -9.8005667 -1.0052501 0
-16.170971 -20.005152 -2.3193088 16
-13.716818 -14.64786 -1.9273471 42
-6.7411513 -9.7028599 -1.204475 49
-7.8452134 -9.7053347 -1.3460246 43
-7.8566618 -9.7194977 -1.5695364 3
-7.8448148 -9.7048416 -2.0110977 7
-7.4828067 -9.2570009 -2.128845 6
-6.7184544 -8.3114185 -2.1019857 3
-6.0951009 -7.540266 -2.0787468 3
-5.5455256 -6.8603845 -2.0477817 4
-5.1353769 -6.3529892 -2.0405469 4
-3.5928547 -4.4447303 -1.9661379 6
-2.584523 -3.1973205 -1.9164225 7
-3.1731818 -3.869976 1.3210517 20
-2.2585719 -2.7545283 0.6883387 6
-3.1874263 -3.8873484 0.70328426 11
-4.9751086 -6.0675855 0.68123484 10
-6.147285 -7.4971581 0.49877098 11
-6.0707989 -7.4038763 0.32314119 18
-7.0100713 -7.3819108 0.28311023 21
-11.071322 -15.700417 0.42120665 19
-11.989725 -14.622531 0.30299741 18
-12.752362 -13.428794 0.18747307 7
-11.906039 -16.88414 0.087261319 7
-13.310082 -16.232824 -0.034806035 33
-13.859903 -14.595082 -0.15176012 45
-13.58538 -19.26564 -0.31682917 17
-16.474762 -20.092432 -0.50253105 16
-13.828347 -14.561852 -0.50691634 42
-12.764397 -18.101391 -0.68949062 17
-13.34912 -16.280434 -0.78046113 9
-13.853027 -14.587842 -0.86427552 51
-12.806042 -18.160448 -1.0848705 3
-16.562078 -20.198919 -1.4306583 13
-13.829387 -14.562948 -1.2177814 56
-13.558926 -19.228125 -1.5656129 17
-16.594107 -20.237982 -1.8966486 16
-13.817948 -14.550903 -1.5722203 45
-6.9209328 -9.8146839 -1.0116295 0
-16.492104 -20.113581 -2.3451707 16
-13.788585 -14.519981 -1.9231406 41
-6.8500051 -9.7140999 -1.2117773 51
-7.9934673 -9.7487411 -1.3597509 27
-8.0325308 -9.796382 -1.5909686 2
-7.9635701 -9.7122784 -1.7995929 4
-7.9273973 -9.6681623 -2.0149164 3
-7.5497451 -9.2075825 -2.1295493 4
-6.7862678 -8.276454 -2.1050735 4
-6.1451116 -7.4945078 -2.0779083 2
-5.6105766 -6.8425946 -2.0541131 4
-5.1820631 -6.3199844 -2.0415163 3
-3.619 -4.4136906 -1.9635355 5
-2.6044822 -3.1763964 -1.9147326 8
-3.2273257 -3.8804376 1.3322817 20
-2.2702134 -2.729635 0.68606198 8
-3.1790245 -3.8223617 0.69552541 12
-5.0606661 -6.0847902 0.6871165 10
-6.1637139 -7.4110608 0.49589384 10
-6.1504588 -7.3951235 0.32462534 20
-7.105813 -7.3788733 0.2848894 14
-11.224882 -15.68453 0.42287254 28
-12.048041 -14.486197 0.30190793 16
-12.798636 -13.29046 0.18678473 7
-12.121394 -16.937227 0.087970898 4
-13.361699 -16.065697 -0.034646865 31
-13.900419 -14.434582 -0.15109661 41
-13.854556 -19.358973 -0.31994691 17
-16.791084 -20.189087 -0.50786811 19
-13.879745 -14.413114 -0.50509942 42
-12.827634 -17.924055 -0.68613029 18
-13.347434 -16.048546 -0.77379304 1
-13.89632 -14.430326 -0.86067009 47
-12.848807 -17.953642 -1.0778487 0
-13.35449 -16.057032 -1.1438704 10
-13.880867 -14.414278 -1.2134235 51
-13.820586 -19.311508 -1.58022 20
-13.329317 -16.026764 -1.5106691 38
-13.866641 -14.399505 -1.5662838 44
-7.0356779 -9.8309536 -1.0183445 0
-16.802799 -20.203173 -2.3692367 16
-13.826095 -14.357401 -1.9143451 44
-6.957026 -9.7210531 -1.2186739 40
-8.1427078 -9.7905436 -1.373477 8
-8.0677347 -9.7003975 -1.5844891 31
-8.0894136 -9.7264633 -1.8126416 14
-8.6335707 -10.380741 -2.1759315 1
-7.6289496 -9.1728153 -2.1337745 3
-6.8589416 -8.2469816 -2.109705 3
-6.2072873 -7.4634519 -2.0812626 3
-5.6631937 -6.8092508 -2.055922 5
-5.2310214 -6.2896199 -2.0434549 4
-3.6545622 -4.3941336 -1.9661379 5
-2.6219578 -3.1525617 -1.9113526 7
-3.2668064 -3.8725929 1.3373863 19
-2.2917466 -2.7167211 0.68682086 7
-3.1903062 -3.7819068 0.69220018 12
-5.11587 -6.0645413 0.68884641 10
-6.1637878 -7.3067818 0.49178365 9
-6.2431803 -7.4008965 0.3267841 23
-7.2074366 -7.380579 0.28689098 22
-11.367007 -15.651083 0.42410004 29
-12.076674 -14.316136 0.30011353 18
-12.851983 -13.160724 0.18621784 8
-12.342768 -16.994595 0.088714264 5
-13.434846 -15.926163 -0.034547381 37
-13.956135 -14.291401 -0.15061408 43
-14.102186 -19.417116 -0.32252714 16
-13.445246 -15.938491 -0.40329337 46
-13.918563 -14.252926 -0.50287879 44
-12.898417 -17.759663 -0.68326777 12
-13.433375 -15.924418 -0.77231127 36
-13.954839 -14.290073 -0.85809481 49
-14.04677 -19.340813 -1.1669867 8
-13.399306 -15.884032 -1.1381828 63
-13.925365 -14.259892 -1.2085814 58
-14.067648 -19.36956 -1.592968 16
-13.379143 -15.86013 -1.5037301 48
-13.89996 -14.233875 -1.5587852 44
-7.0479245 -9.704195 -1.0102865 13
-13.406275 -15.892293 -1.8746279 49
-13.881477 -14.21495 -1.9082266 45
-7.0691528 -9.7334232 -1.226382 38
-13.385601 -15.867785 -2.239085 35
-8.2197094 -9.743947 -1.6009371 26
-8.2311611 -9.7575216 -1.8290944 8
-8.7211094 -10.338325 -2.17975 1
-7.6877241 -9.1133118 -2.1323659 2
-6.9163494 -8.1988955 -2.109705 3
-6.2617626 -7.4229245 -2.0821011 3
-5.7080808 -6.7665696 -2.0550177 4
-5.282311 -6.2618465 -2.0463631 4
-3.6851501 -4.3685131 -1.9661379 6
-2.6485782 -3.1397223 -1.9147326 7
-3.3189056 -3.8790789 1.3475952 22
-2.3055506 -2.6946871 0.68530303 4
-3.1908774 -3.7294416 0.68665814 12
-5.1995349 -6.0771255 0.69438207 9
-6.1653056 -7.2059011 0.48787898 8
-6.3310809 -7.3996568 0.32867303 19
-7.3178701 -7.3897452 0.28922614 22
-11.537678 -15.655047 0.42637968 29
-12.134723 -14.182852 0.29908818 19
-12.898519 -13.025207 0.18557 7
-12.575015 -17.062572 0.089525215 7
-13.47029 -15.743839 -0.034355044 34
-13.985207 -14.122567 -0.1498601 39
-12.951283 -17.573116 -0.29339218 13
-13.493791 -15.771306 -0.40143701 52
-13.978336 -14.11563 -0.50146562 42
-12.912974 -17.521135 -0.67754281 59
-13.481852 -15.757353 -0.76875496 49
-14.000835 -14.13835 -0.85483271 49
-12.89912 -17.502338 -1.0614644 20
-13.463133 -15.735474 -1.1342452 46
-13.979629 -14.116935 -1.2047077 56
-12.919136 -17.529497 -1.4490218 14
-13.437668 -15.705711 -1.4979477 42
-13.954097 -14.091152 -1.553786 44
-7.2290058 -9.8087702 -1.0264026 11
-13.452147 -15.722635 -1.8656482 53
-13.924345 -14.061109 -1.9005784 47
-7.1912308 -9.757514 -1.2357128 28
-13.434002 -15.701427 -2.2287903 52
-12.397758 -14.490284 -2.3949261 2
-10.322367 -12.064602 -2.2750213 1
-8.80334 -10.28919 -2.1822956 1
-7.7588391 -9.0683956 -2.1344788 2
-6.986177 -8.1653214 -2.1135647 3
-6.3134313 -7.3790283 -2.0821011 2
-5.772913 -6.7472796 -2.0613492 4
-5.3132834 -6.210073 -2.0415163 4
-3.7130992 -4.3398056 -1.9648367 5
-2.6751468 -3.1266646 -1.9181124 7
-3.3572276 -3.871592 1.3526998 22
-2.3156524 -2.6704359 0.68302631 6
-3.1818025 -3.6692898 0.67945349 11
-5.273664 -6.0816479 0.69887984 11
-6.1894059 -7.1376915 0.48602939 6
-6.4193025 -7.4028106 0.33069688 20
-7.4063716 -7.3805628 0.2907829 23
-11.698704 -15.655063 0.42848396 28
-12.165631 -14.029541 0.29755011 18
-12.933622 -12.888553 0.18484116 7
-12.812411 -17.145411 0.090403736 13
-13.521996 -15.593716 -0.034222398 37
-14.036064 -13.987153 -0.14940771 52
-12.990933 -17.384308 -0.29167205 12
-13.553548 -15.630102 -0.40012211 52
-14.012166 -13.963338 -0.4993459 43
-12.99539 -17.39027 -0.67580038 255
-13.528446 -15.601154 -0.765495 52
-14.046174 -13.997228 -0.85191405 49
-13.000567 -17.3972 -1.0602942 20
-13.512246 -15.582472 -1.1296513 47
-14.013557 -13.964725 -1.1996236 58
-12.934769 -17.309149 -1.4378674 18
-13.481419 -15.546922 -1.4912978 42
-13.985103 -13.936369 -1.5469123 40
-12.958187 -17.340487 -1.8234847 8
-13.496097 -15.563848 -1.8573867 50
-13.96935 -13.920671 -1.8940774 44
-7.2891355 -9.7542315 -1.2413923 29
-13.477913 -15.542878 -2.2189248 58
-12.537788 -14.458716 -2.4033992 3
-10.407341 -12.001861 -2.2761559 1
-8.8765593 -10.236547 -2.1835685 1
-7.8213892 -9.0197134 -2.1351829 2
-7.0324626 -8.1099138 -2.111249 3
-6.3647928 -7.3399496 -2.0829396 2
-5.792007 -6.6794066 -2.0523043 3
-5.356894 -6.1776299 -2.0424855 4
-3.7492332 -4.3236575 -1.9687403 7
-2.6886985 -3.100637 -1.9130425 8
-3.3969452 -3.862581 1.3578043 20
-2.3316455 -2.6512554 0.68226737 5
-3.196877 -3.6350884 0.67723668 10
-5.3607321 -6.0955534 0.70476151 13
-6.2285333 -7.0823083 0.48520735 7
-6.5104284 -7.4028444 0.33272073 17
-7.5176048 -7.3875318 0.29311806 20
-11.894693 -15.687728 0.43164039 30
-12.213097 -13.887205 0.29633248 20
-13.011872 -12.786736 0.1846792 5
-13.040547 -17.198977 0.091164 33
-13.572417 -15.432855 -0.03407649 34
-14.076309 -13.832754 -0.14880453 43
-14.936447 -19.69945 -0.3322567 15
-13.591026 -15.454015 -0.39803371 48
-14.063669 -13.820333 -0.49773085 38
-13.065753 -17.23222 -0.67318678 12
-13.578959 -15.440292 -0.76223505 52
-14.089389 -13.845609 -0.84865195 47
-13.124119 -17.309198 -1.0604892 3
-13.560037 -15.418777 -1.12462 46
-14.067987 -13.824576 -1.195992 59
-14.892777 -19.641855 -1.6402417 20
-13.52903 -15.38352 -1.484648 44
-14.030856 -13.788088 -1.5412884 42
-14.930835 -19.692047 -2.0816803 16
-13.554437 -15.412409 -1.850562 50
-14.012232 -13.769786 -1.8868116 48
-7.4051409 -9.7665262 -1.249506 32
-13.536194 -15.391665 -2.2107747 56
-12.672496 -14.409576 -2.409879 2
-10.511795 -11.952698 -2.2806947 1
-8.9582396 -10.186189 -2.1861143 1
-7.8945694 -8.976717 -2.1379998 2
-7.0915008 -8.0635672 -2.1120207 3
-6.4158802 -7.2953362 -2.0829396 2
-5.8024731 -6.597846 -2.0396411 4
-5.4127059 -6.1546516 -2.0473325 5
-3.7818246 -4.3002176 -1.9700416 6
-2.7078855 -3.0790684 -1.9113526 7
-3.4534965 -3.8693156 1.3690343 20
-2.3405569 -2.6223724 0.6792317 5
-3.1970594 -3.5820024 0.67169464 8
-5.4132309 -6.0650125 0.7057994 17
-6.1792016 -6.9232101 0.47739801 12
-6.6044497 -7.3996606 0.33474457 17
-7.6203871 -7.3795137 0.29500842 21
-12.041083 -15.641309 0.43278018 32
-12.274619 -13.752549 0.2953712 20
-10.774984 -10.434398 0.15184104 0
-13.112592 -17.033194 0.090792321 28
-13.626584 -15.267298 -0.033930581 35
-14.131355 -13.684676 -0.14832199 42
-15.212199 -19.760574 -0.33515945 14
-13.634707 -15.276399 -0.39602265 50
-14.115767 -13.66958 -0.49601489 42
-13.116116 -17.037771 -0.66932863 19
-13.638543 -15.280697 -0.75927144 57
-14.138829 -13.691915 -0.84556156 48
-13.184847 -17.127052 -1.0552229 0
-13.616848 -15.256389 -1.1200261 48
-14.114452 -13.668308 -1.1913921 57
-15.192175 -19.734562 -1.6572391 20
-13.580334 -15.215478 -1.4779981 45
-14.074257 -13.629383 -1.5350394 43
-15.247415 -19.806318 -2.1055188 16
-13.613996 -15.253193 -1.8433782 48
-14.058447 -13.614072 -1.8795458 45
-7.5202279 -9.7687397 -1.2568083 27
-13.585101 -15.220819 -2.20048 55
-12.790998 -14.331101 -2.4123709 2
-10.614949 -11.893046 -2.2840986 1
-9.0247784 -10.11141 -2.1842048 1
-7.9654045 -8.9244814 -2.1394081 2
-7.1478062 -8.00844 -2.111249 3
-6.4691854 -7.2481098 -2.0829396 2
-5.8065743 -6.5057168 -2.0242648 4
-5.4602609 -6.1177053 -2.0483019 4
-3.815764 -4.2752023 -1.9713428 5
-2.7400398 -3.0699551 -1.9181124 7
-3.4985931 -3.8651831 1.3761806 21
-2.361443 -2.60888 0.67999065 6
-3.2086966 -3.5449107 0.66892362 6
-5.4393954 -6.009347 0.70372355 21
-6.2488298 -6.9035954 0.47904208 13
-6.7042375 -7.4067216 0.33717319 16
-7.7382293 -7.389647 0.297566 20
-12.21152 -15.63566 0.43497214 35
-9.968195 -11.012683 0.23801446 4
-10.908315 -10.416929 0.15269135 0
-13.177017 -16.871883 0.090420634 47
-13.681836 -15.115448 -0.033804569 33
-14.171587 -13.533201 -0.14774898 87
-15.507339 -19.855635 -0.33859974 15
-13.703451 -15.139328 -0.39493978 47
-14.164583 -13.526514 -0.49439988 42
-13.173216 -16.867018 -0.66621721 17
-13.683193 -15.116947 -0.75586331 56
-14.167599 -13.529393 -0.84161276 47
-15.43373 -19.761385 -1.2241365 16
-13.66674 -15.09877 -1.1154323 48
-14.163331 -13.525318 -1.1875184 55
-15.474518 -19.81361 -1.6729085 19
-13.640713 -15.070016 -1.473083 42
-14.125805 -13.489483 -1.5303527 44
-15.53497 -19.891012 -2.1259999 17
-13.650641 -15.080985 -1.8340391 71
-14.101315 -13.466096 -1.8726624 25
-7.644577 -9.7881346 -1.266139 23
-13.640324 -15.069586 -2.1923301 59
-12.90139 -14.253225 -2.4143646 2
-10.703034 -11.824521 -2.2852333 1
-9.0871992 -10.039375 -2.1822956 1
-8.0433693 -8.8861704 -2.1436336 2
-7.2114425 -7.9670725 -2.1135647 3
-6.51438 -7.1969705 -2.0812626 2
-5.8178596 -6.4274673 -2.0125062 5
-5.4950242 -6.0708046 -2.0453937 4
-3.8505938 -4.2540674 -1.9739453 6
-2.7492409 -3.037312 -1.9096626 8
-3.525491 -3.8406646 1.3761806 20
-2.3822541 -2.5952241 0.68074954 4
-3.211935 -3.4990771 0.66448998 3
-5.5000782 -5.9917774 0.70614541 20
-6.334691 -6.9010029 0.48191923 10
-6.8017392 -7.4098048 0.3394669 16
-7.8478484 -7.3902678 0.29978997 19
-12.389916 -15.637791 0.43742713 23
-10.006968 -10.901576 0.23711726 9
-11.094337 -10.447464 0.1542705 2
-13.224931 -16.691694 0.089947581 49
-13.719401 -14.945896 -0.03363876 43
-14.3094 -13.475068 -0.14820136 35
-13.221372 -16.687202 -0.28613532 10
-13.757421 -14.987314 -0.39347017 49
-14.366383 -13.528728 -0.49813461 23
-13.161541 -16.611687 -0.65974545 102
-13.731629 -14.959216 -0.75275159 55
-14.232614 -13.402759 -0.8398959 36
-13.219241 -16.684513 -1.0392287 2
-13.712394 -14.938262 -1.1106197 50
-14.292292 -13.458958 -1.1904236 28
-13.19091 -16.648756 -1.4134337 6
-13.691628 -14.915639 -1.4673005 41
-14.341568 -13.505361 -1.5434754 26
-13.1561 -16.60482 -1.7845372 7
-13.707098 -14.932492 -1.8275737 59
-6.3597698 -5.9889536 -0.83900785 0
-7.7621498 -9.7969084 -1.2742527 15
-13.686028 -14.909538 -2.1828933 56
-12.997894 -14.159887 -2.4138663 2
-10.785322 -11.749514 -2.2852333 1
-9.1570635 -9.9756918 -2.1822956 1
-8.1185217 -8.844306 -2.1471546 2
-7.2642317 -7.9136434 -2.1127927 3
-6.5803332 -7.1686053 -2.0862937 2
-5.8230658 -6.3436389 -1.9989388 4
-5.5451446 -6.0408721 -2.0483019 4
-3.8725247 -4.2187228 -1.9700416 5
-2.7826357 -3.0313993 -1.9181124 7
-3.5838399 -3.8499284 1.3884314 21
-2.3922863 -2.569906 0.67847282 5
-3.9137723 -4.2043576 0.80359507 10
-5.585218 -5.9999027 0.71168107 21
-6.3936019 -6.8683062 0.48274127 7
-6.8968849 -7.408957 0.34162566 13
-7.9578509 -7.3897152 0.3020139 14
-11.186028 -13.917584 0.39148369 2
-10.03923 -10.784611 0.23609188 5
-11.287172 -10.481346 0.15593062 5
-13.296034 -16.542843 0.089643478 54
-13.787978 -14.811691 -0.033552542 34
-14.511572 -13.475546 -0.14931723 47
-16.131342 -20.070515 -0.34607163 16
-13.804495 -14.829434 -0.39184585 52
-14.489782 -13.455312 -0.49914402 35
-13.244631 -16.478886 -0.65812755 7
-13.781257 -14.804471 -0.74978799 57
-14.507398 -13.471669 -0.85054052 42
-13.265318 -16.504625 -1.0337673 26
-13.764641 -14.786622 -1.1064633 46
-14.494156 -13.459373 -1.1993815 43
-13.256812 -16.494041 -1.4081221 0
-13.743777 -14.764209 -1.4618073 43
-14.485179 -13.451036 -1.548787 40
-16.1308 -20.069839 -2.1689765 12
-13.756724 -14.778117 -1.8203899 64
-6.3343182 -5.8820915 -0.83021241 0
-7.8976655 -9.8262253 -1.2852061 9
-13.735588 -14.755411 -2.1743145 57
-13.088319 -14.060084 -2.4123709 3
-10.883273 -11.691321 -2.2886374 1
-9.2372465 -9.9230824 -2.1848414 1
-8.1773853 -8.7845306 -2.1464503 2
-7.3406954 -7.8857183 -2.1189682 2
-6.630219 -7.1224914 -2.0862937 2
-5.8247323 -6.2572002 -1.9844669 5
-5.5977592 -6.0133748 -2.0521793 4
-3.9121914 -4.2026591 -1.9752464 5
-2.7963202 -3.0039382 -1.9130425 8
-3.6239042 -3.8388765 1.393536 20
-2.4155612 -2.5588536 0.67999065 6
-3.9457479 -4.179812 0.80414927 19
-5.5886717 -5.9201951 0.70683736 20
-6.3947783 -6.7741203 0.4792476 3
-6.9950938 -7.4100471 0.34391937 14
-8.0711727 -7.390687 0.30434906 15
-11.333457 -13.901142 0.39323726 4
-10.08133 -10.679361 0.23532285 6
-11.481014 -10.513043 0.15759075 8
-13.350539 -16.37521 0.089238003 57
-13.825148 -14.645265 -0.033393368 43
-14.563993 -13.336095 -0.14889501 38
-16.435345 -20.158903 -0.34956565 16
-13.850036 -14.671628 -0.39022154 50
-14.545025 -13.318725 -0.49783179 35
-13.308826 -16.324047 -0.6556384 18
-13.832141 -14.652672 -0.74697256 52
-14.553933 -13.326882 -0.84779352 61
-13.807219 -14.626271 -1.1016507 49
-14.543595 -13.317416 -1.1957499 48
-16.403082 -20.119331 -1.7273531 18
-13.783526 -14.601173 -1.4551574 42
-16.44179 -20.166809 -2.1918077 15
-13.802129 -14.62088 -1.8128468 67
-6.3722911 -5.8350396 -0.82982999 1
-8.0892859 -9.921977 -1.3050846 3
-13.786395 -14.604213 -2.1661646 59
-13.19978 -13.982798 -2.4148631 3
-10.96191 -11.612178 -2.28807 1
-9.3171406 -9.8698387 -2.187387 1
-8.2466221 -8.735817 -2.1485629 2
-7.3955688 -7.8342786 -2.1189682 2
-6.6958899 -7.0930939 -2.091325 2
-5.8281536 -6.173883 -1.9708995 4
-5.6342754 -5.968504 -2.0502405 5
-3.9440324 -4.1779947 -1.9765476 6
-2.8246894 -2.9922519 -1.9181124 8
-3.6479425 -3.8106899 1.3925151 3
-2.4333665 -2.5419276 0.67999065 4
-3.9830508 -4.1607485 0.80581188 21
-5.618844 -5.8695207 0.70545346 20
-6.397717 -6.6831417 0.47595945 2
-7.0881228 -7.4043489 0.34594321 12
-8.1848946 -7.3904319 0.30668423 17
-11.504133 -13.911054 0.39577994 5
-10.116921 -10.568273 0.23442565 5
-11.672877 -10.539856 0.1592104 12
-13.377859 -16.176805 0.088663578 53
-13.885565 -14.505049 -0.033293884 37
-14.621118 -13.201927 -0.14853311 35
-16.754099 -20.25943 -0.3533285 15
-13.902346 -14.522578 -0.38882926 50
-14.599069 -13.182018 -0.4965196 37
-13.317995 -16.104416 -0.65053564 23
-13.88711 -14.506662 -0.74445349 52
-14.602126 -13.184779 -0.84521824 43
-13.374796 -16.173101 -1.0245999 0
-13.862041 -14.480475 -1.0979319 45
-14.585836 -13.170071 -1.1916342 49
-16.700834 -20.195021 -1.7438192 18
-13.83271 -14.449836 -1.4496641 42
-6.5558867 -5.9195433 -0.6920644 0
-16.752365 -20.257332 -2.2143035 13
-13.851525 -14.46949 -1.806022 74
-6.3892298 -5.769063 -0.82677072 0
-13.273492 -16.050602 -2.1233487 7
-13.827515 -14.444409 -2.1567278 58
-13.291589 -13.884573 -2.4138663 3
-11.05914 -11.552527 -2.2914741 1
-9.4103956 -9.8302269 -2.1931148 1
-8.3210239 -8.6922541 -2.1520841 2
-7.4582253 -7.7909632 -2.121284 2
-6.7452464 -7.0461755 -2.091325 3
-5.8387809 -6.0992694 -1.9600455 4
-5.6758065 -5.9290242 -2.0502405 4
-3.9678731 -4.1448941 -1.9739453 6
-2.8379898 -2.9646025 -1.9130425 8
-3.6798446 -3.7906792 1.3945569 17
-2.4455822 -2.5192416 0.67847282 6
-4.0064826 -4.1271553 0.80470347 21
-5.6513567 -5.8215723 0.7044155 19
-6.3830032 -6.5752554 0.47143823 0
-7.189764 -7.4063153 0.34837183 14
-8.3049746 -7.3942637 0.30924177 15
-9.8456621 -11.737764 0.33589566 3
-10.145883 -10.45147 0.23340029 6
-11.985162 -10.670887 0.16244967 13
-13.436486 -16.01866 0.088308789 51
-13.936339 -14.356093 -0.033174504 28
-14.659154 -13.051654 -0.14799024 36
-13.399408 -15.974456 -0.28022233 38
-13.942109 -14.362037 -0.38712761 47
-14.642957 -13.037232 -0.49490458 33
-13.401839 -15.977354 -0.64916664 34
-13.935144 -14.354863 -0.74163812 51
-14.655016 -13.047969 -0.84298629 44
-13.400083 -15.97526 -1.0179682 22
-13.907155 -14.32603 -1.0935568 47
-14.638659 -13.033406 -1.1884868 46
-13.368484 -15.937589 -1.3842195 52
-13.886011 -14.30425 -1.444749 43
-6.5464215 -5.8285508 -0.68675286 1
-13.353327 -15.919518 -1.7502902 45
-13.893929 -14.312406 -1.7984791 68
-6.4590878 -5.7507939 -0.83059484 1
-13.331519 -15.89352 -2.1148293 43
-13.878157 -14.296159 -2.1490068 52
-13.418606 -13.822766 -2.419349 3
-11.142281 -11.47788 -2.2920413 1
-9.456789 -9.741622 -2.1880236 1
-8.3979597 -8.6509008 -2.1563094 2
-7.5124345 -7.7387047 -2.121284 2
-6.7861004 -6.9904938 -2.0888095 3
-5.8595076 -6.0359921 -1.9528095 3
-5.7197638 -5.8920398 -2.0512099 4
-4.0125208 -4.1333756 -1.9817525 4
-2.856092 -2.9421158 -1.9113526 7
-3.7035046 -3.7621415 1.393536 16
-2.4631095 -2.5021074 0.67847282 5
-4.0546503 -4.1188469 0.8085829 22
-5.6918597 -5.7819777 0.7044155 20
-8.149436 -8.2784643 0.5976209 20
-7.3001881 -7.4157705 0.35120523 14
-8.4255047 -7.3967762 0.31179935 14
-6.3409729 -7.4532528 0.21454886 0
-10.182122 -10.343334 0.23256716 5
-12.095436 -10.61862 0.16293555 19
-13.496153 -15.863534 0.087970898 51
-13.971679 -14.192889 -0.033021964 36
-14.695809 -12.901496 -0.14744738 38
-13.450995 -15.810455 -0.27898598 39
-13.983113 -14.204506 -0.38550329 49
-14.697556 -12.903029 -0.49369329 36
-13.432743 -15.789001 -0.64530849 44
-13.967716 -14.188865 -0.73808181 59
-14.682684 -12.889973 -0.83938086 44
-13.449151 -15.808288 -1.0132869 45
-13.956392 -14.177361 -1.0896192 47
-14.690287 -12.896647 -1.1853395 51
-13.432872 -15.789152 -1.3794391 49
-13.926757 -14.147257 -1.4386774 42
-6.530014 -5.7327189 -0.68081641 0
-13.41765 -15.77126 -1.7442466 43
-13.9432 -14.16396 -1.7920135 66
-6.4512033 -5.6635313 -0.82447624 0
-13.395738 -15.745504 -2.107527 46
-13.919031 -14.139408 -2.1399992 54
-13.564892 -13.779662 -2.4283206 3
-11.238803 -11.416744 -2.2954454 1
-9.5467281 -9.6978798 -2.1931148 1
-8.4443359 -8.5780334 -2.1527884 2
-7.5717826 -7.6916652 -2.122828 2
-6.8402238 -6.9485235 -2.0904865 3
-5.9288363 -6.0227065 -1.9618545 2
-5.7634797 -5.8547316 -2.0521793 4
-4.0359716 -4.0998721 -1.9791501 5
-2.8841915 -2.9298563 -1.9164225 8
-3.7242148 -3.7307205 1.3914942 8
-2.4749682 -2.4792919 0.67695493 5
-4.0609169 -4.0680108 0.80414927 24
-5.7039332 -5.7138977 0.70095569 10
-8.2578325 -8.2722578 0.60132009 22
-7.3969717 -7.4098935 0.35336399 13
-8.5464697 -7.3979659 0.31435689 12
-6.4424901 -7.4663296 0.21621475 0
-10.220178 -10.238031 0.23179814 5
-12.093666 -10.468477 0.16192329 31
-13.546471 -15.699273 0.08758232 54
-14.016732 -14.041218 -0.032895949 38
-14.743177 -12.761938 -0.14702515 35
-13.508787 -15.655602 -0.27791089 40
-14.028257 -14.052763 -0.38403368 49
-14.729832 -12.750386 -0.49177545 37
-13.487795 -15.631273 -0.64269489 39
-14.018426 -14.042914 -0.73556274 51
-14.745118 -12.763618 -0.83783567 44
-13.506986 -15.653513 -1.0093859 47
-13.995774 -14.020224 -1.0850253 48
-14.722604 -12.74413 -1.1807395 47
-13.490625 -15.634553 -1.3741274 53
-13.974451 -13.998862 -1.4334731 45
-6.437211 -5.5721564 -0.66706884 3
-13.464932 -15.604777 -1.7361884 45
-13.988268 -14.012704 -1.7851889 76
-6.3009238 -5.4541841 -0.8003844 0
-13.437744 -15.573268 -2.0969794 45
-13.96683 -13.991229 -2.132278 56
-13.697214 -13.721142 -2.4348001 4
-6.1906204 -6.2014346 -1.2555168 0
-6.1881299 -6.1989403 -1.411587 151
-6.1533809 -6.1641302 -1.5577258 2
-6.1889677 -6.199779 -1.7229643 0
-6.9051466 -6.9172091 -2.0955179 5
-6.2873063 -6.2982898 -2.0658717 3
-5.8014717 -5.8116064 -2.0512099 4
-4.056479 -4.0635657 -1.9752464 6
-2.8994529 -2.9045181 -1.9130425 7
-3.7474179 -3.7019114 1.3904732 0
-2.38884 -2.3598313 0.648875 9
-4.0892181 -4.0395613 0.80414927 26
-5.7181702 -5.6487322 0.69784188 1
-8.3807459 -8.2789755 0.6060468 24
-7.5139351 -7.4226904 0.35646722 12
-8.680027 -7.4082022 0.31735924 12
-6.5260592 -7.4572845 0.21726687 1
-7.6054525 -7.5130968 0.1713012 0
-12.123865 -10.347438 0.1613564 27
-13.584614 -15.523048 0.087126158 55
-14.06604 -13.89523 -0.032783203 40
-14.780196 -12.614554 -0.14651245 36
-13.565072 -15.500717 -0.2768358 38
-14.083344 -13.912325 -0.38287345 48
-14.775908 -12.610896 -0.49036232 35
-13.536031 -15.467532 -0.63983238 38
-14.062092 -13.89133 -0.73274732 52
-14.782193 -12.61626 -0.83491695 64
-13.558051 -15.492695 -1.0050949 51
-14.047851 -13.877262 -1.0815252 48
-14.759592 -12.59697 -1.1766237 16
-13.541618 -15.473917 -1.3682846 53
-14.02359 -13.853296 -1.4285581 41
-6.4304585 -5.4882474 -0.66238219 9
-13.515795 -15.444409 -1.7288018 45
-14.037575 -13.867111 -1.7790827 75
-6.3297634 -5.4023066 -0.79923719 0
-13.480619 -15.404214 -2.0868373 39
-14.010412 -13.840278 -2.1241281 59
-13.829377 -13.661441 -2.4412796 3
-6.1267223 -6.0523233 -1.2339579 4
-6.1638308 -6.0889807 -1.3963128 255
-6.0870175 -6.0131006 -1.5302614 3
-6.0645695 -5.9909253 -1.6766481 0
-6.471911 -6.3933196 -1.9504499 1
-6.3449831 -6.2679334 -2.070394 2
-5.8419032 -5.7709622 -2.0512099 4
-4.0955129 -4.0457792 -1.9804513 5
-2.9325559 -2.8969445 -1.9214923 8
-2.2134826 -2.1562788 0.81570351 3
-2.3883774 -2.3266537 0.6443215 14
-4.1286702 -4.0219717 0.80636609 18
-8.5263023 -8.305954 1.0334426 23
-8.5012913 -8.2815895 0.61056799 20
-7.6171169 -7.4202647 0.35889584 11
-8.7988415 -7.4040613 0.31980559 11
-6.6151252 -7.4534154 0.21849437 2
-7.6863675 -7.4877257 0.17194206 1
-12.14072 -10.216189 0.16062757 30
-13.647516 -15.376975 0.086838953 53
-14.085343 -13.721332 -0.032604132 56
-14.831176 -12.480158 -0.14615054 36
-13.611892 -15.336835 -0.27559945 36
-14.1257 -13.760644 -0.38140383 50
-14.811577 -12.463665 -0.48864633 20
-13.590608 -15.312854 -0.63734323 37
-14.110054 -13.745402 -0.7302283 50
-14.817929 -12.469011 -0.83199829 61
-13.610188 -15.334915 -1.0009989 52
-14.087171 -13.72311 -1.0771501 47
-7.0325508 -5.9177604 -0.55732262 0
-13.580433 -15.30139 -1.3613794 54
-14.071383 -13.70773 -1.423643 44
-6.447258 -5.4252477 -0.66019505 9
-13.549205 -15.266205 -1.7194006 43
-14.079824 -13.715954 -1.7722579 80
-5.2797003 -4.4427691 -0.66271675 3
-13.540285 -15.256155 -2.079535 40
-14.063964 -13.700503 -2.1176939 50
-6.1946306 -6.0345402 -1.0860654 3
-6.0894117 -5.9320407 -1.2180725 5
-6.1213284 -5.9631329 -1.3772202 1
-6.0160303 -5.8605561 -1.5020927 3
-6.0134721 -5.8580637 -1.6511742 2
-6.3651032 -6.2006078 -1.9051687 2
-6.3969598 -6.2316408 -2.0731075 2
-5.8820496 -5.7300377 -2.0512099 4
-4.1209488 -4.0144496 -1.9791501 5
-2.9397242 -2.8637516 -1.9130425 8
-2.2368491 -2.1488118 0.81876624 4
-2.4357164 -2.3398521 0.65266955 15
-4.1680746 -4.0040283 0.8085829 19
-8.6846628 -8.3428535 1.0455519 23
-8.6510849 -8.3105974 0.61714429 21
-7.7379241 -7.4333768 0.36213401 11
-5.3144965 -4.409049 0.19203904 2
-6.7098045 -7.4546084 0.21989723 4
-7.7961369 -7.4892983 0.17322376 2
-5.3255138 -4.418189 0.070049331 28
-13.701016 -15.221861 0.086501054 54
-14.14329 -13.586641 -0.03251791 49
-5.3133221 -4.4080744 -0.052054442 33
-13.670468 -15.187922 -0.27463186 39
-14.169505 -13.611825 -0.38001156 48
-5.2933159 -4.3914766 -0.17361531 34
-13.641011 -15.155195 -0.63472962 41
-14.150897 -13.59395 -0.72741288 50
-5.2962737 -4.3939309 -0.2956461 27
-13.658113 -15.174194 -0.99670774 46
-14.136544 -13.580161 -1.07365 47
-5.2975855 -4.3950191 -0.41738668 26
-13.630855 -15.14391 -1.3558022 56
-14.123577 -13.567705 -1.4193062 41
-5.2757549 -4.3769078 -0.53709197 83
-13.599455 -15.109026 -1.7123499 41
-14.129265 -13.573169 -1.7665108 53
-5.2554264 -4.360043 -0.65583336 31
-13.579908 -15.087309 -2.0693929 38
-6.2665577 -6.0199199 -0.93724149 3
-6.1650534 -5.922411 -1.0736048 3
-6.0649991 -5.8262944 -1.2050238 5
-6.1001544 -5.8600659 -1.3632188 5
-6.0142031 -5.7774973 -1.4915295 3
-6.003274 -5.7669983 -1.6372793 3
-6.3772092 -6.1262164 -1.8959446 2
-6.4571667 -6.2030272 -2.0785346 3
-5.9331021 -5.6995888 -2.0550876 4
-4.1406898 -3.9777219 -1.9752464 5
-2.9753315 -2.8582292 -1.9231824 7
-2.2630272 -2.1437824 0.82284981 6
-2.463397 -2.3335943 0.65570527 17
-4.2074299 -3.9857297 0.81079972 21
-8.8265924 -8.3614969 1.0555853 24
-8.7900944 -8.3269215 0.62289858 24
-7.8505774 -7.4369102 0.36496738 10
-5.3203874 -4.3515873 0.19114946 29
-6.804821 -7.4548411 0.22130008 6
-7.900496 -7.4841986 0.17437731 3
-5.3128834 -4.3454499 0.069482461 51
-13.74223 -15.054936 0.086095579 54
-14.237798 -13.487572 -0.03251791 22
-5.3191972 -4.3506141 -0.05181317 35
-13.714148 -15.024172 -0.27339551 37
-14.206121 -13.457564 -0.37846461 47
-5.2897968 -4.3265672 -0.17250498 36
-13.687183 -14.994631 -0.63199162 41
-14.20483 -13.456341 -0.72533834 57
-5.3113527 -4.3441982 -0.29478768 44
-13.707151 -15.016507 -0.99261165 49
-14.184615 -13.437191 -1.0701499 37
-5.3034148 -4.3377056 -0.41544986 38
-13.668978 -14.974686 -1.3491626 52
-14.22954 -13.479749 -1.4204626 23
-5.284575 -4.3222961 -0.53490484 38
-13.653548 -14.957783 -1.7059705 44
-14.177404 -13.430361 -1.7607638 47
-5.2764907 -4.3156843 -0.65468615 38
-13.633933 -14.936295 -2.0616848 38
-6.2247043 -5.8967085 -0.92480212 2
-6.1342177 -5.8109899 -1.0611442 3
-6.0480361 -5.7293496 -1.1936769 7
-6.0864458 -5.7657351 -1.3511268 5
-6.0258055 -5.7082901 -1.4844873 3
-6.0205941 -5.7033539 -1.6311038 3
-6.4538956 -6.1138229 -1.9060072 2
-6.508801 -6.1658354 -2.081248 3
-6.0009212 -5.6847172 -2.0647814 4
-4.1711049 -3.9513185 -1.9765476 5
-2.9794214 -2.822428 -1.9130425 7
-2.2892432 -2.1384916 0.82693344 5
-2.499718 -2.3351064 0.66101766 20
-4.252522 -3.9724846 0.81412494 22
-8.9837627 -8.3921623 1.0673486 28
-8.9414263 -8.3526144 0.62947488 24
-7.9724183 -7.4474177 0.36820555 7
-5.3257365 -4.29426 0.19025987 34
-6.8947315 -7.4482384 0.22252758 9
-8.0110064 -7.4834642 0.17565903 6
-5.3150678 -4.2856574 0.069118038 39
-13.784502 -14.891117 0.085707001 59
-14.47484 -13.521641 -0.032842893 33
-5.3089614 -4.2807341 -0.051421106 36
-13.756211 -14.860555 -0.27215916 36
-14.378635 -13.431771 -0.38055301 28
-5.2980833 -4.2719626 -0.17179841 34
-13.737212 -14.840031 -0.62950248 40
-14.435715 -13.485092 -0.73230278 33
-5.310442 -4.2819276 -0.29307079 39
-13.749229 -14.853013 -0.9881255 49
-14.464873 -13.51233 -1.0841503 40
-5.3024869 -4.2755136 -0.41302884 38
-13.737941 -14.840817 -1.34571 58
-14.451576 -13.499909 -1.433184 40
-5.2897873 -4.2652731 -0.53240532 37
-13.717026 -14.818223 -1.7009342 43
-14.34069 -13.396325 -1.7693844 7
-5.2661967 -4.2462516 -0.64971483 38
-13.702734 -14.802785 -2.056411 40
-6.2163143 -5.8069568 -0.91751009 1
-6.1311331 -5.7273846 -1.0536678 5
-6.0358047 -5.6383338 -1.1834649 8
-6.0861483 -5.6853623 -1.3422168 10
-6.0252271 -5.6284528 -1.4746283 5
-6.0201116 -5.6236744 -1.6202967 3
-6.7107768 -6.268858 -1.9688978 2
-6.5488415 -6.1175861 -2.0803435 3
-6.0262828 -5.6294394 -2.0599344 4
-4.1958246 -3.9195209 -1.9752464 6
-3.0043516 -2.8065088 -1.9164225 7
-2.3211844 -2.1381795 0.83305889 5
-2.5332906 -2.3335631 0.66557115 28
-4.2801514 -3.9426994 0.81412494 21
-9.1447163 -8.4237366 1.0794579 25
-9.1052933 -8.3874216 0.63687319 23
-8.1094866 -7.4701257 0.37211832 6
-5.3274155 -4.2345824 0.18925908 34
-6.9848785 -7.4407434 0.22375508 12
-8.1160049 -7.4761295 0.17681257 7
-5.3135467 -4.2235584 0.068713129 37
-13.84432 -14.747863 0.085436687 57
-14.527698 -13.382317 -0.03275004 32
-5.3136678 -4.2236547 -0.051179834 36
-13.810344 -14.711669 -0.27119157 37
-14.554417 -13.406929 -0.38271877 45
-5.293345 -4.2075009 -0.17068808 37
-13.791224 -14.6913 -0.62726223 44
-14.541266 -13.394815 -0.73289549 44
-5.3120503 -4.2223692 -0.2915256 42
-13.808834 -14.71006 -0.98500466 49
-14.52654 -13.38125 -1.081744 41
-5.3009515 -4.2135468 -0.41060778 40
-13.778383 -14.677623 -1.3396016 65
-14.504391 -13.360847 -1.4291363 31
-5.2850966 -4.2009444 -0.52896839 41
-13.749209 -14.646544 -1.6922046 47
-6.4550962 -5.9461689 -0.79130203 1
-5.2832456 -4.1994729 -0.64818519 37
-13.745821 -14.642935 -2.0474858 42
-6.2040515 -5.7149172 -0.90978914 0
-6.1213436 -5.6387296 -1.0451946 6
-6.0371604 -5.5611835 -1.1760895 9
-6.0995507 -5.6186552 -1.3364891 22
-6.0441017 -5.5675778 -1.4696988 6
-6.0101509 -5.5363035 -1.6071737 3
-6.6997218 -6.1715078 -1.9529655 1
-6.5799265 -6.0611577 -2.0767255 3
-6.0568733 -5.5793424 -2.0570264 4
-4.2342138 -3.9003832 -1.9804513 5
-3.0238714 -2.785466 -1.9164225 8
-2.3074265 -2.0959191 0.82284981 6
-2.5698693 -2.3343053 0.6708836 46
-4.3368945 -3.9393585 0.81966698 21
-9.2917938 -8.440073 1.0898373 27
-9.2405062 -8.393486 0.64221644 23
-8.2294998 -7.475153 0.37522155 5
-5.3253746 -4.1726255 0.1881471 35
-7.0752568 -7.4323492 0.22498257 14
-8.224247 -7.4703817 0.17803019 8
-5.3240123 -4.1715584 0.068470187 36
-13.88351 -14.584218 0.085048109 59
-14.603001 -13.264435 -0.032710247 31
-5.3178368 -4.1667194 -0.050938562 37
-13.852044 -14.551165 -0.27000898 39
-14.59141 -13.253905 -0.38124913 39
-5.294261 -4.1482472 -0.16977961 35
-13.835563 -14.533851 -0.62464863 39
-14.578203 -13.24191 -0.73008013 47
-5.3099413 -4.160533 -0.28980872 43
-13.853344 -14.552529 -0.98090863 49
-14.569343 -13.233861 -1.0780251 41
-5.3050952 -4.1567359 -0.40867096 40
-13.833735 -14.531931 -1.3350867 57
-14.59731 -13.259265 -1.4291363 3
-5.279767 -4.1368904 -0.52553153 36
-13.801659 -14.498237 -1.6861609 43
-6.4256754 -5.8366737 -0.78268141 0
-5.2716899 -4.1305618 -0.64321387 38
-13.795582 -14.491853 -2.039778 40
-6.2114153 -5.6420531 -0.90507078 0
-6.1164913 -5.5558305 -1.0377183 7
-6.0435958 -5.4896169 -1.1698488 8
-6.0889325 -5.530798 -1.3256699 28
-6.0478463 -5.4934778 -1.4612482 6
-6.0196018 -5.4678226 -1.5994544 3
-6.5776224 -5.9746928 -1.9051687 1
-6.6509209 -6.0412726 -2.0857706 3
-5.8486314 -5.3125238 -1.9736595 5
-4.2585397 -3.8681858 -1.9791501 5
-3.0432432 -2.7642882 -1.9164225 7
-2.2499802 -2.0152507 0.79732722 8
-2.5948796 -2.3241684 0.67316037 19
-4.3937993 -3.9354153 0.82520902 22
-9.4187632 -8.4361486 1.0977949 23
-9.4030266 -8.4220533 0.64940923 26
-8.3410435 -7.4708624 0.37792003 3
-5.3353887 -4.1206818 0.18747991 33
-7.1769667 -7.4345627 0.22656079 15
-8.3238678 -7.4554787 0.17905557 10
-5.3213496 -4.1098394 0.068065278 35
-13.946095 -14.446649 0.084811583 53
-14.632678 -13.10612 -0.032570969 28
-5.3119745 -4.1025987 -0.050606813 33
-13.903292 -14.402309 -0.26904139 37
-14.650815 -13.122366 -0.3803983 40
-5.3009396 -4.0940762 -0.16907305 35
-13.88393 -14.382254 -0.62228394 39
-14.625632 -13.09981 -0.72785741 45
-5.3103929 -4.101377 -0.28826353 40
-13.904655 -14.403721 -0.97739774 45
-14.61675 -13.091854 -1.0747437 38
-5.3023858 -4.0951929 -0.40624994 39
-13.876637 -14.374698 -1.3295094 55
-6.487401 -5.8106017 -0.63115609 0
-5.2864265 -4.0828671 -0.5233444 38
-13.858246 -14.355647 -1.6807889 45
-6.4662666 -5.7916718 -0.78268141 0
-5.2720375 -4.071754 -0.63977218 37
-13.83285 -14.329339 -2.0304472 40
-6.2151046 -5.5667124 -0.89992344 0
-6.1107841 -5.4732752 -1.0302418 9
-6.0463805 -5.4155908 -1.1630408 9
-6.0920968 -5.4565377 -1.3180327 20
-6.0567203 -5.4248514 -1.454206 7
-6.0313153 -5.4020972 -1.5925069 4
-6.2550025 -5.602448 -1.8003508 1
-6.6958375 -5.997293 -2.0866752 3
-5.8479977 -5.2379041 -1.9610575 6
-4.296711 -3.8484557 -1.984355 4
-3.0678689 -2.747813 -1.9198024 7
-2.217613 -1.9585308 0.78099269 11
-2.6198733 -2.3137953 0.67543709 8
-4.4300742 -3.9125118 0.82687163 26
-9.5102854 -8.3992052 1.1016006 16
-9.5693846 -8.4513998 0.6568076 26
-8.4589186 -7.4706688 0.38088834 1
-5.3353925 -4.0615363 0.18647914 34
-7.2594671 -7.4157114 0.22752525 17
-8.4326706 -7.4474878 0.18027321 10
-5.321269 -4.0507846 0.067700855 37
-13.987851 -14.288908 0.084456794 43
-14.678848 -12.963928 -0.032471485 30
-5.3086596 -4.0411859 -0.050305221 35
-13.95034 -14.25059 -0.26802006 37
-14.679121 -12.96417 -0.37877399 63
-5.2943931 -4.0303254 -0.16796272 34
-13.928063 -14.227835 -0.61979485 42
-14.671788 -12.957693 -0.72563475 44
-5.3134575 -4.0448384 -0.28689003 40
-13.943388 -14.243488 -0.97310662 46
-14.6569 -12.944545 -1.0710249 41
-5.3054314 -4.0387287 -0.40431309 38
-13.92919 -14.228985 -1.3249946 56
-6.4769735 -5.7202735 -0.62624097 0
-5.2894173 -4.0265379 -0.52084482 36
-13.90794 -14.207278 -1.6747453 40
-6.5155005 -5.7542992 -0.783759 0
-5.2749896 -4.0155549 -0.63671291 37
-13.874093 -14.172702 -2.0219278 43
-6.2269883 -5.4994936 -0.89606291 0
-6.1131492 -5.3989544 -1.0242608 4
-6.0573301 -5.3496566 -1.1579348 8
-6.0915632 -5.37989 -1.3097593 30
-6.0649328 -5.3563709 -1.4471639 7
-6.0306392 -5.3260837 -1.5824717 4
-6.1210036 -5.4058909 -1.7508768 4
-6.7317033 -5.9452429 -2.084866 3
-5.8495173 -5.1661224 -1.949425 5
-4.3206387 -3.8158615 -1.9830537 6
-3.089695 -2.7287281 -1.9214923 9
-2.2312319 -1.9430013 0.78099269 11
-2.6300392 -2.2902906 0.67391926 13
-4.487155 -3.9075041 0.83241367 24
-6.1066523 -5.3177943 0.7030316 3
-9.7366047 -8.4788294 0.66420591 22
-8.6314602 -7.5164475 0.38628528 0
-5.3284359 -3.9977932 0.18525596 37
-7.3589549 -7.4130993 0.22901577 15
-8.5477972 -7.4435925 0.181619 13
-5.3238239 -3.9943328 0.067376934 37
-14.03372 -14.136974 0.084135793 55
-14.732796 -12.829613 -0.032391898 29
-5.3111472 -3.984822 -0.050063949 36
-14.007217 -14.110277 -0.26721373 38
-14.727045 -12.824604 -0.37769112 47
-5.2968125 -3.9740672 -0.16715521 38
-13.970716 -14.073508 -0.6173057 41
-14.725718 -12.823449 -0.72385657 45
-5.3064041 -3.9812632 -0.28500146 40
-13.991817 -14.094764 -0.96959573 49
-14.701732 -12.802562 -1.0677437 41
-5.298367 -3.9752333 -0.40164995 40
-13.963511 -14.06625 -1.3188862 54
-6.4746299 -5.6382365 -0.62219328 0
-5.2982602 -3.9751532 -0.51897019 36
-13.945004 -14.047606 -1.6673586 44
-6.6516538 -5.7923927 -0.79525316 2
-5.2710457 -3.9547348 -0.63288879 39
-13.927837 -14.030313 -2.0154369 38
-6.1632581 -5.3670883 -0.88147885 0
