# .PCD v0.7 - Point Cloud Data file format
VERSION 0.7
FIELDS x y z intensity
SIZE 4 4 4 4
TYPE F F F F
COUNT 1 1 1 1
WIDTH 1357
HEIGHT 1
VIEWPOINT 0 0 0 1 0 0 0
POINTS 1357
DATA ascii
-12.011649 6.1704988 0.057036635 26
-5.7457385 3.5003347 -0.011155441 20
-4.928916 3.518357 -0.045660734 27
-11.98221 6.155376 -0.18104523 16
-10.171007 6.1962323 -0.23034286 26
-4.9112134 3.5057206 -0.15231715 25
-11.945484 6.1365094 -0.41805038 20
-5.728148 3.4896183 -0.2486451 1
-4.9472828 3.5314674 -0.26113689 4
-12.029451 6.1796441 -0.66024572 16
-5.761024 3.5096467 -0.36947736 12
-4.9135199 3.5073669 -0.36606073 5
-12.010101 6.169704 -0.8984679 26
-5.7409387 3.4974105 -0.48717269 26
-4.9107509 3.5053904 -0.4727284 28
-11.983547 6.1560631 -1.1348515 23
-10.179441 6.2013702 -1.0747052 28
-4.9064789 3.502341 -0.57896894 30
-11.963978 6.1460094 -1.3712111 22
-10.161797 6.1906209 -1.2833989 25
-10.144466 6.1800632 -1.4917823 16
-5.7350001 3.4937928 -0.9622035 13
-10.188339 6.2067909 -1.922635 25
-9.6340322 5.8691039 -2.0175788 4
-8.6308994 5.2579899 -1.9877388 2
-5.731638 3.4917445 -1.438939 5
-7.2107801 4.3928456 -1.9600455 4
-6.671463 4.064291 -1.9513638 5
-4.7387347 2.8868625 -1.9088844 6
-3.4584193 2.1068876 -1.887693 7
-2.0559182 1.2712485 0.63806593 5
-3.2768817 2.0262144 0.74449867 12
-4.6294603 2.8625627 0.76147562 5
-5.646729 3.4915767 0.57640284 20
-5.6978598 3.5231924 0.34463903 20
-5.6851468 3.5153317 0.22559167 22
-4.8745666 3.5285969 0.16735306 27
-11.847163 6.1856523 0.29302093 20
-5.6672435 3.5042613 0.10676685 15
-4.8632412 3.5203986 0.060776908 26
-11.821539 6.1722732 0.056327052 26
-5.6543546 3.4962916 -0.011022796 18
-4.8439116 3.5064063 -0.045087714 17
-11.77094 6.1458545 -0.17846502 18
-5.6975245 3.5229855 -0.12955819 31
-4.845746 3.5077341 -0.15100494 26
-11.734406 6.1267796 -0.41207644 20
-5.6844792 3.5149188 -0.24775602 33
-4.8622456 3.5196779 -0.25787482 4
-11.839455 6.1816273 -0.65205359 25
-5.6730766 3.5078683 -0.36532101 26
-4.8675108 3.5234892 -0.36436599 6
-11.820324 6.171639 -0.88731343 28
-5.646359 3.4913476 -0.48110113 26
-4.851861 3.5121608 -0.46929151 30
-11.772859 6.1468558 -1.1187352 19
-5.6925101 3.5198846 -0.60344416 25
-4.8476644 3.5091226 -0.57476246 30
-11.753632 6.1368175 -1.3517383 23
-5.6691127 3.5054171 -0.71890926 33
-5.6676798 3.5045311 -0.8368535 28
-5.6611862 3.5005159 -0.95369345 26
-5.6965342 3.5223727 -1.079374 27
-5.6799102 3.5120935 -1.1943504 30
-5.6715837 3.5069451 -1.3115216 24
-5.6584554 3.4988272 -1.4263608 30
-5.6868629 3.5163927 -1.5521172 24
-5.6871505 3.5165706 -1.6702433 27
-4.7227011 2.9202168 -1.9101856 5
-3.428952 2.1202447 -1.8792433 8
-2.0502682 1.2876275 0.63908684 5
-3.2792852 2.0594854 0.74829328 12
-4.6227822 2.9032402 0.76369244 5
-5.5614715 3.492764 0.57017523 19
-5.6020832 3.5182695 0.34032333 18
-5.5995288 3.516665 0.22316305 19
-4.8046989 3.5294018 0.16579629 28
-11.648285 6.1856842 0.28916311 24
-5.5715151 3.4990718 0.10542105 15
-4.8030863 3.5282173 0.060331505 28
-11.619186 6.1702313 0.055566791 22
-5.5722227 3.4995162 -0.010910048 20
-4.7806306 3.5117221 -0.044725806 15
-11.582916 6.1509705 -0.17626108 18
-5.6050558 3.5201364 -0.12801123 26
-4.7695761 3.5036016 -0.14938992 29
-11.535981 6.1260462 -0.40660036 21
-5.5988712 3.5162523 -0.2450888 31
-4.7892442 3.518049 -0.25529951 4
-11.64781 6.185432 -0.64386147 24
-5.5841851 3.5070291 -0.36116466 23
-4.7945261 3.5219293 -0.36073443 4
-11.62185 6.1716461 -0.87562776 29
-5.567791 3.496733 -0.47647515 25
-4.7758012 3.5081744 -0.46429241 27
-11.585325 6.1522498 -1.1049693 21
-5.6138186 3.5256398 -0.59769702 29
-4.7684956 3.5028076 -0.56826144 27
-11.573435 6.1459355 -1.3359166 22
-5.5939841 3.5131831 -0.71247512 32
-5.5892997 3.510241 -0.8288787 28
-5.5762539 3.502048 -0.94348139 27
-5.608264 3.5221512 -1.067282 29
-5.5952325 3.513967 -1.1816745 29
-5.5804882 3.5047073 -1.296083 27
-5.570961 3.4987237 -1.4104285 24
-5.6126804 3.524925 -1.5385498 23
-5.6000199 3.5169737 -1.6518251 27
-4.6925898 2.9470813 -1.9062819 6
-3.4140661 2.1441319 -1.8792433 7
-2.0347075 1.2977502 0.63704503 3
-3.2979393 2.1034482 0.75588244 11
-4.6257806 2.9503541 0.76757187 5
-5.4831948 3.4972188 0.56463951 21
-5.510025 3.5143313 0.33621314 17
-5.5141721 3.5169761 0.22073443 18
-4.7414713 3.5341837 0.16446193 26
-11.457031 6.1870456 0.28548062 25
-5.5031152 3.5099242 0.10458793 16
-4.7270265 3.523417 0.059683651 27
-11.428005 6.171371 0.054857213 24
-5.4970694 3.506068 -0.010810564 21
-4.7207208 3.5187168 -0.044394057 15
-11.398922 6.1556654 -0.1741109 20
-5.5297675 3.5269229 -0.12685101 26
-4.7129393 3.5129168 -0.14838052 24
-11.352217 6.130444 -0.40162206 19
-5.5034142 3.5101147 -0.24197702 24
-4.7197089 3.5179625 -0.25289589 4
-11.446152 6.1811705 -0.63508421 21
-5.4922175 3.5029736 -0.35678956 30
-4.7250047 3.52191 -0.35734499 4
-11.427473 6.1710839 -0.86420768 28
-5.4793348 3.4947567 -0.47098181 25
-4.7160234 3.5152154 -0.46085551 28
-11.387777 6.1496472 -1.090196 19
-5.5252509 3.5240424 -0.59087241 32
-4.7088084 3.5098376 -0.56405497 30
-11.365679 6.1377134 -1.3168495 20
-5.4989085 3.507241 -0.70346731 33
-5.4910421 3.502224 -0.81791335 29
-5.4949174 3.5046954 -0.93383664 28
-5.533596 3.5293651 -1.0577356 29
-5.510808 3.5148308 -1.1689986 27
-5.5062494 3.5119233 -1.2845039 26
-5.4771523 3.4933648 -1.3928192 22
-5.5320892 3.5284038 -1.5231733 23
-5.5098925 3.5142467 -1.6324375 25
-4.6719007 2.9797702 -1.9062819 5
-3.3929009 2.1640153 -1.8758633 9
-4.6679645 3.0233109 1.468062 7
-3.2864707 2.1285558 0.75664133 9
-4.62502 2.995497 0.77089709 5
-5.3984404 3.4964199 0.5584119 18
-5.4317098 3.5179675 0.33292499 19
-5.4324422 3.5184419 0.21844074 19
-4.665657 3.5286093 0.16268276 26
-11.27685 6.1918106 0.28206116 26
-5.4113393 3.5047743 0.10330622 14
-4.6672215 3.5297925 0.059238251 29
-11.22336 6.1624408 0.054080054 22
-5.4053116 3.5008702 -0.010677919 22
-4.6609478 3.5250478 -0.044062309 28
-11.208423 6.1542392 -0.17185321 14
-5.4378757 3.521961 -0.12530404 28
-4.6308918 3.5023167 -0.14656362 29
-11.15144 6.122951 -0.39602152 16
-5.4284492 3.5158558 -0.23975433 31
-4.6631598 3.5267205 -0.25117901 5
-11.255636 6.1801624 -0.62689209 22
-5.4039345 3.4999783 -0.35263321 24
-4.6557193 3.5210934 -0.35395554 5
-11.216187 6.1585021 -0.85145968 23
-5.3978777 3.4960556 -0.46606672 23
-4.6468391 3.5143774 -0.45648131 29
-11.197827 6.1484213 -1.0760944 18
-5.4436698 3.5257137 -0.58476609 30
-4.633379 3.5041976 -0.55793637 28
-11.176052 6.1364655 -1.2998108 14
-5.4308958 3.5174403 -0.69789106 34
-5.4164906 3.5081105 -0.81043702 28
-5.4171414 3.508532 -0.92475927 29
-5.4458447 3.5271223 -1.0456436 29
-5.4233427 3.5125484 -1.1556184 28
-5.4223013 3.511874 -1.270609 28
-5.4132371 3.5060034 -1.3827566 24
-5.4451838 3.5266943 -1.5059879 24
-5.423336 3.5125442 -1.6140193 26
-4.6414599 3.006145 -1.9023783 5
-3.3868394 2.1935618 -1.8809332 9
-4.6682911 3.0723307 1.4752084 6
-3.2937434 2.1677029 0.76195377 9
-4.612865 3.0358531 0.7725597 5
-5.3194051 3.5008466 0.55287623 20
-5.3457112 3.5181594 0.32922584 18
-5.3497348 3.5208073 0.21614705 21
-4.6047807 3.535928 0.16145957 26
-11.084529 6.1923928 0.27837867 24
-5.3420711 3.5157638 0.1024731 15
-4.6031528 3.5346777 0.058752358 30
-11.041698 6.1684647 0.053421158 23
-5.3327255 3.509613 -0.010585068 22
-4.6000853 3.5323224 -0.043730557 28
-10.998899 6.1445551 -0.16932675 15
-5.3651423 3.5309474 -0.12422117 28
-4.5670357 3.5069442 -0.14535235 28
-10.973624 6.1304355 -0.39129215 14
-5.3524456 3.5225916 -0.23753165 28
-4.6023159 3.5340352 -0.24929044 4
-11.060052 6.1787181 -0.61850494 17
-5.3214154 3.5021698 -0.34891438 27
-4.5949492 3.5283782 -0.3512924 5
-11.034852 6.1646409 -0.84110194 20
-5.3054533 3.4916646 -0.46028423 25
-4.5735092 3.5119152 -0.45179462 29
-11.009789 6.1506386 -1.0623285 16
-5.3577776 3.5261009 -0.57830065 32
-4.5601969 3.5016928 -0.55220026 29
-7.3579807 4.1105494 -0.85923821 2
-5.3518128 3.5221748 -0.69102794 34
-5.3309546 3.5084476 -0.80146539 29
-5.3317413 3.5089655 -0.9145472 28
-5.367063 3.5322115 -1.0354608 30
-5.3283768 3.5067513 -1.1408299 27
-5.3472342 3.5191619 -1.25903 28
-5.3351183 3.511188 -1.3693399 24
-5.3671093 3.5322421 -1.4915159 23
-5.3488164 3.5202031 -1.5994785 27
-4.6224589 3.0421672 -1.9036795 6
-3.3676403 2.2163365 -1.8792433 8
-4.6660247 3.1177366 1.4813339 3
-3.2850616 2.1950071 0.7634716 8
-4.6146164 3.0833867 0.77643913 3
-5.2285681 3.4936159 0.54595661 25
-5.2745204 3.5243206 0.32634869 17
-5.2685184 3.5203099 0.21385334 22
-4.5326695 3.5311298 0.1597916 24
-10.905406 6.1926131 0.27495921 24
-5.2542143 3.5107522 0.10125548 16
-4.5278788 3.5273976 0.058104504 28
-10.873146 6.1742945 0.052812949 19
-5.244904 3.5045311 -0.010459055 23
-4.5311379 3.5299366 -0.043308333 27
-10.837481 6.1540422 -0.1674991 13
-5.280508 3.5283213 -0.1228289 27
-4.5077419 3.5117104 -0.14424202 26
-10.791492 6.1279278 -0.38631389 16
-5.2712231 3.5221171 -0.23501259 30
-4.5333958 3.5316956 -0.24688682 5
-10.891577 6.1847601 -0.6114831 18
-5.2403827 3.5015101 -0.34519553 28
-4.5198092 3.5211112 -0.34741873 5
-10.856192 6.1646667 -0.83074421 21
-5.2378263 3.4998024 -0.45652562 25
-4.5111299 3.5143497 -0.44804528 33
-10.831406 6.1505919 -1.0492339 13
-5.2833452 3.5302169 -0.57291275 33
-4.5042295 3.5089738 -0.54837614 31
-7.2045302 4.0910783 -0.84463358 6
-5.2675738 3.5196788 -0.68330699 34
-5.2568331 3.512502 -0.79398906 28
-5.2544398 3.5109031 -0.90546983 28
-5.2897382 3.5344884 -1.025278 28
-5.2677536 3.519799 -1.1330836 29
-5.2605338 3.5149748 -1.2443632 28
-5.2584457 3.5135798 -1.3559233 23
-5.2937245 3.5371521 -1.4779484 25
-5.2724843 3.5229599 -1.5839684 27
-4.5979643 3.0722601 -1.9023783 6
-3.349072 2.2377772 -1.8775532 8
-4.6505466 3.1545777 1.4833757 1
-3.2859085 2.2289109 0.76726621 7
-4.6159263 3.131094 0.78031856 1
-5.1644759 3.5031886 0.54180485 19
-5.1869755 3.5184505 0.32244402 20
-5.1974959 3.5255868 0.21196443 21
-4.470263 3.532937 0.15845722 27
-10.73029 6.1926379 0.27162743 21
-5.1799288 3.5136704 0.10029419 16
-4.4654856 3.5291612 0.057618614 28
-10.691199 6.1700778 0.052137159 29
-5.1739659 3.5096257 -0.010366203 22
-4.4687257 3.5317221 -0.042946424 27
-10.67301 6.1595802 -0.16561769 19
-5.1994829 3.5269346 -0.12151398 27
-4.4423318 3.5108624 -0.14292981 29
-10.641103 6.1411667 -0.38245574 23
-5.1968856 3.5251727 -0.2327899 27
-4.4741406 3.5360014 -0.24499825 5
-10.699339 6.1747751 -0.60309595 22
-5.176146 3.5111046 -0.34257048 27
-4.4575272 3.5228717 -0.34451351 5
-10.688445 6.168488 -0.8211832 28
-5.1439314 3.4892528 -0.45045406 28
-4.4395556 3.5086684 -0.44335863 35
-10.674278 6.1603127 -1.038154 23
-5.19593 3.5245247 -0.56608808 33
-4.4296403 3.5008323 -0.54225755 29
-7.103415 4.0995049 -0.83611423 9
-5.1902146 3.5206475 -0.67644387 33
-5.1829162 3.5156968 -0.78651267 29
-5.167542 3.5052681 -0.89469039 29
-5.2093763 3.5336454 -1.0144588 29
-5.1876569 3.5189128 -1.1211119 29
-5.1871457 3.5185659 -1.232784 28
-5.1722908 3.5084894 -1.339991 25
-5.2076354 3.5324645 -1.460763 24
-5.1931639 3.5226481 -1.5674889 26
-4.5732737 3.1021619 -1.9010772 6
-3.3363681 2.2631388 -1.8792433 8
-4.6188536 3.1803877 1.4803129 0
-3.3381958 2.2985699 0.78320348 5
-4.6167941 3.1789696 0.78419799 0
-5.0808139 3.4984782 0.53557718 27
-5.1162229 3.5228596 0.31956691 19
-5.1167812 3.5232439 0.20967072 21
-4.4049358 3.5315425 0.15701166 27
-10.559161 6.1925459 0.26838335 20
-5.1025667 3.5134563 0.099268816 16
-4.39393 3.5227191 0.05701125 25
-10.527101 6.1737437 0.051545843 23
-5.0999198 3.5116339 -0.010266719 23
-4.4065132 3.5328076 -0.042584516 28
-10.502093 6.1590776 -0.16362877 18
-5.1121492 3.5200546 -0.12004437 28
-4.3833961 3.5142741 -0.14181948 29
-10.470367 6.1404715 -0.37785083 24
-5.1227646 3.527364 -0.23056722 30
-4.3901062 3.5196533 -0.24173619 4
-10.559474 6.1927295 -0.59763455 24
-5.1087427 3.517709 -0.33972666 26
-4.4047899 3.5314257 -0.34233457 6
-10.531507 6.1763282 -0.812419 23
-5.0767298 3.4956658 -0.44669545 26
-4.374507 3.5071473 -0.43929684 27
-10.507235 6.1620927 -1.0260669 22
-5.1186981 3.5245638 -0.560341 34
-4.3833475 3.514235 -0.5395807 34
-6.9613461 4.0825644 -0.82272667 10
-5.1098251 3.5184543 -0.66915184 35
-5.102675 3.513531 -0.77803946 30
-5.0972872 3.5098209 -0.88674772 28
-5.1292863 3.5318546 -1.0036396 28
-5.1240473 3.5282471 -1.1126612 28
-5.107501 3.516854 -1.2196611 27
-5.0961294 3.5090239 -1.3265743 24
-5.137918 3.5377982 -1.4481 24
-5.0981255 3.5103984 -1.5461626 26
-4.5515051 3.1340139 -1.9010772 6
-3.3264589 2.290488 -1.8826232 8
-1.7371743 1.2141244 0.55945623 4
-3.5634971 2.4905555 0.84012234 3
-4.6009822 3.2156618 0.78530639 0
-5.0105381 3.5019035 0.53073347 26
-5.0456643 3.5264537 0.31668976 18
-5.0429082 3.5245273 0.20764688 22
-4.3522544 3.5395033 0.15601087 28
-10.395433 6.1944637 0.26531461 22
-5.0221848 3.5100436 0.098179363 16
-4.3413014 3.5305958 0.056646831 29
-10.360041 6.1733737 0.050937634 26
-5.0293798 3.5150721 -0.010173868 22
-4.3320913 3.5231051 -0.042101972 26
-10.338583 6.1605873 -0.16174737 19
-5.0448365 3.5258749 -0.11903884 29
-4.3246298 3.5170372 -0.14070915 27
-10.320772 6.1499743 -0.37399265 25
-5.0390396 3.5218236 -0.22789998 28
-4.3406239 3.5300446 -0.24036269 30
-10.382131 6.1865368 -0.59002757 23
-5.0316811 3.5166805 -0.33622658 8
-4.3366623 3.5268226 -0.33894512 33
-10.371559 6.1802373 -0.80338913 25
-4.9998808 3.4944553 -0.44206947 31
-4.3189778 3.5124407 -0.4361724 29
-10.344117 6.1638851 -1.0143155 22
-5.0580482 3.5351088 -0.55638987 32
-4.3185492 3.5120921 -0.53460938 36
-6.8301201 4.0699534 -0.81055617 11
-5.0395017 3.5221465 -0.66314662 35
-5.0292263 3.5149648 -0.77056313 29
-5.0207324 3.5090284 -0.87767029 28
-5.0494781 3.529119 -0.99282044 30
-5.0347424 3.5188203 -1.098577 29
-5.0377865 3.5209479 -1.208854 27
-5.0202155 3.5086675 -1.3131576 25
-5.0524149 3.5311716 -1.4309145 24
-5.0385046 3.5214498 -1.5354993 27
-4.5140133 3.1548786 -1.8945711 6
-3.3074157 2.3115783 -1.8809332 8
-1.7255013 1.2239851 0.55843532 5
-3.5684457 2.5312784 0.84543478 3
-4.6010375 3.2637479 0.78918582 0
-4.9307127 3.4976029 0.5248518 28
-4.9687905 3.5246134 0.31340161 20
-4.9660087 3.5226402 0.20548812 21
-4.2873406 3.5367246 0.15456529 26
-10.23562 6.1964717 0.26233354 21
-4.945364 3.5079958 0.097153991 16
-4.2826076 3.53282 0.056201432 30
-10.20035 6.1751189 0.050363213 23
-4.9525166 3.5130696 -0.010067753 22
-4.2672777 3.520174 -0.041709904 26
-10.178991 6.162189 -0.15991971 12
-4.9776926 3.5309284 -0.11803331 27
-4.2629552 3.5166085 -0.13949788 29
-5.7561321 3.4846652 -0.20946078 6
-4.9817271 3.5337901 -0.22641818 30
-4.2881284 3.5373745 -0.2388175 31
-10.219066 6.1864495 -0.58320081 24
-4.941854 3.5055063 -0.33185148 3
-4.2811351 3.5316055 -0.33652407 30
-10.201833 6.1760168 -0.79356259 26
-4.9330616 3.499269 -0.43831086 30
-4.2512846 3.5069811 -0.43179819 27
-10.181492 6.163703 -1.0025641 18
-4.9617596 3.5196259 -0.5484876 32
-4.2539954 3.5092175 -0.52963805 33
-6.7300525 4.0742598 -0.80203676 10
-4.9596462 3.5181272 -0.65585458 37
-4.9495335 3.5109537 -0.76208991 30
-4.9508986 3.5119219 -0.86972761 28
-4.9796233 3.5322978 -0.9839105 31
-4.9618797 3.5197115 -1.0880138 29
-4.9618635 3.5196998 -1.196503 28
-4.9445577 3.5074239 -1.2997409 25
-4.9863248 3.5370517 -1.4191561 24
-4.9631529 3.5206144 -1.5199893 28
-4.4980483 3.1906924 -1.8971734 7
-3.2852833 2.3304169 -1.8775532 8
-1.7263304 1.2427803 0.56149805 5
-3.512439 2.5285947 0.83632773 4
-4.5588503 3.2819033 0.7858606 0
-4.864131 3.5016739 0.52035409 29
-4.8954329 3.5242081 0.31031898 21
-4.8926282 3.5221889 0.20346425 22
-4.2226796 3.5332134 0.15311971 29
-5.7262502 3.5214362 0.14738725 22
-4.8720646 3.5073853 0.096192703 15
-4.2240958 3.5343981 0.055756029 27
-5.7139463 3.5138698 0.028332474 23
-4.8791761 3.5125048 -0.0099682687 22
-4.2149892 3.5267785 -0.041438475 27
-5.6964464 3.503108 -0.089877561 24
-4.8944988 3.5235355 -0.11664104 30
-4.2014995 3.5154912 -0.13828661 30
-5.6771746 3.4912565 -0.20746948 24
-4.8985419 3.5264463 -0.22375096 30
-4.2204194 3.531322 -0.23641387 33
-5.7174096 3.5159998 -0.32768473 23
-4.8718805 3.5072527 -0.32878891 5
-4.2135053 3.5255368 -0.33313462 28
-5.7081885 3.5103288 -0.44591418 26
-4.8761334 3.5103145 -0.43541965 30
-4.1930556 3.508426 -0.4283613 27
-5.6904368 3.4994125 -0.56272519 26
-4.9047351 3.5309045 -0.54489571 32
-4.1988559 3.5132792 -0.52581394 32
-5.6879234 3.4978666 -0.68073732 20
-4.8930058 3.5224607 -0.65027833 34
-4.883029 3.5152783 -0.75561041 29
-4.8748446 3.5093865 -0.86065018 25
-4.9099727 3.5346751 -0.97500056 29
-4.8892527 3.5197589 -1.0774505 30
-4.8893914 3.5198586 -1.184924 27
-4.8786864 3.5121522 -1.2888398 25
-4.9077525 3.5330768 -1.4037796 25
-4.8912106 3.5211685 -1.5054486 28
-4.4725938 3.2198074 -1.8958722 7
-3.2748182 2.3575323 -1.8809332 8
-1.726981 1.2616464 0.56456071 7
-3.4851868 2.5461042 0.83405101 3
-4.5390263 3.3159869 0.7864148 1
-4.794517 3.5026357 0.51551038 30
-4.8158741 3.5182383 0.30682534 19
-4.8324108 3.530319 0.2019801 23
-4.1643758 3.5341475 0.15189654 27
-5.6438665 3.5253112 0.14589673 22
-4.8119354 3.5153608 0.095487759 16
-4.1627231 3.5327446 0.055270139 27
-5.6383877 3.5218887 0.028079053 24
-4.8093162 3.5134475 -0.0098754168 20
-4.1597681 3.530237 -0.041136883 26
-5.6107907 3.5046511 -0.088909984 16
-4.8310289 3.5293095 -0.11571287 30
-4.1433177 3.5162764 -0.13717628 31
-5.5984077 3.4969163 -0.20547816 21
-4.8318434 3.5299044 -0.22182463 29
-4.162147 3.5322559 -0.23452531 33
-5.6283422 3.515614 -0.32397878 24
-4.8085761 3.5129066 -0.32616386 3
-4.1583481 3.529032 -0.3307136 26
-5.6090708 3.5035768 -0.44007134 26
-4.7999649 3.5066156 -0.43079367 31
-4.1410956 3.5143905 -0.4255493 31
-5.608398 3.5031564 -0.55701733 24
-4.8284955 3.5274589 -0.53914863 32
-4.1347609 3.5090141 -0.52084261 32
-5.6026139 3.4995434 -0.67343503 27
-4.8201261 3.5213442 -0.64384419 34
-4.8006835 3.5071406 -0.74663877 31
-4.8022666 3.5082974 -0.85214013 29
-4.834156 3.531594 -0.96481782 32
-4.8200488 3.5212879 -1.0675914 31
-4.8203306 3.5214939 -1.1741168 28
-4.8066764 3.5115187 -1.2762617 27
-4.8452125 3.5396712 -1.3929257 26
-4.8257718 3.5254691 -1.4928466 27
-4.4530602 3.2531846 -1.8971734 6
-3.2494977 2.3739214 -1.8758633 9
-1.7398795 1.2897947 0.57170707 8
-3.4231572 2.5376298 0.82342613 4
-4.5380425 3.3641083 0.79029423 1
-4.7315316 3.5075443 0.51135862 25
-4.7591038 3.5279839 0.30477023 21
-4.7530513 3.5234971 0.19968641 21
-4.1123271 3.5396583 0.15089576 26
-5.5414515 3.5153534 0.14388013 23
-4.7455082 3.5179055 0.094654642 16
-4.1046119 3.5330172 0.05482474 31
-5.5393558 3.5140243 0.02770737 26
-4.7268305 3.5040593 -0.009756037 19
-4.0956106 3.5252697 -0.040744819 27
-5.518641 3.5008833 -0.087834895 18
-4.7645063 3.5319891 -0.11470734 30
-4.0883617 3.5190299 -0.13616689 29
-5.4962111 3.4866543 -0.20261566 24
-4.7685485 3.5349855 -0.22004648 30
-4.110126 3.5377636 -0.23298012 32
-5.5361896 3.5120156 -0.32007775 26
-4.7422233 3.51547 -0.32332003 3
-4.0942702 3.524116 -0.32756624 24
-5.5339227 3.5105774 -0.43608761 24
-4.7337031 3.5091541 -0.42703506 29
-4.086236 3.5172002 -0.42242485 29
-5.529954 3.50806 -0.55164528 21
-4.7589469 3.5278676 -0.5341199 32
-4.0860205 3.5170147 -0.51778334 38
-5.5276437 3.5065942 -0.66734976 27
-4.7506976 3.5217524 -0.63783896 39
-4.7378225 3.512208 -0.74065769 30
-4.7426682 3.5158 -0.8458994 29
-4.774487 3.5393877 -0.95781714 32
-4.7573905 3.5267138 -1.0591409 30
-4.7357225 3.5106511 -1.1594501 29
-4.7474828 3.5193694 -1.2670377 27
-4.7796917 3.5432458 -1.3811673 25
-4.744926 3.5174737 -1.4753977 29
-4.4302406 3.2841935 -1.8971734 6
-3.2444952 2.4051855 -1.8826232 8
-1.727742 1.2995852 0.57068616 9
-3.3865259 2.5473011 0.81887263 3
-4.5366063 3.4123769 0.79417366 3
-4.6655283 3.5093501 0.50686085 24
-4.6928563 3.529906 0.3020986 21
-4.6868038 3.5253532 0.19793241 22
-4.0483575 3.5340974 0.14945018 28
-5.4764323 3.527966 0.14282799 23
-4.6760859 3.5172913 0.093757443 17
-4.049715 3.5352826 0.05441983 31
-5.4642491 3.5201173 0.027453948 24
-4.6734829 3.5153334 -0.0096963467 25
-4.0437808 3.5301025 -0.040473387 26
-5.440268 3.5046687 -0.086974822 16
-4.6981835 3.5339131 -0.11370181 28
-4.0305586 3.5185597 -0.13505656 26
-5.4280424 3.4967926 -0.20099773 22
-4.6990309 3.5345507 -0.21797197 30
-4.055222 3.5400901 -0.23126324 33
-5.4645147 3.5202885 -0.31734705 27
-4.6792622 3.5196807 -0.32069498 4
-4.0274587 3.5158534 -0.32417679 25
-5.4354644 3.5015738 -0.43024477 21
-4.6708298 3.5133379 -0.4235656 30
-4.0285363 3.5167942 -0.41898796 30
-5.4383125 3.5034087 -0.54493016 23
-4.6959968 3.532268 -0.52980959 31
-4.0283728 3.5166514 -0.51357681 34
-5.4361219 3.5019977 -0.65923607 29
-4.6878567 3.5261452 -0.63269162 37
-4.6751261 3.5165696 -0.7346766 30
-4.6705422 3.5131216 -0.83738935 30
-4.6991658 3.534652 -0.94763434 31
-4.6823058 3.52197 -1.0478734 32
-4.682869 3.5223937 -1.1525025 32
-4.6790385 3.5195124 -1.2552981 27
-4.7050171 3.539053 -1.3666953 26
-4.6892405 3.5271862 -1.465704 28
-4.3951135 3.3059475 -1.8919686 6
-3.2131379 2.4168808 -1.8741733 8
-1.7063296 1.302229 0.56660253 9
-3.3280749 2.5399053 0.80900669 4
-4.4906306 3.4271398 0.79029423 4
-4.5933981 3.5055692 0.50167114 21
-4.6236424 3.5286508 0.29922149 21
-4.6239438 3.5288811 0.19631332 22
-3.9876614 3.530468 0.14811581 27
-5.3813901 3.5201409 0.14098674 23
-4.6164451 3.5231581 0.093052499 16
-3.9919932 3.5343032 0.053974427 30
-5.3692455 3.5121968 0.027099159 27
-4.6138515 3.5211787 -0.0096233916 24
-3.9890895 3.5317326 -0.040171795 26
-5.358767 3.5053427 -0.086060993 19
-4.628891 3.5326564 -0.11261894 29
-3.9759569 3.5201056 -0.13404717 30
-5.3466187 3.497396 -0.19888195 23
-4.6329336 3.5357418 -0.21604563 29
-3.994503 3.5365252 -0.22920299 31
-5.362906 3.50805 -0.31286091 25
-4.6196532 3.5256062 -0.31828865 4
-3.9729211 3.5174179 -0.32175577 31
-5.354105 3.5022931 -0.42572984 25
-4.598618 3.5095527 -0.41922873 30
-3.9680574 3.5131118 -0.41523862 32
-5.3603516 3.5063789 -0.53955805 23
-4.6268868 3.531127 -0.52478087 35
-3.9768929 3.5209343 -0.51013511 34
-5.361588 3.5071878 -0.65315086 29
-4.6125436 3.5201807 -0.62582856 37
-4.6062937 3.5154109 -0.72769868 31
-4.5923944 3.5048032 -0.82774466 29
-4.6272879 3.5314329 -0.938088 30
-4.6075239 3.5163496 -1.036606 29
-4.6238456 3.528806 -1.1440113 30
-4.6046095 3.5141253 -1.2418815 26
-4.6368327 3.5387175 -1.3540323 25
-4.6274834 3.5315821 -1.4540714 28
-4.3659143 3.331959 -1.8893661 6
-3.1817777 2.4282551 -1.8657235 9
-1.7033128 1.3188453 0.56864434 10
-3.2854192 2.5438428 0.80293536 5
-4.4478021 3.4438553 0.78696901 3
-4.5247002 3.5033965 0.49682742 23
-4.5546751 3.5266054 0.29634434 21
-4.5549417 3.5268118 0.19442441 22
-3.9391155 3.5368505 0.14722621 26
-5.3133769 3.5288622 0.13984692 23
-4.5474629 3.5210214 0.0921553 16
-3.9315078 3.5300198 0.053488538 30
-5.3012781 3.5208271 0.026879527 27
-4.5512033 3.5239172 -0.0095438045 22
-3.9315975 3.5301003 -0.039840046 28
-5.2841878 3.5094767 -0.085254677 18
-4.5535207 3.5257118 -0.11138137 29
-3.9304571 3.5290763 -0.1333406 28
-5.268785 3.4992466 -0.19689065 24
-4.5638885 3.5337391 -0.21397111 32
-3.9340332 3.5322874 -0.22714274 31
-5.2850347 3.5100391 -0.3097401 26
-4.5380826 3.5137582 -0.31435108 4
-3.9274719 3.526396 -0.32006103 33
-5.2730041 3.5020487 -0.42121494 23
-4.5329962 3.5098197 -0.41547012 28
-3.9226639 3.522079 -0.41305152 29
-5.2759757 3.5040226 -0.5335145 24
-4.5548725 3.5267582 -0.51939297 33
-3.9137003 3.5140309 -0.50516379 36
-5.2706747 3.5005019 -0.64503717 30
-4.540688 3.5157757 -0.61939442 35
-4.5377059 3.5134664 -0.72072077 31
-4.542768 3.517386 -0.82320595 32
-4.5650506 3.5346391 -0.93045092 30
-4.5548425 3.5267348 -1.030268 30
-4.5494442 3.5225554 -1.1316602 31
-4.5428543 3.5174527 -1.2318189 26
-4.5719638 3.5399919 -1.3422738 26
-4.5505514 3.5234125 -1.4375919 29
-4.3485279 3.3669894 -1.8919686 7
-3.1819475 2.4637265 -1.8758633 8
-1.6910228 1.3283155 0.56762344 10
-3.2459612 2.5497353 0.79762292 3
-4.4516883 3.4968462 0.79195684 15
-4.4656601 3.5078211 0.49302167 21
-4.4859633 3.5237696 0.29346722 19
-4.4956274 3.5313606 0.19294025 23
-3.8936341 3.5454183 0.14644784 25
-5.232244 3.5278642 0.13835639 24
-4.4787388 3.5180945 0.091258101 17
-3.8831103 3.5358357 0.053164609 29
-5.2268214 3.5242083 0.026626106 27
-4.4824529 3.5210121 -0.0094509535 22
-3.8743262 3.5278373 -0.039508298 29
-5.193234 3.5015616 -0.08417958 18
-4.4879107 3.5252993 -0.11037584 30
-3.8702459 3.5241218 -0.13212933 25
-5.2011328 3.5068874 -0.19527271 23
-4.5013862 3.5358844 -0.21219297 32
-3.8826854 3.5354488 -0.22559755 39
-5.2206502 3.5200472 -0.30739948 25
-4.4883142 3.5256162 -0.31260103 4
-3.8820939 3.53491 -0.31836629 31
-5.1921697 3.5008442 -0.41670004 23
-4.4738717 3.5142715 -0.41228977 33
-3.8773415 3.5305827 -0.41086441 29
-5.2084222 3.5118024 -0.52914965 23
-4.5019445 3.5363231 -0.51616025 32
-3.8655219 3.5198202 -0.50210452 36
-5.1999164 3.5060673 -0.63935763 29
-4.4847584 3.5228231 -0.61510497 35
-4.478735 3.5180917 -0.71523809 32
-4.4620533 3.5049882 -0.81299388 31
-4.4936805 3.5298316 -0.92090458 32
-4.4836636 3.5219631 -1.0197048 32
-4.4784446 3.5178638 -1.1200812 30
-4.468976 3.5104258 -1.2184023 28
-4.5011773 3.5357203 -1.3287064 26
-4.4892206 3.5263283 -1.4259593 30
-4.3219414 3.3949287 -1.8906673 7
-3.1390104 2.4657245 -1.8606535 8
-1.7089299 1.3617808 0.57681161 10
-3.301796 2.6310747 0.81583697 1
-4.3930879 3.5006833 0.7858606 26
-4.4036636 3.5091107 0.48886991 23
-4.426888 3.5276175 0.29120663 20
-4.4333463 3.5327637 0.19132116 22
-3.8305988 3.5372505 0.14500226 30
-5.154686 3.5281663 0.13695353 25
-4.4102783 3.5143816 0.090360902 17
-3.8318834 3.5384369 0.05280019 32
-5.1459765 3.5222049 0.026338896 27
-4.4296079 3.5297849 -0.0093912631 25
-3.8231552 3.5303769 -0.039236866 28
-5.1224537 3.5061047 -0.083427019 18
-4.4319134 3.5316219 -0.10960236 30
-3.8132331 3.5212147 -0.131019 31
-5.1072392 3.4956908 -0.19265911 24
-4.4359517 3.5348399 -0.21026663 29
-3.8197408 3.5272238 -0.2233656 39
-5.1431975 3.520303 -0.30427867 23
-4.4198613 3.522018 -0.30953845 5
-3.8250544 3.5321307 -0.31570315 32
-5.1116118 3.4986839 -0.4121851 27
-4.4086671 3.513098 -0.40853119 30
-3.8174419 3.5251012 -0.40711507 31
-5.1278615 3.5098062 -0.52344185 23
-4.4304123 3.5304255 -0.51077235 34
-3.8145275 3.5224099 -0.49866283 35
-5.1227713 3.5063221 -0.63286668 29
-4.4134016 3.5168707 -0.60867083 36
-4.401299 3.5072262 -0.70676488 33
-4.4127021 3.5163133 -0.80845517 31
-4.4349556 3.5340462 -0.91390395 32
-4.4189339 3.5212791 -1.01055 32
-4.4292207 3.5294762 -1.1139057 29
-4.4076548 3.5122912 -1.2083398 27
-4.4428639 3.5403478 -1.3187569 26
-4.4220028 3.5237246 -1.412388 31
-4.2922187 3.4203045 -1.888065 6
-3.147238 2.5079134 -1.8758633 8
-1.6933658 1.3688155 0.57476979 11
-3.2925098 2.6614678 0.81811374 0
-4.3315721 3.5013838 0.77921015 30
-4.3449674 3.5122118 0.48506412 21
-4.3617659 3.5257907 0.288535 20
-4.3681574 3.5309572 0.18956716 24
-3.7766254 3.5365765 0.14389028 27
-5.0839505 3.5321226 0.13572603 25
-4.3514218 3.5174291 0.089655958 16
-3.783731 3.5432305 0.052476265 43
-5.078557 3.5283754 0.026119264 28
-4.3550849 3.52039 -0.0092851473 25
-3.7721388 3.5323749 -0.038965434 40
-5.055151 3.5121138 -0.082728215 17
-4.3822684 3.5423636 -0.10898358 30
-3.7652073 3.5258839 -0.13021149 30
-5.0400262 3.5016057 -0.19104117 23
-4.3738623 3.5355685 -0.20848848 32
-3.7775207 3.5374148 -0.22233549 45
-5.0627179 3.5173712 -0.30096281 26
-4.3454676 3.5126159 -0.30603838 29
-3.7711589 3.5314574 -0.31328213 33
-5.0444517 3.5046804 -0.40873253 26
-4.3436995 3.5111866 -0.40477258 31
-3.7665424 3.5271342 -0.40430307 36
-5.0574059 3.5136807 -0.51874125 23
-4.3653803 3.5287123 -0.50610286 34
-3.7520611 3.5135736 -0.4936915 35
-5.0491471 3.5079424 -0.6267814 28
-4.3547206 3.5200956 -0.60395241 40
-4.3489275 3.5154128 -0.70227909 33
-4.3510942 3.5171642 -0.80164713 31
-4.3794641 3.5400968 -0.90753973 32
-4.3605595 3.5248151 -1.0028036 32
-4.3556352 3.5208349 -1.1015548 30
-4.3586936 3.5233071 -1.2016314 27
-4.3877373 3.5467844 -1.3097119 28
-4.3610783 3.5252345 -1.4007554 32
-4.2652941 3.4478087 -1.8867637 7
-3.126833 2.5275447 -1.8741733 9
-1.7017125 1.3953174 0.58089525 10
-3.2768857 2.6868792 0.81887263 0
-4.2763891 3.5064209 0.77366811 32
-4.2833633 3.5121391 0.48091236 22
-4.3030658 3.5282941 0.2862744 19
-4.3093953 3.5334842 0.18808301 22
-3.7315476 3.5435827 0.1431119 30
-4.993804 3.5214372 0.13397248 24
-4.2927394 3.5198271 0.088951014 15
-3.7153966 3.5282452 0.051868901 39
-4.9982285 3.5245571 0.025832053 28
-4.2994704 3.5253463 -0.009218825 27
-3.7154813 3.5283258 -0.038633686 24
-4.9814782 3.5127456 -0.08192189 18
-4.3110428 3.5348351 -0.10782335 32
-3.7115042 3.524549 -0.12920208 35
-4.9599118 3.4975379 -0.18892542 25
-4.3088894 3.5330694 -0.20656215 34
-3.7295499 3.5416858 -0.22096199 35
-4.9857969 3.5157909 -0.29784203 4
-4.2961307 3.5226078 -0.30428833 30
-3.720356 3.5329549 -0.31110319 29
-4.9709349 3.505311 -0.40474877 23
-4.2913151 3.5186594 -0.40217045 25
-3.7158015 3.5286298 -0.40149108 28
-4.983891 3.514447 -0.51370496 24
-4.3129129 3.5363686 -0.50287008 34
-3.7014554 3.5150063 -0.49024981 33
-4.9822564 3.5132942 -0.62150753 28
-4.3023615 3.5277169 -0.60009193 36
-4.2935891 3.520524 -0.69729483 34
-4.2927527 3.5198383 -0.79540646 29
-4.3118901 3.5355299 -0.89862978 34
-4.3023515 3.5277088 -0.99505723 33
-4.3005991 3.5262718 -1.0938354 31
-4.2976971 3.5238924 -1.191569 28
-4.3206863 3.5427425 -1.297049 29
-4.3033504 3.528528 -1.3900923 31
-4.2381954 3.4751039 -1.8854625 7
-3.095094 2.5378191 -1.8657235 8
-1.7008505 1.4145828 0.58395797 11
-3.2761652 2.7247586 0.82342613 0
-4.2091656 3.5007272 0.76590925 32
-4.2250371 3.5139272 0.47710657 25
-4.2414727 3.5275967 0.28380829 21
-4.2415915 3.5276954 0.18619408 23
-3.6750364 3.5390384 0.14188871 29
-4.9333253 3.5306137 0.13300802 24
-4.2373118 3.5241358 0.088310152 17
-3.6762688 3.5402253 0.051666446 31
-4.9247084 3.524447 0.025578633 28
-4.2347746 3.5220256 -0.009132605 26
-3.6677091 3.5319822 -0.038392413 32
-4.9080453 3.5125215 -0.081115574 19
-4.2462878 3.5316012 -0.10681783 29
-3.6666453 3.5309579 -0.12849551 33
-4.896358 3.5041575 -0.18743193 24
-4.2564597 3.540061 -0.20522852 33
-3.6788261 3.5426879 -0.2194168 47
-4.9123964 3.5156355 -0.29491624 3
-4.2345843 3.5218675 -0.30166328 30
-3.6725929 3.5366855 -0.30916637 35
-4.9041486 3.5097327 -0.4012962 25
-4.2175689 3.5077159 -0.3975445 29
-3.6652246 3.5295897 -0.39867908 36
-4.9008899 3.5074008 -0.50766134 23
-4.2452383 3.5307283 -0.49784142 32
-3.6538813 3.5186663 -0.48719051 34
-4.9090667 3.5132527 -0.61542225 30
-4.2378798 3.5246081 -0.59451568 40
-4.2292385 3.5174215 -0.69081533 31
-4.2254553 3.5142751 -0.78746372 30
-4.2537045 3.5377696 -0.8916291 33
-4.2443185 3.5299633 -0.98731083 32
-4.2517362 3.5361326 -1.0876598 32
-4.2308927 3.5187974 -1.1798294 29
-4.2628956 3.545414 -1.2870995 28
-4.2457914 3.5311885 -1.379429 31
-4.2051072 3.4973516 -1.8815589 8
-3.082876 2.5640016 -1.8691034 8
-1.6731964 1.4114602 0.57783252 12
-3.2630668 2.7526288 0.82494396 0
-4.1513162 3.5019302 0.75981301 34
-4.1668968 3.5150738 0.47330078 23
-4.1892614 3.5339398 0.2819587 20
-4.1924143 3.5365999 0.1851147 23
-3.6216326 3.5366728 0.14077674 31
-4.8567872 3.5273659 0.13160516 24
-4.182035 3.527844 0.087669298 16
-3.6228471 3.5378587 0.051261537 35
-4.8482018 3.5211303 0.025308317 29
-4.1795087 3.5257125 -0.0090662828 23
-3.6286535 3.543529 -0.038241621 39
-4.8348627 3.5114427 -0.080309257 19
-4.2001309 3.5431089 -0.10627639 32
-3.6104357 3.5257385 -0.12738518 44
-4.8264885 3.5053604 -0.18568954 26
-4.1980329 3.5413392 -0.20359856 33
-3.6339898 3.5487401 -0.21821499 37
-4.8424778 3.5169733 -0.29218554 5
-4.1824179 3.528167 -0.29969448 32
-3.6163905 3.5315535 -0.30650324 34
-4.8407764 3.5157375 -0.3981092 28
-4.1563845 3.5062058 -0.39407501 30
-3.6119633 3.5272303 -0.39555463 42
-4.8375854 3.5134201 -0.50363231 23
-4.1839447 3.5294549 -0.49353111 34
-3.6178327 3.5329618 -0.48566088 47
-4.8361249 3.5123594 -0.60933697 30
-4.1797318 3.5259011 -0.58979732 40
-4.1712093 3.5187118 -0.68533266 34
-4.1735797 3.5207112 -0.78235769 33
-4.201736 3.5444632 -0.88590133 33
-4.1864648 3.5315807 -0.97956449 30
-4.1759462 3.5227075 -1.0745369 32
-4.1823077 3.5280738 -1.173121 28
-4.1874099 3.532378 -1.271723 28
-4.1854401 3.5307164 -1.3677964 33
-4.1719151 3.5193069 -1.8776553 11
-3.0593586 2.5807865 -1.8657235 9
-1.6838733 1.4407063 0.58497882 12
-3.2139301 2.7498085 0.8173548 0
-4.093658 3.5024953 0.75371677 46
-4.1119776 3.5181694 0.46984097 22
-4.1371717 3.5397253 0.28010911 20
-4.1342101 3.5371914 0.18363054 24
-3.5940125 3.559057 0.14066553 40
-4.7837548 3.5255988 0.13028999 24
-4.111721 3.5179503 0.086708009 17
-3.606586 3.5715084 0.051383007 41
-4.7816424 3.5240417 0.025088685 29
-4.1244006 3.5287986 -0.0089999605 24
-3.6009841 3.5659609 -0.038211461 39
-4.7619348 3.5095174 -0.07950294 20
-4.1266742 3.5307438 -0.10503882 33
-3.5914159 3.5564857 -0.12758707 39
-4.7536221 3.503391 -0.18382268 26
-4.1306872 3.5341773 -0.20152403 34
-3.5920887 3.557152 -0.21718486 52
-4.7727804 3.5175104 -0.28945485 4
-4.1273384 3.531312 -0.29750693 30
-3.5888102 3.5539055 -0.30626112 48
-4.7743464 3.5186646 -0.39465663 25
-4.1014924 3.5091987 -0.39118379 31
-3.5787497 3.5439427 -0.39461729 46
-4.7616014 3.5092716 -0.49826023 26
-4.1289334 3.5326767 -0.48993915 34
-3.5959086 3.5609348 -0.48604327 48
-4.760232 3.5082624 -0.60284609 33
-4.1217761 3.5265534 -0.5850789 39
-4.1163874 3.5219426 -0.6803484 35
-4.1158051 3.5214446 -0.77611697 31
-4.1318808 3.5351985 -0.87635493 34
-4.1228147 3.5274417 -0.97040963 33
-4.1214309 3.5262575 -1.0668175 32
-4.1219149 3.5266721 -1.1630585 26
-4.1330428 3.5361927 -1.2626781 29
-4.1223569 3.5270503 -1.3551946 34
-4.118505 3.5237544 -1.8646431 15
-3.0357583 2.5973663 -1.8623435 8
-1.6825374 1.460031 0.58804154 12
-3.1946545 2.7721791 0.8173548 0
-4.0451703 3.5102189 0.74928313 32
-4.0481882 3.5128376 0.46534324 23
-4.0701189 3.531868 0.27723199 20
-4.0792208 3.5397663 0.18228132 22
-3.5831852 3.5982275 0.14122152 33
-4.7302022 3.5373549 0.12950088 26
-4.0508122 3.5151148 0.085938983 19
-3.5928538 3.6079369 0.051544972 33
-4.7248898 3.5333824 0.024919737 30
-4.0634112 3.5260472 -0.0089203734 26
-3.5929356 3.6080189 -0.038392413 34
-4.705287 3.518723 -0.078965396 19
-4.0717187 3.5332561 -0.10426534 33
-3.5975368 3.6126394 -0.1286974 33
-4.6906266 3.5077598 -0.18232921 26
-4.078742 3.5393505 -0.20019042 35
-3.5728076 3.5878062 -0.21752822 43
-4.7065134 3.51964 -0.28691918 4
-4.0573359 3.5207753 -0.2942256 25
-3.5667291 3.5817025 -0.30650324 37
-4.7017207 3.5160561 -0.39067286 23
-4.0467615 3.5115995 -0.38829255 34
-3.579246 3.5942719 -0.39742929 37
-4.6986814 3.5137832 -0.49423116 25
-4.0770898 3.5379171 -0.48670644 35
-3.570961 3.585952 -0.48604327 40
-4.6878214 3.5056617 -0.59676081 31
-4.0700226 3.5317845 -0.58121842 41
-4.0587258 3.5219817 -0.67486578 35
-4.0522428 3.516356 -0.76874161 33
-4.080256 3.5406644 -0.87062716 34
-4.0742965 3.5354931 -0.96477592 33
-4.072998 3.5343661 -1.060642 32
-4.0558381 3.5194757 -1.1513189 29
-4.081769 3.5419774 -1.2545376 29
-4.0712538 3.5328526 -1.3464701 32
-4.0709496 3.532589 -1.8542333 15
-3.0175512 2.6184967 -1.8623435 9
-1.68682 1.4845173 0.59314609 11
-3.1398447 2.7632787 0.8082478 1
-3.9938014 3.5148194 0.7442953 29
-3.9966419 3.5173192 0.46222943 22
-4.0123758 3.5311661 0.2749714 21
-4.0123949 3.5311828 0.18039238 22
-3.5803919 3.6459763 0.14211111 29
-4.6512332 3.5291986 0.12801035 28
-3.9991522 3.5195284 0.085362211 17
-3.5871975 3.6529067 0.051828407 35
-4.6491232 3.5275974 0.024649421 29
-4.0056658 3.5252607 -0.0088474192 25
-3.5928845 3.6586978 -0.038663846 34
-4.6328135 3.5152223 -0.078159079 21
-4.0199327 3.537817 -0.1035692 32
-3.5890408 3.6547837 -0.12930302 36
-4.6246185 3.5090044 -0.18071127 27
-4.032928 3.5492537 -0.19915317 35
-3.570075 3.6354706 -0.21890174 39
-4.6309028 3.5137725 -0.28379837 4
-3.9966779 3.5173509 -0.29160056 32
-3.5780067 3.6435475 -0.30965057 35
-4.6389055 3.5198448 -0.38748586 24
-3.9921985 3.5134087 -0.38540131 32
-3.5736265 3.6390872 -0.39961642 36
-4.6391077 3.5199983 -0.49053788 26
-4.0164037 3.5347109 -0.48239613 35
-3.5737393 3.6392019 -0.48986739 38
-4.6315317 3.5142498 -0.59270394 30
-4.0034704 3.5233288 -0.57521319 40
-3.9923282 3.5135229 -0.66788781 35
-4.0038161 3.5236332 -0.76420289 32
-4.0228286 3.5403652 -0.86362648 33
-4.0081329 3.5274322 -0.95491689 32
-4.0158148 3.5341926 -1.0521507 35
-4.0047441 3.5244498 -1.143772 32
-4.0276918 3.5446451 -1.2454927 29
-4.0057049 3.5252953 -1.3328987 34
-4.0035968 3.5234401 -1.8347151 15
-2.9964755 2.637104 -1.8606535 8
-1.6966127 1.5142846 0.60029244 12
-3.1351268 2.7982075 0.81204236 2
-3.9366562 3.5135999 0.73819906 28
-3.9452317 3.5212536 0.45911559 24
-3.9637835 3.5378118 0.27332732 21
-3.9637842 3.5378125 0.179313 23
-3.579885 3.6967347 0.1431119 29
-4.5916247 3.5347505 0.12704588 28
-3.947629 3.5233934 0.084785439 17
-3.5922155 3.7094679 0.05227381 30
-4.5895176 3.5331283 0.024463579 30
-3.957083 3.5318313 -0.0087943608 24
-3.589515 3.7066791 -0.038905118 29
-4.570128 3.5182018 -0.077514023 21
-3.9623158 3.5365016 -0.10271838 32
-3.5912554 3.7084765 -0.13031241 33
-4.555656 3.5070608 -0.17896886 25
-3.9692831 3.5427203 -0.19722684 28
-3.5724087 3.6890144 -0.22061861 40
-4.5746012 3.5216455 -0.28184786 4
-3.9452066 3.5212314 -0.28963175 37
-3.5691483 3.6856475 -0.31110319 38
-4.5731058 3.5204942 -0.38403329 20
-3.9437613 3.5199413 -0.38308832 33
-3.5731013 3.6897297 -0.40242842 38
-4.5638862 3.5133967 -0.48516577 26
-3.9619069 3.5361369 -0.47880417 35
-3.5676353 3.6840851 -0.49254426 39
-4.5564332 3.507659 -0.58621305 33
-3.9520724 3.5273592 -0.57135272 43
-3.9410529 3.517524 -0.66340202 33
-3.9466243 3.5224967 -0.75796223 33
-3.9685516 3.5420675 -0.85726225 31
-3.9599082 3.534353 -0.94928318 33
-3.9559059 3.5307808 -1.0428874 34
-3.9450259 3.52107 -1.1337094 28
-3.9650571 3.5389485 -1.2337341 31
-3.9549387 3.5299175 -1.3241743 34
-3.9506819 3.5261183 -1.821703 16
-2.9942207 2.6724441 -1.8707933 7
-1.6831325 1.523497 0.59927154 13
-2.1168036 1.9160368 0.55173343 1
-3.8797245 3.5117545 0.73210281 30
-3.8880537 3.519294 0.45530981 21
-3.9034491 3.5332291 0.27086121 20
-3.9004588 3.5305226 0.177559 22
-3.5760813 3.7447705 0.14400148 27
-4.5290146 3.5371816 0.12599374 26
-3.8962483 3.5267115 0.084208667 18
-3.5910921 3.7604897 0.052638225 31
-4.5237575 3.5330763 0.024243947 26
-3.8908124 3.521791 -0.0087015089 27
-3.5966992 3.7663612 -0.039267026 32
-4.5139332 3.525403 -0.076976478 19
-3.9078801 3.5372398 -0.10194489 34
-3.5901325 3.7594848 -0.13122088 32
-4.4932489 3.509249 -0.17747539 27
-3.9029644 3.5327904 -0.19515233 33
-3.5686471 3.7369859 -0.22199211 36
-4.5089707 3.5215273 -0.27931222 4
-3.8909168 3.5218856 -0.2874442 36
-3.5681477 3.7364628 -0.31328213 35
-4.4980879 3.5130281 -0.37978396 21
-3.8954294 3.52597 -0.38077533 32
-3.5692873 3.7376564 -0.40492797 34
-4.5015507 3.5157323 -0.48113674 25
-3.9105418 3.539649 -0.47557145 34
-3.572077 3.7405775 -0.49675077 34
-4.5004716 3.5148897 -0.58215618 30
-3.9008145 3.5308444 -0.56749225 40
-3.8958032 3.5263085 -0.65991306 36
-3.8808386 3.5127633 -0.75001949 30
-3.917377 3.5458362 -0.85153443 34
-3.9001067 3.5302038 -0.94083256 32
-3.9020617 3.5319734 -1.0351681 34
-3.8913517 3.5222793 -1.125324 31
-3.9171441 3.5456252 -1.2264982 31
-3.9071817 3.5366077 -1.3164192 34
-3.9035349 3.5333068 -1.8112931 17
-2.9674273 2.6859837 -1.8657235 8
-1.6867013 1.5482872 0.60437608 12
-2.097589 1.9254566 0.5502156 3
-3.8171749 3.5039299 0.72489822 43
-3.8340325 3.5194039 0.45185003 24
-3.8463156 3.5306792 0.26860061 20
-3.8521557 3.5360401 0.17647961 25
-3.5800037 3.8016653 0.14522466 26
-4.4477901 3.5240121 0.12441554 27
-3.8450153 3.5294855 0.083631895 17
-3.5812042 3.8029401 0.052881174 29
-4.4519544 3.5273113 0.023990527 30
-3.8278229 3.5137041 -0.0086152898 24
-3.5922546 3.8146749 -0.039508298 29
-4.4421873 3.519573 -0.076170161 21
-3.8565745 3.5400963 -0.10124876 34
-3.5939543 3.8164797 -0.13233121 31
-4.4247694 3.5057724 -0.17573299 27
-3.8575928 3.5410309 -0.19411507 39
-3.5616491 3.7821743 -0.22319393 37
-4.4498296 3.5256281 -0.27716666 4
-3.8397534 3.5246556 -0.2854754 37
-3.5693474 3.7903492 -0.31570315 33
-4.4390421 3.5170808 -0.37686256 20
-3.8472061 3.5314968 -0.37846234 29
-3.5704453 3.7915151 -0.40805241 32
-4.4394069 3.51737 -0.47710767 24
-3.8593211 3.5426176 -0.47233871 37
-3.5704427 3.7915125 -0.50019246 34
-4.444633 3.5215106 -0.57809937 30
-3.8526313 3.5364766 -0.56406069 38
-3.8418519 3.5265818 -0.6549288 34
-3.8416357 3.5263832 -0.74718279 32
-3.8634346 3.5463934 -0.8451702 33
-3.8521605 3.5360441 -0.93519884 32
-3.8541782 3.5378964 -1.0289927 34
-3.8436165 3.5282016 -1.1186157 31
-3.8635914 3.5465372 -1.2174532 30
-3.8566661 3.5401804 -1.3076949 33
-3.8425486 3.5272212 -1.7943773 18
-2.9512742 2.7090864 -1.8674134 9
-1.6730201 1.5573895 0.60335517 12
-2.0927193 1.9480814 0.55249238 5
-3.7636242 3.5035017 0.71935618 37
-3.7802005 3.5189323 0.44839022 24
-3.8011055 3.5383923 0.26716202 23
-3.8010402 3.5383317 0.1752653 23
-3.580584 3.8558657 0.14633664 27
-4.3950257 3.5324302 0.12362643 28
-3.7939341 3.5317168 0.083055124 21
-3.5872283 3.8630207 0.053367063 28
-4.3898072 3.5282357 0.023787791 29
-3.7973437 3.5348907 -0.0086020259 31
-3.5954754 3.8719018 -0.039840046 29
-4.3769803 3.5179262 -0.075471349 22
-3.8024931 3.5396843 -0.10047527 31
-3.5944326 3.8707788 -0.1333406 28
-4.3659072 3.5090268 -0.17436397 27
-3.8122971 3.5488105 -0.19307782 36
-3.575948 3.8508732 -0.22576924 33
-4.3815103 3.5215673 -0.27443597 4
-3.7916658 3.5296052 -0.28372535 35
-3.572684 3.8473585 -0.31836629 35
-4.389493 3.527983 -0.37473789 20
-3.7815757 3.5202124 -0.37441462 33
-3.5710242 3.8455708 -0.41117686 30
-4.3650341 3.5083249 -0.4717356 24
-3.7965875 3.5341866 -0.46766922 37
-3.5709801 3.8455234 -0.50401658 35
-4.3703122 3.512567 -0.57160842 33
-3.7958283 3.5334799 -0.55934232 42
-3.7851834 3.523571 -0.64944613 34
-3.7792463 3.518044 -0.73980743 31
-3.8125672 3.549062 -0.83944237 34
-3.8014417 3.5387053 -0.9288609 33
-3.7977846 3.535301 -1.0205013 34
-3.7931268 3.5309653 -1.1110688 30
-3.815922 3.5521851 -1.2102172 29
-3.7977705 3.5352881 -1.2960622 35
-3.7818389 3.5204575 -1.7774615 18
-2.9216743 2.719743 -1.8606535 8
-1.6902304 1.5955802 0.61356419 3
-2.0819242 1.9653398 0.55325133 6
-3.7131476 3.5052173 0.71436834 44
-3.7236657 3.5151465 0.44458443 25
-3.7472618 3.537421 0.26510695 23
-3.747175 3.5373392 0.17391607 24
-3.5805807 3.9102581 0.14744861 24
-4.3423643 3.5402825 0.12283733 28
-3.7313774 3.5224261 0.082222007 18
-3.5925863 3.9233692 0.053852957 29
-4.327868 3.5284638 0.023585053 30
-3.7376688 3.5283651 -0.0085224388 33
-3.5980706 3.9293585 -0.040171795 26
-4.3182163 3.5205948 -0.074880049 20
-3.7456994 3.5359461 -0.099624448 34
-3.5943265 3.9252696 -0.13434999 30
-4.3103175 3.5141551 -0.1731194 27
-3.7583616 3.5478995 -0.19159602 34
-3.5732665 3.9022706 -0.22731443 32
-4.3196616 3.5217733 -0.27209535 27
-3.7407932 3.5313148 -0.28175655 31
-3.5727017 3.9016535 -0.32078734 30
-4.3183565 3.5207093 -0.37075412 30
-3.7366004 3.5273566 -0.37239078 32
-3.573714 3.9027593 -0.41461375 32
-4.3064547 3.5110059 -0.46804228 25
-3.745749 3.5359929 -0.46443647 36
-3.5790031 3.9085352 -0.5089879 32
-4.3117585 3.5153301 -0.56714588 33
-3.7450402 3.5353239 -0.55548179 42
-3.7345178 3.5253909 -0.64496034 36
-3.7258008 3.5171618 -0.73413402 31
-3.7561092 3.545773 -0.83244175 34
-3.7394216 3.5300198 -0.91970611 33
-3.7416167 3.5320921 -1.01201 35
-3.7427869 3.5331969 -1.1035219 31
-3.7570298 3.5466421 -1.1993634 33
-3.7447772 3.5350757 -1.2863685 37
-3.7406664 3.5311949 -1.7696543 20
-2.9052522 2.7425625 -1.8623435 8
-1.6762562 1.6046669 0.61254328 4
-2.0766637 1.9879739 0.55552804 7
-3.6656935 3.5091398 0.70993471 37
-3.6731274 3.5162561 0.44147062 22
-3.6965039 3.5386343 0.26325735 22
-3.699286 3.5412974 0.17283668 24
-3.5907094 3.9767075 0.14900538 26
-4.2743979 3.5348318 0.12160983 27
-3.6806936 3.5234993 0.081645235 18
-3.5999553 3.9869473 0.054379337 25
-4.2630572 3.5254531 0.023365421 31
-3.6898296 3.5322449 -0.0084693804 25
-3.6000373 3.9870381 -0.040503547 27
-4.2503815 3.5149705 -0.074127488 21
-3.6891444 3.531589 -0.098773614 35
-3.607033 3.9947858 -0.13586408 21
-4.2487073 3.513586 -0.17162591 27
-3.6988516 3.5408816 -0.18981786 43
-3.5727184 3.9567826 -0.22903131 34
-4.2641816 3.5263829 -0.27014485 26
-3.6900826 3.5324872 -0.27978778 43
-3.5721333 3.9561346 -0.32320836 31
-4.2598395 3.5227923 -0.36783272 26
-3.6801827 3.5230103 -0.36921042 41
-3.575778 3.960171 -0.41805065 33
-4.2541938 3.5181234 -0.46502051 23
-3.6979499 3.5400186 -0.46156293 34
-3.5836496 3.9688888 -0.51357681 34
-4.2564459 3.5199859 -0.56308907 33
-3.6886671 3.531132 -0.55076343 41
-3.6840127 3.5266767 -0.6404745 36
-3.6811342 3.523921 -0.73016268 34
-3.6998847 3.5418706 -0.82544106 30
-3.7004647 3.5424259 -0.91618502 34
-3.694186 3.5364153 -1.0058345 34
-3.6869516 3.52949 -1.094298 32
-3.7068467 3.5485353 -1.1912228 32
-3.6947768 3.5369809 -1.277644 35
-3.6831355 3.5258367 -1.7540396 23
-2.8860347 2.7627785 -1.8623435 9
-1.6677885 1.6190233 0.61356419 12
-2.0768249 2.0160999 0.55932266 8
-3.6297376 3.5236063 0.7077179 45
-3.637054 3.5307088 0.44008669 32
-3.6430483 3.5365279 0.26120228 23
-3.6543953 3.547543 0.17189223 26
-6.8704691 7.7166696 0.28733575 31
-4.2097855 3.5311768 0.12047001 28
-3.6330492 3.5268211 0.081132554 19
-6.8647943 7.7102957 0.10450713 36
-4.207695 3.5294232 0.023196474 31
-3.6421208 3.5356274 -0.008416323 30
-6.8622909 7.7074842 -0.077810235 35
-4.1920304 3.516284 -0.073536187 21
-3.6471837 3.5405424 -0.098309524 34
-6.8416872 7.6843424 -0.25971639 34
-4.1842532 3.5097604 -0.17000797 27
-3.6539664 3.5471265 -0.18878061 39
-3.5715818 4.0114751 -0.23074818 3
-4.2057877 3.5278237 -0.26799929 27
-3.6424067 3.5359051 -0.27803773 37
-6.8605242 7.7054996 -0.62559581 33
-4.1984477 3.5216668 -0.36464572 26
-3.6354618 3.5291629 -0.36718655 36
-6.8521261 7.6960673 -0.80735636 33
-4.192883 3.516999 -0.46099144 24
-3.6474209 3.5407724 -0.45833018 39
-5.6898961 6.3906913 -0.8217994 14
-4.1951823 3.5189276 -0.55822086 32
-3.6382451 3.5318649 -0.54690295 42
-3.6308265 3.5246632 -0.6354903 35
-3.6365569 3.5302262 -0.72619134 30
-3.652401 3.5456071 -0.82034969 35
-3.6360919 3.5297749 -0.906326 35
-3.6496959 3.5429809 -1.0004309 36
-3.6341598 3.5278993 -1.0859126 34
-3.6512313 3.5444715 -1.1812733 30
-3.6421506 3.5356562 -1.2679503 37
-3.6340065 3.5277505 -1.7423288 23
-2.8666778 2.7828579 -1.8623435 8
-1.675738 1.6496196 0.62071055 11
-2.0766933 2.0443256 0.56311721 8
-3.6248114 3.5683143 0.71159732 29
-3.6151562 3.5588098 0.44043267 27
-3.6068828 3.5506651 0.26038024 31
-3.6209931 3.5645556 0.17148745 31
-6.7742219 7.7163696 0.28555661 32
-4.157618 3.5371587 0.11968091 27
-3.6111889 3.5549042 0.081196636 24
-6.7580218 7.6979165 0.10369731 32
-4.1555333 3.5353851 0.023044422 30
-3.6173487 3.5609679 -0.008416323 33
-6.7555375 7.6950865 -0.077207059 34
-4.1430097 3.5247307 -0.073106155 21
-3.6024272 3.546279 -0.097768091 44
-6.7535782 7.6928549 -0.25840417 33
-4.1291971 3.5129795 -0.16876341 26
-3.6091735 3.5529201 -0.18774335 51
-6.7732325 7.7152424 -0.44106552 38
-4.1445413 3.5260334 -0.26565868 29
-3.6034012 3.5472376 -0.27694395 47
-6.7670507 7.7082009 -0.62196428 38
-4.1251211 3.5095117 -0.36039639 25
-3.5965192 3.5404632 -0.36574093 52
-6.7561355 7.6957679 -0.80235726 35
-4.1348333 3.5177743 -0.45729813 26
-3.5942223 3.538202 -0.45473826 48
-5.6819186 6.4721503 -0.82715315 14
-4.1311116 3.5146081 -0.55294698 34
-3.5936604 3.5376489 -0.54390031 59
-3.5891612 3.5332198 -0.63249975 53
-3.5948923 3.5388615 -0.72278732 47
-3.6050451 3.548856 -0.81525832 37
-3.5945249 3.5384998 -0.90210068 42
-3.6024964 3.5463474 -0.99425542 44
-3.5927186 3.5367219 -1.0808814 45
-3.6041832 3.5480077 -1.1740373 31
-3.5897222 3.5337722 -1.2582564 38
-3.590421 3.5344598 -1.7332202 25
-2.8445961 2.8002598 -1.8606535 8
-1.6778662 1.6749401 0.62581509 12
-2.0734885 2.0698724 0.56615293 9
-3.6138294 3.607527 0.71436834 28
-3.6184258 3.6121154 0.44389248 26
-3.579179 3.5729373 0.26017472 26
-3.6016779 3.5953968 0.1717573 26
-6.6730862 7.7090545 0.28355503 30
