# .PCD v0.7 - Point Cloud Data file format
VERSION 0.7
FIELDS x y z intensity
SIZE 4 4 4 4
TYPE F F F F
COUNT 1 1 1 1
WIDTH 1380
HEIGHT 1
VIEWPOINT 0 0 0 1 0 0 0
POINTS 1380
DATA ascii
6.4486184 -2.3636885 -0.74078542 0
8.9656858 -3.286299 -1.1992075 0
6.6695333 -2.444663 -1.0178025 3
9.0730238 -3.3256428 -1.557328 1
6.6767731 -2.4473166 -1.2718141 13
6.6957488 -2.454272 -1.4026103 14
6.6981006 -2.4551342 -1.5295016 23
6.4936233 -2.3801847 -1.6054826 10
6.1031985 -2.2370777 -1.623713 7
4.581286 -1.679233 -1.6785691 7
1.6679612 -0.61137754 -0.82808381 8
6.0811596 -2.2772825 1.7141004 20
5.6970901 -2.1334555 1.1755642 11
8.788579 -3.2911611 1.3129082 24
13.774502 -5.1582975 1.2770126 25
13.778131 -5.1596565 0.75689059 34
6.4917893 -2.4310558 0.23395692 0
13.740027 -4.0360932 0.31397608 77
6.4983974 -2.4335303 0.11118877 33
6.5009513 -2.990103 0.0724383 43
13.743206 -4.0370269 0.060500056 46
6.5179524 -2.4408534 -0.011540111 38
6.504734 -2.9918425 -0.05398462 0
13.757438 -4.0412078 -0.19270997 38
6.4605637 -2.4193623 -0.13342559 0
6.4992142 -2.9893038 -0.18058011 2
10.307302 -3.02774 -0.33441541 0
6.4835401 -2.4279666 -0.25664678 76
6.4662485 -2.9741411 -0.30577567 37
9.7978668 -2.8780951 -0.4985489 0
6.4782844 -2.4259982 -0.37888384 0
8.9569149 -2.631068 -0.62119907 12
6.4859676 -2.4288754 -0.50191802 82
6.499536 -2.9894519 -0.5605253 43
8.6620455 -2.544451 -0.76048476 18
6.4767051 -2.4254069 -0.62355894 74
6.489593 -2.9848788 -0.6860438 0
8.5829926 -2.5212295 -0.91197711 0
6.4729276 -2.4239922 -0.74550378 0
6.597249 -2.4705484 -0.88470215 8
6.6300554 -2.4828339 -1.0143985 15
6.6383352 -2.4859345 -1.1423799 12
6.641088 -2.4869652 -1.268293 16
6.678452 -2.5009573 -1.4026103 13
6.6588216 -2.4936061 -1.5244703 20
6.4987421 -2.4336593 -1.6109096 11
6.0910668 -2.2809925 -1.6246824 7
4.5659089 -1.7098489 -1.6772679 7
1.6806284 -0.62936443 -0.83653361 7
6.0542765 -2.315536 1.7110376 19
8.7046614 -3.3292098 1.8009126 24
8.7690878 -3.3538506 1.3134624 20
13.741878 -5.2557583 1.2773585 22
13.779086 -5.269989 0.7589457 33
6.4970632 -2.4848855 0.23476645 18
6.4596419 -3.0259171 0.19837733 0
13.726831 -4.1365337 0.31432679 65
6.4887214 -2.4816949 0.11131693 3
6.4944067 -3.0422022 0.07260026 56
13.737667 -4.1397991 0.060601421 50
6.5090437 -3.0490587 -0.054195732 0
13.774844 -4.1510024 -0.19335502 36
6.4771347 -2.4772635 -0.13412173 0
6.510777 -3.0498705 -0.18148856 3
13.765591 -4.1482139 -0.44754663 35
6.477633 -2.4774542 -0.25709134 52
6.4706597 -3.0310783 -0.30697748 48
9.8463917 -2.9671764 -0.50205982 0
6.4873033 -2.4811528 -0.38041511 32
6.4900637 -3.0401676 -0.43457606 0
8.9765434 -2.7050507 -0.62385494 12
6.5918212 -2.5211267 -0.51145905 0
6.5037856 -3.0465956 -0.56271237 55
8.6669693 -2.6117616 -0.76249933 18
6.4819412 -2.4791019 -0.62571412 53
6.5046535 -3.0470021 -0.68986791 5
8.6566257 -2.6086445 -0.92171347 2
6.4967074 -2.4847493 -0.75022215 27
6.5538926 -2.5066206 -0.88121319 17
6.5718794 -2.5135 -1.0081578 13
6.591311 -2.5209317 -1.1372886 16
6.6382756 -2.5388939 -1.2711099 16
6.6718273 -2.5517263 -1.4049262 9
6.9736786 -2.6671731 -1.6007776 4
6.4706759 -2.4747934 -1.608196 12
6.0749946 -2.3234599 -1.6246824 7
4.5609269 -1.7443851 -1.6798704 7
1.6626487 -0.63590139 -0.82977378 7
6.0379634 -2.3577464 1.7110376 20
5.3887138 -2.1042228 1.1178864 1
8.782361 -3.4293978 1.3190043 20
13.708562 -5.3530154 1.2777046 19
13.786612 -5.3834929 0.76141179 34
6.4907289 -2.5345454 0.23517123 36
6.4888844 -3.0950394 0.1999341 20
13.724364 -4.2405267 0.31494054 61
6.5010419 -2.5385723 0.11182962 4
13.739005 -4.24505 0.060736582 53
6.4981413 -2.5374398 -0.011566641 0
6.5164804 -3.108202 -0.054437004 26
13.77228 -4.2553315 -0.19373131 36
6.4745836 -2.5282409 -0.13443112 30
6.5037627 -3.1021359 -0.18189232 42
13.801233 -4.2642775 -0.44966239 42
6.4564557 -2.521162 -0.25694317 0
6.496232 -3.0985439 -0.30920944 9
9.9285011 -3.0676882 -0.50732619 0
6.4809847 -2.5307403 -0.38107139 49
6.493907 -3.097435 -0.43627077 34
9.0108261 -2.784147 -0.62757307 12
6.4848695 -2.5322573 -0.50452012 0
8.6713743 -2.6792638 -0.76451385 18
6.47932 -2.5300903 -0.62715089 1
6.4940038 -3.0974813 -0.69101512 48
8.6610146 -2.6760631 -0.92414761 1
6.5088382 -2.5416169 -0.75365371 55
6.5436268 -2.5552013 -0.88221008 13
6.6390033 -2.5924447 -1.0212066 2
6.6360865 -2.5913055 -1.1481078 4
8.1975451 -3.2010348 -1.5739228 3
6.8293362 -2.6667671 -1.4419792 3
6.7909441 -2.6517756 -1.5630432 23
6.445982 -2.5170722 -1.606387 10
6.0694699 -2.3700492 -1.6275905 7
4.5521607 -1.7775596 -1.6811715 6
1.6581688 -0.64749336 -0.82977378 7
6.0169258 -2.4005103 1.7100167 17
5.2819505 -2.107285 1.0989134 5
8.7496271 -3.4907477 1.3178959 32
9.3236113 -3.7197444 0.87152392 18
9.3908491 -3.7465696 0.52014393 11
6.4868274 -2.5879822 0.23571092 34
6.4983883 -3.158252 0.20093489 38
13.76534 -4.3639793 0.3166064 40
6.5156913 -2.5994976 0.1124064 4
6.4933729 -3.1558144 0.073086157 0
13.799028 -4.3746591 0.061142053 43
6.4942274 -2.5909345 -0.01159317 0
6.5151062 -3.1663768 -0.05461796 56
13.843657 -4.3888078 -0.19518268 29
6.4744492 -2.5830438 -0.13481787 73
6.5168133 -3.1672065 -0.18290171 41
13.842015 -4.3882871 -0.45202708 37
6.4897785 -2.5891595 -0.25901768 0
10.039042 -3.1826434 -0.51415294 3
6.4696784 -2.5811403 -0.38150889 75
6.4997559 -3.1589165 -0.4382076 45
9.0396347 -2.8658047 -0.63102567 11
6.4994822 -2.5930309 -0.50712222 0
6.4917984 -3.1550493 -0.5655244 0
8.6818972 -2.7523925 -0.76719987 16
6.4865007 -2.5878518 -0.6296652 2
6.4890299 -3.1537037 -0.69292718 70
8.6525459 -2.7430873 -0.92536467 0
6.4974198 -2.5922081 -0.75451159 66
6.620564 -2.6413376 -0.89516908 9
6.6786642 -2.6645172 -1.0302839 12
6.7416215 -2.6896346 -1.1697462 12
6.7292624 -2.6847041 -1.2957574 13
6.7549233 -2.6949415 -1.4304 16
6.7204652 -2.6811943 -1.5513036 19
6.4563098 -2.5758069 -1.613623 8
6.0267024 -2.4044108 -1.6208049 6
4.5319819 -1.8080778 -1.6785691 7
1.6769495 -0.66903508 -0.84160352 6
6.0000205 -2.442457 1.7100167 17
5.1907229 -2.1130123 1.0829761 5
8.7654047 -3.5681748 1.3239921 22
9.1387062 -3.7201366 0.85664678 19
9.2423677 -3.7623346 0.51336211 23
6.4871159 -2.6407411 0.23638554 4
6.5012689 -3.2159524 0.20171326 38
13.787788 -4.4772625 0.3178339 39
6.493681 -2.6434135 0.11234231 27
6.4962792 -3.213484 0.073369592 0
13.81 -4.4844756 0.061327897 41
6.4870954 -2.640733 -0.011613066 35
6.5035977 -3.2171042 -0.054708436 39
13.843114 -4.4952283 -0.19561271 30
6.467371 -2.6327035 -0.13504991 64
6.5017114 -3.2161713 -0.18310359 5
13.849069 -4.4971619 -0.45327163 38
6.5048652 -2.6479664 -0.26035127 28
6.4834609 -3.2071433 -0.31075463 0
10.202775 -3.313113 -0.52371043 1
6.4884944 -2.6413023 -0.38369644 0
6.4990163 -3.214838 -0.43966022 62
9.0611639 -2.9424016 -0.63394707 8
6.4960022 -2.6443586 -0.50827873 31
6.5053577 -3.2179749 -0.56864882 19
8.6852169 -2.8203216 -0.76921439 16
6.4793458 -2.6375782 -0.63074279 14
6.4954062 -3.213052 -0.69598645 2
8.599122 -2.7923641 -0.92171347 0
6.4570646 -2.6285081 -0.75193793 1
6.6423984 -2.7039528 -0.90065175 14
6.6672349 -2.7140629 -1.0314187 13
6.7007351 -2.7277002 -1.1659275 14
6.7176499 -2.7345858 -1.2971659 16
6.7577558 -2.750912 -1.4350317 5
6.7052064 -2.7295203 -1.5521423 14
6.4381704 -2.6208167 -1.613623 6
6.042119 -2.4595942 -1.6295294 6
4.5227523 -1.8410983 -1.6798704 7
1.6755958 -0.68209279 -0.84329349 4
5.9899664 -2.4872518 1.7120585 18
5.1069307 -2.1205833 1.0685567 5
8.7695484 -3.6414351 1.3284258 22
8.9800205 -3.7288308 0.84419149 18
6.50424 -2.7007968 0.36231282 4
6.5460558 -2.7181604 0.23921892 0
13.797937 -4.5872884 0.31879836 34
6.5120053 -2.7040212 0.11298317 23
6.4951234 -3.2695475 0.073612534 28
13.812518 -4.5921359 0.061479948 39
6.5165262 -2.7058985 -0.011699285 36
6.5274262 -3.2858083 -0.055100504 0
13.834167 -4.5993333 -0.19593523 31
6.5005307 -3.2722695 -0.18370922 3
13.859068 -4.6076117 -0.45464066 36
6.489912 -2.6948473 -0.26049945 53
6.5001788 -3.2720923 -0.31264317 30
13.818956 -4.5942764 -0.71095884 39
6.4846511 -2.6926627 -0.38457146 0
9.0744877 -3.0169213 -0.63633734 6
6.4921207 -2.6957645 -0.50943518 71
6.5005441 -3.2722762 -0.57021105 39
8.7182684 -2.8984919 -0.77391499 16
6.4791703 -2.690387 -0.63253874 46
6.5012689 -3.2726409 -0.69904572 0
8.6549416 -2.8774381 -0.92982715 1
6.4716125 -2.6872487 -0.7557984 0
6.6196938 -2.7487373 -0.90015328 18
6.6554384 -2.7635801 -1.0325533 12
6.6778817 -2.7728992 -1.1652912 14
8.1348047 -3.3778665 -1.5753312 4
7.4850817 -3.108078 -1.5940508 3
6.917161 -2.8722568 -1.605809 4
6.4197168 -2.6656997 -1.613623 5
6.0140486 -2.4972515 -1.6266211 6
4.5132818 -1.8740788 -1.6811715 7
1.7344105 -0.72019029 -0.87540287 1
5.9590912 -2.5208962 1.7079749 15
5.0095625 -2.1192136 1.0511016 1
8.745204 -3.6995161 1.3284258 21
8.8046169 -3.7246497 0.8300063 24
8.8996487 -3.7648511 0.49712691 20
6.4837027 -2.7428246 0.23759985 0
6.4960418 -3.3241928 0.20293644 0
13.801288 -4.690279 0.31958747 34
6.4902449 -2.7455924 0.11291908 38
6.4910984 -3.3216631 0.073814988 61
13.800694 -4.6900768 0.061564423 39
6.5058045 -2.7521744 -0.01171255 37
6.5019293 -3.3272057 -0.055070344 0
13.829866 -4.6999912 -0.19631152 30
6.4640813 -2.734524 -0.13574605 0
6.5107226 -3.3317053 -0.18461767 3
13.850917 -4.7071447 -0.45538741 36
6.4792595 -2.7409451 -0.26079583 77
6.5103526 -3.3315158 -0.31418836 50
13.818445 -4.6961093 -0.71251923 40
6.4740067 -2.7387228 -0.38500896 0
6.4937472 -3.3230186 -0.44232336 0
9.2281094 -3.1361134 -0.64855415 2
6.4961448 -2.7480881 -0.51116991 66
6.4999981 -3.3262172 -0.57208574 52
8.7328186 -2.967792 -0.77693677 12
6.4795299 -2.7410595 -0.63433474 43
6.4971433 -3.3247564 -0.70095778 0
8.6356668 -2.9347758 -0.92982715 0
6.471961 -2.7378576 -0.75794315 0
6.6159387 -2.7987649 -0.902147 16
8.8359137 -3.7378891 -1.3746575 1
8.8524542 -3.7448864 -1.5490544 21
8.126729 -3.43788 -1.578148 4
7.4534597 -3.1530647 -1.591735 4
6.9015613 -2.9195931 -1.6066475 5
6.401896 -2.7082176 -1.613623 7
6.0080762 -2.5416186 -1.6295294 5
4.5042372 -1.905444 -1.6824727 7
3.3857338 -1.4322795 -1.7136265 8
5.9369011 -2.5629778 1.706954 19
8.4914217 -3.665772 1.7872522 22
8.688755 -3.7509615 1.3239921 20
8.7587843 -3.7811933 0.8282764 36
8.7471151 -3.7761555 0.49013957 39
6.5074663 -2.8092926 0.23921892 31
6.5175982 -3.3957393 0.20438202 10
13.800527 -4.8031516 0.32037657 38
6.49932 -2.8057756 0.11343177 12
6.4985003 -3.3857892 0.074179411 3
13.811275 -4.8068924 0.061767161 40
6.5305743 -3.4025002 -0.055522729 26
13.832816 -4.8143892 -0.19684906 29
6.4769082 -2.7961006 -0.13644217 21
6.5180416 -3.3959703 -0.18552612 40
6.4883523 -2.8010411 -0.26198125 1
6.4893007 -3.380996 -0.31436005 56
13.825155 -4.8117232 -0.71466482 29
6.4940929 -2.8035195 -0.38741529 36
6.5117049 -3.392669 -0.44522861 29
9.3443403 -3.2522151 -0.65838075 0
6.5214162 -3.3977284 -0.5761475 0
8.8049383 -3.064481 -0.78533065 14
6.477551 -2.7963781 -0.63613069 12
6.493784 -3.383332 -0.70325226 28
8.7304277 -3.0385482 -0.94240338 0
6.4809275 -2.7978358 -0.76137471 28
8.8070202 -3.802017 -1.2046902 28
8.8119116 -3.8041284 -1.3752248 32
8.8283911 -3.8112428 -1.5496908 24
8.1049242 -3.49892 -1.5788523 4
7.4445601 -3.2138388 -1.5948228 3
6.8907471 -2.974756 -1.609163 5
6.3926039 -2.759706 -1.6163365 5
5.9892836 -2.5855916 -1.6295294 6
4.4970937 -1.9414088 -1.6850752 7
3.3618298 -1.4513119 -1.7068666 10
5.9330244 -2.6105928 1.7110376 20
8.4692183 -3.7265446 1.7880111 30
8.6115942 -3.7891917 1.3162334 23
8.7650023 -3.8566928 0.8313902 36
8.7607603 -3.854826 0.4924002 32
6.498673 -2.859484 0.2396237 34
6.5149312 -3.4523914 0.20504922 37
13.793032 -4.9087658 0.32099032 30
6.5088601 -2.8639665 0.11394446 10
6.5241842 -3.4572949 0.074746281 0
6.4892368 -2.3094375 0.029092738 1
6.5096869 -2.8643303 -0.011792137 0
6.5314016 -3.4611197 -0.055733845 39
6.4811726 -2.3065674 -0.092457779 6
6.4791937 -2.850913 -0.13690627 46
6.533041 -3.461988 -0.18663646 38
6.4748526 -2.3043184 -0.21394123 22
6.4796157 -2.8510988 -0.26242578 0
6.4853306 -2.8536134 -0.38807154 65
6.512557 -3.4511333 -0.44692335 43
6.4937758 -2.3110528 -0.45866215 0
6.503623 -2.8616621 -0.51492852 0
6.4975367 -3.4431736 -0.5761475 0
6.4889245 -2.3093264 -0.5801844 17
6.4761033 -2.8495533 -0.63792664 18
6.4946337 -3.4416354 -0.7059291 66
6.4858255 -2.3082235 -0.70183289 11
6.5049195 -2.8622327 -0.76652199 56
8.8238564 -3.8825891 -1.2106713 46
8.8358784 -3.8878789 -1.3831675 43
8.8232565 -3.8823254 -1.5535094 27
8.1055288 -3.5665176 -1.5837818 4
7.4327197 -3.2704744 -1.5971385 4
6.8733916 -3.0243642 -1.6100017 5
6.3838816 -2.8089745 -1.61905 4
5.9710875 -2.627341 -1.6295294 6
4.479969 -1.9712332 -1.683774 6
3.374845 -1.4849671 -1.7186964 9
5.9217119 -2.6551139 1.7130795 18
8.4322443 -3.7807598 1.7857343 33
7.2258005 -3.2398272 1.1078528 1
8.7633171 -3.9292026 0.83381206 39
8.7518606 -3.9240656 0.49342772 52
6.4967904 -2.9129615 0.2402983 34
6.5153098 -3.5110664 0.20582759 39
6.4902487 -2.3609746 0.15142046 1
6.5069547 -2.9175186 0.11426488 12
6.5034108 -3.5046539 0.074786775 0
6.499269 -2.3642559 0.029211001 28
6.5004807 -2.9146161 -0.011812033 24
6.5141225 -3.5104268 -0.055794161 49
6.487464 -2.3599615 -0.092780307 0
6.4773788 -2.9042578 -0.13729301 69
6.5192733 -3.5132022 -0.18693927 11
6.4849081 -2.3590319 -0.21481243 41
6.4777908 -2.9044425 -0.2631667 0
6.4942327 -3.4997079 -0.31693536 0
6.4728222 -2.3546355 -0.33626693 16
6.4834723 -2.9069901 -0.38916531 65
6.5023646 -3.5040903 -0.44789174 70
6.4587302 -2.349509 -0.45733425 0
6.5089688 -2.918422 -0.5169524 21
6.5049357 -3.5054758 -0.57895952 5
6.4876275 -2.3600211 -0.58152741 60
6.4814978 -2.9061048 -0.640441 16
6.4949846 -3.5001132 -0.708606 12
6.4695535 -2.3534462 -0.70183289 0
6.5065517 -2.9173381 -0.76909566 54
8.818265 -3.9538393 -1.2136618 45
8.8301992 -3.9591901 -1.3865715 43
8.8211613 -3.9551382 -1.5579643 26
8.0912104 -3.6278505 -1.5858945 4
7.4097061 -3.3222849 -1.5971385 4
6.8521099 -3.0722759 -1.6100017 4
6.3641152 -2.8534741 -1.61905 5
5.9667645 -2.6753139 -1.6334069 6
4.4626465 -2.0009139 -1.6824727 7
3.3610876 -1.5070086 -1.7170064 9
5.8995137 -2.694783 1.7120585 19
8.2841864 -3.784055 1.7599311 30
7.123734 -3.253983 1.0956603 8
8.7501717 -3.9969082 0.83519596 50
8.7387867 -3.9917076 0.49424976 34
6.4923506 -2.4131939 0.15185885 0
6.5082555 -2.9728444 0.1146494 16
6.5103545 -3.5672691 0.07515119 27
6.5013514 -2.4165397 0.029295474 54
6.4981666 -2.968236 -0.011845195 35
6.5280428 -3.576961 -0.056125909 0
6.4933248 -2.4135561 -0.093102835 0
6.4460325 -2.9444222 -0.13706096 1
6.5366697 -3.5816879 -0.18815054 4
6.4795241 -2.4084265 -0.21518579 61
6.4791718 -2.9595594 -0.26405576 25
6.5046887 -3.5641646 -0.31865224 28
6.4674611 -2.4039426 -0.3368521 13
6.4683585 -2.4042761 -0.45919332 0
6.5065808 -2.9720793 -0.51839805 48
6.5187736 -3.5718822 -0.58239639 42
6.4822021 -2.4094217 -0.58253473 54
6.4791708 -2.959559 -0.64223695 32
6.4828062 -2.4096465 -0.70507836 0
6.3992085 -2.9230337 -0.75880104 0
8.8193274 -4.0284967 -1.2176492 46
8.8311567 -4.0339003 -1.3911103 41
8.8256636 -4.0313911 -1.5636922 23
8.0621061 -3.6826131 -1.5851902 4
7.386332 -3.3739326 -1.5971385 4
6.8447251 -3.1265373 -1.6133558 4
6.3475838 -2.8994527 -1.6199545 5
5.9550018 -2.720129 -1.6353456 6
4.4520092 -2.0335913 -1.683774 6
3.3471873 -1.5289299 -1.7153164 8
5.8499475 -2.7191784 1.7028704 21
8.1449423 -3.7859404 1.7356457 32
6.9870424 -3.2477241 1.0779258 2
8.7740631 -4.0783687 0.84003973 32
8.6070681 -4.0007463 0.48829001 17
6.5000367 -3.0213537 0.24191739 0
6.5053401 -3.6208262 0.20705077 0
6.4836817 -2.4590356 0.15203421 0
6.5101566 -3.0260577 0.11503391 24
6.5145116 -3.625931 0.075475119 57
6.492662 -2.4624414 0.029329265 57
6.5254927 -3.0331862 -0.011931414 38
6.5426202 -3.6415763 -0.056457657 0
6.5070925 -2.4679146 -0.093532868 1
6.4843888 -3.0140803 -0.13829853 0
6.5197592 -3.6288517 -0.18835242 6
6.4783616 -2.4570179 -0.21568362 25
6.4847746 -3.0142596 -0.26509303 77
6.5193172 -3.6286058 -0.32054082 45
6.458847 -2.4496169 -0.33724219 21
6.4903827 -3.0168664 -0.39200914 0
6.5063901 -3.6214106 -0.4515233 0
6.4634657 -2.4513686 -0.45999008 0
6.5048151 -3.0235748 -0.51984364 77
6.5158472 -3.6266744 -0.58427107 64
6.4772601 -2.4566002 -0.58354199 42
6.4738503 -3.0091817 -0.64367372 26
6.4919629 -3.6133804 -0.71357733 0
6.4852862 -2.4596441 -0.70710677 33
6.4734478 -3.0089946 -0.76995355 0
8.8176088 -4.0986099 -1.2211382 56
8.8293428 -4.104064 -1.3950816 41
8.816638 -4.0981584 -1.5668743 20
8.0517874 -3.74264 -1.5880071 4
7.0292368 -3.2673371 -1.5245764 4
6.8309321 -3.1751609 -1.6150329 5
6.3388143 -2.9464142 -1.622668 4
5.9473877 -2.7644708 -1.6382537 6
4.441854 -2.0646672 -1.6850752 6
3.3402612 -1.5526236 -1.7170064 9
5.8168387 -2.7533338 1.6987867 19
8.0011711 -3.7872627 1.7106014 24
8.0741739 -3.8218179 1.2497289 17
8.7597847 -4.1463437 0.84142363 34
8.5897598 -4.0658641 0.48890653 18
6.5076923 -3.0803418 0.24299677 7
6.5216646 -3.6897812 0.20838515 17
6.4812727 -2.5100172 0.15238492 30
6.5069475 -3.079989 0.11535434 24
6.52037 -3.6890488 0.075839534 16
6.5536427 -2.538044 0.029684054 0
6.5309629 -3.6950419 -0.056578293 0
6.482245 -2.5103936 -0.093425363 36
6.488492 -3.0712533 -0.13883997 0
6.4960895 -3.0748494 -0.26642662 61
6.5181737 -3.6878059 -0.32174262 44
6.4713931 -2.506191 -0.33880261 36
6.4980431 -3.0757742 -0.39375916 24
6.5295997 -3.6942706 -0.45491275 26
6.4722471 -2.5065217 -0.46184915 35
8.7949715 -4.9759564 -0.79173416 3
6.4562349 -2.5003207 -0.58320624 0
6.47789 -3.0662351 -0.64618808 18
8.7226038 -4.9350128 -0.96252632 5
6.490221 -2.5134826 -0.7095409 47
6.4882288 -3.0711288 -0.774243 15
8.8318272 -4.1804442 -1.2271193 43
6.7963009 -3.2169511 -1.0773729 24
6.8317928 -3.2337508 -1.2181143 3
6.8118558 -3.224314 -1.3478694 30
6.793407 -3.2155814 -1.4782602 32
6.7343616 -3.187633 -1.5974236 16
6.31809 -2.9905956 -1.622668 4
5.920928 -2.8026032 -1.636315 5
4.423913 -2.0940087 -1.683774 6
3.3162327 -1.5697008 -1.7102466 9
5.7870231 -2.7888391 1.695724 19
7.8613214 -3.7884696 1.686316 30
7.9759235 -3.8436978 1.2386448 20
8.7593431 -4.2212377 0.84419149 33
8.751894 -4.2176476 0.49979851 31
6.5112386 -3.1378477 0.24394123 34
13.812995 -7.9428229 0.44312423 36
6.5045009 -2.5713751 0.15334938 39
6.5105066 -3.137495 0.11580294 15
10.644947 -6.1211147 0.1243072 1
6.472527 -2.5587351 0.029396843 0
6.5257468 -3.1448395 -0.012011001 0
10.222157 -5.8779998 -0.088908747 0
6.4831591 -2.5629382 -0.093694136 47
6.4740977 -3.1199491 -0.13899466 27
10.038935 -5.7726421 -0.29231972 0
6.4880419 -2.5648685 -0.21717711 0
6.499671 -3.1322732 -0.26746389 0
6.4723163 -2.5586519 -0.33977786 35
6.5015979 -3.1332018 -0.39529046 43
8.8226748 -5.0732622 -0.61712223 2
6.4731493 -2.5589812 -0.46317708 50
6.4799352 -3.1227622 -0.52128923 0
8.7634764 -5.0392218 -0.79204661 2
6.4868102 -2.5643816 -0.58757102 0
6.4814477 -3.1234913 -0.64870244 35
8.7017469 -5.0037251 -0.96405596 4
6.4836183 -2.5631196 -0.71075791 75
6.4952912 -3.1301625 -0.77767456 55
6.7180181 -3.2374973 -0.93653822 34
6.7308731 -3.2436922 -1.0705649 30
6.7628031 -3.2590797 -1.2098408 29
6.7643499 -3.2598252 -1.34294 37
6.7319002 -3.2441874 -1.4697689 27
6.6978507 -3.2277784 -1.5940694 16
6.2970576 -3.0346313 -1.622668 4
5.8907299 -2.8388169 -1.6334069 5
4.4262238 -2.1330528 -1.6902801 7
3.3117254 -1.595962 -1.7136265 9
5.7535233 -2.8223591 1.6916404 19
7.7500582 -3.8017483 1.668102 27
7.8635368 -3.8574147 1.2253439 19
8.7618599 -4.2980819 0.8473053 21
8.7545137 -4.2944784 0.50164813 45
6.5142975 -3.1955528 0.2448857 33
13.805538 -8.0673046 0.44468102 52
6.5012255 -2.6227069 0.1537001 55
6.5171704 -3.1969619 0.11631563 15
13.844701 -8.0901899 0.1623282 31
6.491601 -2.6188242 0.029565791 0
6.5251799 -3.200891 -0.012050794 0
10.426068 -6.0925026 -0.091050036 0
6.4873638 -2.617115 -0.094016664 26
6.4880633 -3.1826837 -0.13976815 70
9.9983892 -5.8425865 -0.29231972 0
6.4848084 -2.6160841 -0.21767493 28
6.4955888 -3.1863751 -0.26820478 0
9.1297579 -5.3349996 -0.45428547 0
6.4765263 -2.6127429 -0.34094816 37
6.4974947 -3.1873102 -0.39638424 62
8.7973843 -5.1407762 -0.61784852 2
6.4773345 -2.6130691 -0.46477059 47
6.5009575 -3.189009 -0.52475876 0
8.7452974 -5.1103392 -0.79360884 18
6.4835353 -2.6155703 -0.58891404 26
6.4988275 -3.187964 -0.65265357 37
8.6975412 -5.0824327 -0.96749765 2
6.4803276 -2.6142764 -0.71238065 1
6.5125551 -3.1946981 -0.78239292 50
6.67031 -3.2720838 -0.93304926 33
6.6831794 -3.2783968 -1.0665935 31
6.7008853 -3.2870824 -1.2028401 29
6.7096114 -3.291363 -1.336602 30
6.9134607 -3.39136 -1.5145413 10
6.7032442 -3.2882395 -1.6007776 8
6.2792163 -3.080235 -1.6235725 4
5.8847041 -2.8867092 -1.6372844 5
4.3976407 -2.1572382 -1.6850752 6
3.293993 -1.6158501 -1.7102466 9
5.7326798 -2.8644586 1.6916404 19
7.6060467 -3.8005271 1.6430577 6
7.7783508 -3.8866227 1.2164767 18
13.603156 -6.7971134 1.32026 13
13.797102 -6.8940229 0.79347128 33
13.807903 -8.2050543 0.44668257 66
6.4189668 -2.6443965 0.15220957 0
6.5114489 -3.2535875 0.11663605 7
13.836603 -8.2221079 0.16293555 33
6.5055156 -2.6800516 0.029717842 39
6.5158539 -3.2557886 -0.012077323 36
10.346742 -6.1483321 -0.090748452 0
6.4788694 -3.2373085 -0.14007755 42
9.9999809 -5.942277 -0.29363194 0
6.4839406 -2.6711636 -0.21829721 37
6.4899364 -3.2428381 -0.26894569 24
9.135067 -5.4283195 -0.45651743 0
6.4645882 -2.6631908 -0.34133825 8
8.7834902 -5.2194028 -0.61954325 2
6.4838376 -2.6711209 -0.46662965 0
6.502388 -3.2490599 -0.52678257 27
8.7624521 -5.2069016 -0.79860795 1
6.482615 -2.6706173 -0.5905928 38
6.4859753 -3.240859 -0.65373117 18
8.6874352 -5.162324 -0.97055691 1
6.4646697 -2.6632245 -0.71278638 0
6.4960775 -3.2459068 -0.78325081 3
6.6461453 -3.3208916 -0.93304926 31
6.7723122 -3.3839335 -1.0847483 21
6.7190013 -3.3572955 -1.2104772 24
6.8473296 -3.4214175 -1.3689959 22
6.8708611 -3.4331756 -1.5106815 25
6.801414 -3.3984747 -1.6301267 5
6.2669253 -3.1314058 -1.626286 4
5.8668571 -2.9315031 -1.6382537 6
4.3850932 -2.1911073 -1.6863765 6
3.2950323 -1.6464348 -1.7170064 9
5.6504874 -2.8728583 1.6732641 11
3.9804609 -2.0237722 0.86288989 4
7.6874671 -3.9085126 1.206501 18
13.626419 -6.9280338 1.3271797 20
13.79493 -7.0137095 0.79614288 33
6.5106621 -3.3101938 0.24650478 0
13.811899 -8.3384485 0.44868416 65
6.4703994 -2.7185767 0.15387546 0
6.5028372 -3.3062155 0.1168924 14
13.837076 -8.3536482 0.1636239 36
6.4940224 -2.7285023 0.029751632 62
6.539319 -3.3247638 -0.012163543 36
13.875058 -8.3765783 -0.12220429 26
6.493494 -2.7282801 -0.094661713 0
10.146531 -6.1256118 -0.29918358 0
6.4798784 -2.7225595 -0.21879505 53
6.499208 -3.3043702 -0.27027929 48
9.1311588 -5.5126162 -0.45823428 0
6.4568887 -2.7129002 -0.34192342 7
6.5046201 -3.3071218 -0.39966556 0
8.7844362 -5.3032947 -0.62220639 2
6.4687114 -2.7178676 -0.46689525 0
6.5079985 -3.3088396 -0.52909559 81
8.7327156 -5.2720699 -0.79923284 2
6.4674878 -2.7173533 -0.59092855 72
6.495153 -3.3023086 -0.65696388 3
8.6716356 -5.2351952 -0.9728514 1
6.4972816 -2.7298715 -0.71846592 0
6.4838948 -3.2965846 -0.78453761 4
6.7041698 -3.4085784 -0.94451302 34
6.773231 -3.4436908 -1.0887196 32
6.7974854 -3.4560225 -1.2289335 30
6.7671189 -3.4405835 -1.3577285 28
6.7872505 -3.4508188 -1.4975586 29
6.7566051 -3.4352376 -1.6250954 6
6.2518587 -3.1786113 -1.6280949 4
5.8497086 -2.9741476 -1.6392231 6
4.3696899 -2.2216666 -1.6863765 6
3.2899218 -1.6726837 -1.7203863 9
5.6715159 -2.9335582 1.6855149 18
3.952282 -2.0442944 0.85985422 1
7.6564741 -3.9602661 1.2059468 21
13.754697 -7.1145358 1.3444787 17
13.784658 -7.130033 0.7984035 29
6.5122495 -3.3684225 0.24744923 1
13.804479 -8.4660225 0.4503521 64
6.4843459 -2.7778542 0.15466456 0
6.5257783 -3.3754203 0.11772551 21
13.850024 -8.4939547 0.16447422 35
6.4968767 -2.7832224 0.029853001 53
6.526607 -3.375849 -0.01218344 1
13.863979 -8.5025129 -0.12262652 31
6.4963479 -2.7829959 -0.094984241 25
6.4934258 -3.3586862 -0.14139245 0
10.10693 -6.1983862 -0.29928452 0
6.4460139 -2.7614331 -0.21829721 0
6.4901824 -3.3570085 -0.27087203 73
9.1128922 -5.5887628 -0.45926443 0
6.4708438 -2.7720702 -0.34367886 7
6.5133009 -3.3689666 -0.40163437 8
8.75741 -5.3707519 -0.62293267 2
6.4825983 -2.7771056 -0.46928549 25
6.5095444 -3.3670232 -0.53111947 12
8.8792658 -5.4454842 -0.81610483 3
6.4556875 -2.7655771 -0.59160006 0
6.5002484 -3.362215 -0.65983742 1
8.6722136 -5.3185024 -0.97705793 1
6.4890389 -2.7798648 -0.71968299 31
6.5101752 -3.3673496 -0.79054284 7
6.7154617 -3.4735329 -0.94949728 34
6.7314396 -3.4817975 -1.085883 33
6.7556539 -3.4943221 -1.2257514 32
6.7464318 -3.489552 -1.3584327 32
6.8013406 -3.5179532 -1.5060499 12
6.7394056 -3.4859176 -1.6267725 9
6.2364373 -3.2257602 -1.6299039 5
5.8425903 -3.0220454 -1.6431006 7
4.3607922 -2.255594 -1.6889788 5
3.2685034 -1.6906141 -1.7153164 10
5.6543202 -2.9748821 1.6865358 21
7.2363071 -3.8072059 1.5800675 5
7.660192 -4.0302224 1.2109346 19
13.79286 -7.2567759 1.3531282 23
13.791109 -7.2558541 0.80169165 32
6.5239539 -3.4324186 0.24879847 27
13.806127 -8.6002445 0.45235369 63
6.4867835 -2.8326581 0.15519063 32
6.5339098 -3.4376566 0.11830229 24
13.844707 -8.6242762 0.16512206 37
6.5276594 -3.4343684 -0.012229865 0
13.861998 -8.6350479 -0.12313922 35
6.5134144 -2.8442872 -0.095521785 33
6.4875154 -3.4132476 -0.1417792 26
10.226325 -6.3702803 -0.3041296 9
6.4961929 -2.836767 -0.22066189 0
6.5408754 -3.4413216 -0.27398378 0
9.1109648 -5.6754894 -0.46115297 0
6.4696398 -2.8251717 -0.34465411 47
6.5108299 -3.4255137 -0.40294689 47
8.7502022 -5.4507594 -0.62511164 2
6.4776831 -2.8286841 -0.47034782 51
8.7462597 -5.4483037 -0.80735636 2
6.4983196 -2.8376958 -0.59730792 0
6.4836683 -3.4112234 -0.66055584 36
8.6788063 -5.4062848 -0.98202926 1
6.491354 -2.8346541 -0.72211707 75
6.500586 -3.4201243 -0.79225862 52
6.6945601 -3.5221789 -0.9499957 32
6.6754303 -3.5121143 -1.0807769 1
6.7275996 -3.5395617 -1.2251149 32
7.8997197 -4.1562443 -1.5964577 3
7.2698383 -3.8248475 -1.6156651 4
6.7287498 -3.5401671 -1.6301267 7
6.2275577 -3.2764771 -1.6335219 4
5.8144808 -3.0591469 -1.6411619 6
4.3449388 -2.2859831 -1.6889788 4
3.2758718 -1.7235198 -1.7254562 10
5.6061335 -2.9996872 1.6783687 18
3.9752958 -2.1270709 0.87123799 1
7.6318693 -4.0836024 1.2109346 19
13.812136 -7.3904924 1.3600478 27
13.799995 -7.383996 0.80518526 39
6.5350809 -3.4967413 0.2501477 35
13.803193 -8.7327614 0.45424405 50
6.4851184 -2.8860042 0.15562902 55
6.5379629 -3.4982831 0.11881497 24
13.845003 -8.7592125 0.16585091 38
6.486619 -2.8866718 0.029988158 0
6.5317392 -3.4949532 -0.012282923 0
13.86898 -8.7743826 -0.1237424 34
6.5080161 -2.896194 -0.095736809 53
6.5128961 -3.4848707 -0.14286208 47
13.885233 -8.7846651 -0.41475889 33
6.4908419 -2.888551 -0.22115973 0
6.5096426 -3.4831297 -0.27368742 0
9.1184025 -5.7688704 -0.46355662 0
6.4716601 -2.8800149 -0.34582442 46
6.5043654 -3.4803061 -0.40404066 65
8.7524242 -5.5373302 -0.62801689 2
6.4796562 -2.8835733 -0.47194132 47
6.4970751 -3.4764051 -0.53401065 0
8.7147503 -5.513495 -0.80798125 2
6.4674268 -2.8781309 -0.59630066 0
6.4877968 -3.4714408 -0.66342938 47
8.6745005 -5.4880304 -0.98585331 1
6.4932208 -2.8896098 -0.7245512 59
6.5151224 -3.486062 -0.79697698 47
8.9548998 -4.7915196 -1.2754664 1
9.6287489 -5.1520772 -1.5647154 1
8.6560907 -4.6316347 -1.5821484 2
7.8878703 -4.2205815 -1.5999788 3
7.2187352 -3.8625457 -1.6102614 4
6.6935263 -3.5815208 -1.627611 5
6.1976609 -3.3161972 -1.6317129 4
5.7827172 -3.0941722 -1.6382537 6
4.3288741 -2.3162608 -1.6889788 7
3.250973 -1.7395059 -1.7186964 9
5.2487297 -2.8557603 1.577299 15
3.9465506 -2.1472631 0.86820233 2
7.564899 -4.1159558 1.2048384 30
13.809212 -7.5133991 1.3648915 27
13.793728 -7.5049744 0.80785692 46
6.5421152 -3.5594738 0.25136203 0
13.819263 -8.878623 0.45680159 32
6.4903073 -2.9427681 0.15624277 48
6.5309477 -3.5533974 0.1191354 2
13.837357 -8.8902493 0.16649877 31
6.5100236 -2.9517078 0.030190896 26
6.5212359 -3.5481133 -0.012309453 29
13.86796 -8.9099112 -0.12428527 36
6.4621391 -2.9299965 -0.095360525 0
6.4989481 -3.5359869 -0.14309412 55
13.894215 -8.9267788 -0.41687861 33
6.4850826 -2.9403992 -0.22165754 27
6.5132575 -3.5437725 -0.27487287 22
9.1115274 -5.8539896 -0.4652735 0
6.4841442 -2.9399738 -0.34757987 26
8.7773771 -5.6393042 -0.63261682 2
6.4630017 -2.9303875 -0.47220692 1
6.5111961 -3.5426509 -0.53719103 27
8.7699862 -5.6345558 -0.81672972 2
6.4725866 -2.9347336 -0.59865093 29
6.4844007 -3.5280719 -0.6655845 54
8.78337 -5.6431546 -1.0026793 1
6.4906273 -3.5314598 -0.79697698 20
8.893342 -4.8387432 -1.271479 1
9.5855904 -5.2153859 -1.5635808 1
8.6166086 -4.6881766 -1.5808756 3
7.8547549 -4.2736626 -1.5992745 4
7.1984897 -3.9165978 -1.6118053 4
6.675231 -3.6319001 -1.6292881 4
6.1948953 -3.3705559 -1.6371399 4
5.7882471 -3.1493044 -1.6460088 7
4.3092761 -2.3446169 -1.6876776 6
3.2355657 -1.7604262 -1.7170064 9
5.580626 -3.0870283 1.6834731 20
3.9314635 -2.174763 0.86820233 3
7.5013146 -4.1494932 1.1992964 20
13.787805 -7.6269827 1.3680054 22
13.796925 -7.6320281 0.81114507 44
6.5345964 -3.6147349 0.25203663 1
13.827267 -9.0207634 0.45913675 33
6.533978 -3.6143928 0.11964808 2
13.841953 -9.030345 0.16730858 30
6.5074148 -3.0054703 0.030275369 43
6.5418081 -3.6187241 -0.012395672 35
13.869068 -9.0480347 -0.12485828 30
6.4778371 -2.9918096 -0.095898069 0
13.898537 -9.0672598 -0.41889739 31
6.4970632 -3.0006893 -0.22277766 48
6.5163407 -3.6046362 -0.27605829 46
9.1373777 -5.9611292 -0.46870723 0
6.4670887 -2.9868455 -0.34777492 1
6.5040674 -3.597847 -0.40710324 0
8.791297 -5.7353501 -0.63649052 2
6.4713736 -2.9888244 -0.47433156 0
6.521215 -3.6073325 -0.54008228 66
8.7805347 -5.7283287 -0.82141638 1
6.4700336 -2.9882057 -0.6003297 56
8.7637672 -5.7173896 -1.0049739 0
6.4919815 -2.9983423 -0.72901368 0
6.4832149 -3.5863121 -0.79912174 20
8.7968321 -4.8661327 -1.2625073 1
9.5662699 -5.2917619 -1.5664173 1
8.5836687 -4.7482176 -1.5808756 3
7.8178368 -4.3245835 -1.5978661 4
7.1847086 -3.9743564 -1.6148931 3
6.6599798 -3.684093 -1.6318038 4
6.1712127 -3.4137223 -1.6371399 4
5.766119 -3.1896372 -1.6460088 7
4.3027315 -2.3801367 -1.6915812 7
3.2200241 -1.7812169 -1.7153164 9
5.5634012 -3.1258671 1.684494 19
3.9272254 -2.2065611 0.87047905 4
7.4701757 -4.1972122 1.1987422 17
13.653537 -7.6714115 1.3597019 21
13.784313 -7.7448897 0.81340563 32
6.5244198 -3.6658275 0.25257632 6
13.830487 -9.1541986 0.46124953 33
6.5003166 -3.0546596 0.15747027 0
6.5377579 -3.6733215 0.12016077 19
13.838461 -9.1594763 0.16799693 31
6.5090609 -3.0587687 0.030376738 57
6.5490494 -3.6796658 -0.012455362 8
13.8788 -9.1861763 -0.12549162 31
6.4940519 -3.0517159 -0.096435614 0
6.5025082 -3.6535161 -0.14425434 0
13.901451 -9.201169 -0.42081523 32
6.5023489 -3.0556147 -0.22364886 29
6.5097146 -3.6575651 -0.2767992 67
9.1876192 -6.0811515 -0.47334281 1
6.4616008 -3.0364664 -0.34855512 0
6.528811 -3.6682947 -0.41016582 10
8.8129959 -5.8331943 -0.64084834 2
6.4839191 -3.0469542 -0.47672182 1
6.5041027 -3.654412 -0.5406605 36
8.7423515 -5.7864351 -0.82141638 1
6.4825406 -3.0463061 -0.60335153 46
6.4843955 -3.6433394 -0.67061323 0
8.8219442 -5.8391166 -1.0160637 2
6.5007663 -3.0548708 -0.73225915 25
6.493958 -3.6487122 -0.80341113 30
8.7574453 -4.9204807 -1.2615105 1
9.5482235 -5.3647895 -1.569254 1
8.5623159 -4.8108454 -1.5827849 3
7.8061471 -4.385982 -1.6013871 3
7.1650352 -4.0257649 -1.616437 5
6.6319895 -3.7262669 -1.6309652 4
6.1450396 -3.452668 -1.6362355 4
5.7448378 -3.2278097 -1.6460088 6
4.2835541 -2.4067688 -1.6902801 6
3.2207828 -1.8096373 -1.7220763 8
5.5336223 -3.1627264 1.6824522 17
3.9314029 -2.2469823 0.8750326 5
7.4529657 -4.2597218 1.200959 3
13.479302 -7.7040577 1.3479385 20
13.789598 -7.8814058 0.81710482 31
13.834683 -7.9071746 0.53780407 29
13.822736 -9.2954979 0.46325108 30
6.492177 -3.1091363 0.15782097 26
13.861619 -7.9225693 0.25583029 27
13.847285 -9.312007 0.16892822 30
6.493679 -3.1098557 0.030410526 0
13.867517 -9.3256121 -0.12600432 33
6.5075803 -3.116513 -0.096973158 25
6.4963846 -3.7129905 -0.14471844 0
13.906631 -9.3519154 -0.42303589 30
9.3562288 -5.3475266 -0.39949179 1
9.2853918 -6.2442303 -0.48072538 0
6.4896159 -3.1079099 -0.35128585 45
8.8423748 -5.0538344 -0.55782551 1
8.8296375 -5.9377446 -0.64520621 1
6.4866076 -3.1064692 -0.47858089 50
8.780508 -5.0184746 -0.7329275 1
8.7394085 -5.8770676 -0.82516569 1
6.4528461 -3.0903006 -0.60267997 0
6.4886432 -3.7085657 -0.67384595 0
8.7524719 -5.8858523 -1.0130044 1
6.4889655 -3.1075983 -0.73347622 43
8.6940737 -4.9690733 -1.0800797 5
8.7314777 -4.9904513 -1.2630059 1
9.5223913 -5.4424958 -1.5715234 1
8.5268211 -4.8734808 -1.5827849 3
7.7772055 -4.4450397 -1.6020914 4
7.1489615 -4.085969 -1.6195247 3
6.607892 -3.7767222 -1.6318038 4
6.1330962 -3.5053542 -1.6398535 4
5.7311301 -3.2756114 -1.648917 6
4.2756481 -2.4437346 -1.6941837 7
3.197988 -1.8278011 -1.7170064 10
3.9292049 -2.2822635 0.87806827 4
8.79667 -5.1095114 1.4231946 19
13.31837 -7.7359228 1.3372132 19
13.796418 -8.0135956 0.820804 32
13.837913 -8.0376978 0.54009777 28
13.823551 -9.4368601 0.46547505 31
6.5026646 -3.1701567 0.15861008 38
13.837098 -8.0372248 0.25640705 24
13.838096 -9.4467897 0.16961657 34
6.5077643 -3.1726429 0.030579474 0
10.497607 -6.0974941 -0.020128872 0
13.874751 -9.4718122 -0.12666783 32
6.5108299 -3.1741376 -0.097349443 50
10.053008 -5.8392506 -0.22485113 0
13.903751 -9.4916105 -0.42495376 35
6.4938908 -3.1658792 -0.22489342 0
9.4534721 -5.4910121 -0.40527079 0
13.859058 -9.4610996 -0.72091639 36
6.4821248 -3.1601431 -0.35206604 40
8.8414145 -5.1355009 -0.56001306 1
8.8605146 -6.0487671 -0.65053248 1
6.4862871 -3.1621723 -0.48017439 43
8.7694082 -5.0936766 -0.73495132 2
8.7574492 -5.9784079 -0.83078969 0
6.4884386 -3.1632214 -0.60805207 0
8.691433 -5.0483847 -0.9062438 5
8.7900915 -6.0006914 -1.0221823 1
6.4957275 -3.1667747 -0.73672169 62
8.662611 -5.0316439 -1.0805086 3
8.8886127 -5.1629162 -1.2909175 0
9.4773178 -5.5048628 -1.5703888 1
8.4925909 -4.9328885 -1.5827849 3
7.7561989 -4.5051579 -1.6042041 4
7.1372328 -4.1456337 -1.6233844 4
6.5982757 -3.8325827 -1.6359965 4
6.1152148 -3.5519986 -1.6416625 4
5.7148347 -3.3194394 -1.6508557 7
4.2584839 -2.4735239 -1.6941837 7
3.1882851 -1.851903 -1.7186964 9
3.0109155 -1.7771056 0.92289859 10
3.9199407 -2.3136313 0.8795861 5
8.8187799 -5.205029 1.4326161 26
13.236584 -7.8125095 1.3344452 16
13.78142 -8.1340837 0.82327008 51
13.829662 -8.1625576 0.5419867 32
13.826348 -9.5809622 0.46781021 36
6.5018678 -3.2261412 0.15913615 40
13.846093 -8.1722546 0.25762469 26
13.85071 -9.5978432 0.17058834 34
6.5069556 -3.2286656 0.030680843 3
10.423781 -6.1523347 -0.020069182 0
13.877328 -9.6162882 -0.12730116 31
6.4992604 -3.2248476 -0.097510703 8
10.053328 -5.9336848 -0.22577931 0
13.899596 -9.6317186 -0.4268716 31
6.5038629 -3.2271311 -0.22601354 25
9.4252348 -5.5629716 -0.40571532 0
13.84851 -9.5963192 -0.72383505 48
6.4777994 -3.2141988 -0.35304129 45
8.8294239 -5.2113113 -0.56154436 1
9.051075 -6.2719383 -0.66772187 31
6.4819293 -3.216248 -0.48150232 36
8.7645559 -5.1730251 -0.73755348 2
8.8007202 -6.098455 -0.83891326 0
6.4876204 -3.2190719 -0.61006659 27
8.6696997 -5.1170392 -0.90768057 4
8.8658018 -6.1435537 -1.0359491 1
8.6341228 -5.0960402 -1.0813665 1
8.7703228 -5.1764288 -1.2789553 1
9.4386559 -5.5708928 -1.5703888 1
8.4783516 -5.0041013 -1.5866034 2
7.7245584 -4.5591965 -1.6042041 4
7.1114964 -4.1973548 -1.6241564 3
6.5713587 -3.8785539 -1.6359965 4
6.1003346 -3.6005456 -1.6443759 4
5.6915216 -3.3592556 -1.6508557 7
4.2411118 -2.5031934 -1.6941837 6
3.1877677 -1.8814875 -1.7254562 9
2.9984355 -1.7980824 0.92289859 12
3.9306383 -2.3570995 0.88565743 5
8.8026114 -5.2786932 1.4359413 22
13.089444 -7.8493929 1.3251038 15
13.792814 -8.2711859 0.8273803 51
13.830624 -8.2938585 0.54428041 30
13.844161 -9.7370586 0.47070137 34
13.843582 -8.30163 0.25865006 24
13.855345 -9.7449255 0.17147915 31
6.498539 -3.2812257 0.030748421 39
13.865924 -8.3150272 -0.026807547 29
13.881836 -9.7635565 -0.12796466 29
10.063105 -6.0345774 -0.22693954 0
13.900705 -9.7768288 -0.42899132 29
6.5025887 -3.2832704 -0.22676028 38
9.4170208 -5.6471376 -0.40704894 0
13.859631 -9.7479391 -0.72795558 37
8.8099527 -5.2830954 -0.5626381 1
13.899234 -9.775794 -1.0303931 30
6.4806943 -3.2722154 -0.48309582 5
8.7590208 -5.252553 -0.74015558 4
8.8525238 -6.2262745 -0.84797418 0
6.493453 -3.2786577 -0.61275262 39
8.6645136 -5.1958795 -0.91091329 2
8.9073744 -6.2648525 -1.0458918 2
6.4864016 -3.2750971 -0.74077857 0
8.6119776 -5.1643748 -1.0830823 1
8.8428898 -5.3028469 -1.2949049 0
9.4165115 -5.6468329 -1.5732254 2
8.4635305 -5.0753551 -1.5904219 2
7.709425 -4.623138 -1.6077251 4
7.0954843 -4.2549739 -1.6272441 4
6.5374122 -3.9203129 -1.6343194 4
6.0717077 -3.6410425 -1.6434715 4
5.6812439 -3.4068916 -1.6547332 7
4.2267766 -2.5346861 -1.6954849 6
3.1683362 -1.8999672 -1.7220763 9
2.9897475 -1.8199401 0.9239195 4
3.9316921 -2.3933272 0.88945204 5
8.8181648 -5.3678551 1.4442544 23
12.938382 -7.8759427 1.3150704 11
13.802488 -8.401947 0.83128494 33
13.833364 -8.420742 0.54657406 27
13.828105 -9.863492 0.47236931 35
6.5000405 -3.3362656 0.16018829 0
13.856546 -8.4348536 0.25993177 28
13.858791 -9.8853798 0.17232946 34
6.5086622 -3.3406906 0.030900475 54
13.865138 -8.4400845 -0.026913662 31
13.888416 -9.9065113 -0.12862816 31
6.5188074 -3.3458979 -0.098478287 0
10.183417 -6.1989207 -0.23057491 0
13.903921 -9.9175701 -0.43111104 34
6.498455 -3.3354516 -0.22738256 53
9.3964329 -5.7198625 -0.40778983 0
13.866251 -9.8907013 -0.73173267 36
6.4760966 -3.3239758 -0.35538188 0
8.7986021 -5.355947 -0.56416941 1
13.902354 -9.9164524 -1.0354773 38
6.4908071 -3.3315263 -0.48548606 11
8.7853327 -5.3478689 -0.74535978 3
13.921045 -9.9297848 -1.3397616 25
6.4999347 -3.3362112 -0.6154387 42
8.6638927 -5.2739453 -0.91450524 1
12.703619 -9.0614033 -1.4986653 5
6.514102 -3.3434827 -0.74645811 2
8.6081104 -5.2399893 -1.0869428 1
8.8176966 -5.3675699 -1.2964002 0
9.3687067 -5.7029848 -1.5715234 2
8.436429 -5.1354823 -1.5916948 2
7.6954107 -4.6844044 -1.6112462 3
7.0604029 -4.2978578 -1.6257002 4
6.5346537 -3.9778202 -1.6401892 5
6.0540824 -3.6852834 -1.6452804 4
5.665153 -3.4485319 -1.656672 6
4.2001801 -2.5567632 -1.6915812 6
3.161859 -1.924709 -1.7254562 8
3.0098643 -1.8611076 0.93412852 5
3.9282498 -2.4289784 0.8924877 5
8.8175402 -5.4522023 1.4503506 24
12.761066 -7.8906274 1.302615 9
13.794461 -8.5296116 0.83436757 35
13.835445 -8.5549545 0.54900271 29
13.836641 -10.016059 0.47503808 34
6.5120406 -3.4000719 0.16106507 19
13.851751 -8.5650368 0.26095715 25
13.854241 -10.028799 0.17313927 33
13.894336 -8.5913687 -0.027086101 26
13.886958 -10.052483 -0.12926149 34
6.5201082 -3.4042842 -0.098854572 22
10.122887 -6.2593455 -0.23018816 1
13.915322 -10.073014 -0.43363452 33
9.3936701 -5.808445 -0.4094198 0
13.88103 -10.048191 -0.73619658 36
6.5023155 -3.3949943 -0.3581126 24
8.8153505 -5.4508486 -0.56766945 1
13.907172 -10.067115 -1.0410457 38
6.4956946 -3.3915374 -0.48761073 43
8.7681437 -5.4216595 -0.74709451 2
13.93214 -10.085188 -1.3475728 29
8.6370287 -5.3405862 -0.91558278 1
12.698105 -9.1918955 -1.5055487 3
6.5047116 -3.3962452 -0.74808085 42
8.6051455 -5.3208709 -1.0912322 8
8.877903 -5.4895267 -1.3108544 0
9.3657112 -5.7911563 -1.5777642 2
8.410449 -5.2004838 -1.5936041 2
7.6457758 -4.7276587 -1.6077251 4
7.0435801 -4.3552995 -1.628788 4
6.5100517 -4.0253992 -1.6410277 3
6.0348358 -3.7315562 -1.6470894 4
5.6442413 -3.4900377 -1.6576414 6
4.1918802 -2.5919905 -1.6954849 7
3.1360109 -1.9391085 -1.7186964 10
2.9928663 -1.8810627 0.93310761 10
3.9269643 -2.4681578 0.89628226 5
8.814229 -5.5398793 1.4564468 25
12.625281 -7.9351845 1.2946576 5
13.795827 -8.6708908 0.83827227 33
13.823133 -8.6880522 0.55102652 27
13.827282 -10.164582 0.47726205 35
6.515192 -3.4627306 0.1617665 40
13.846159 -8.7025251 0.26204661 25
13.851254 -10.182205 0.17403008 35
6.5096354 -3.4597774 0.031137001 0
13.888557 -8.7291737 -0.027198849 27
13.87413 -10.199022 -0.12983452 34
6.5302968 -3.4707587 -0.099392116 39
10.2054 -6.4142513 -0.23312739 2
13.924877 -10.236326 -0.43625894 31
6.5241938 -3.467515 -0.22999616 0
9.4354477 -5.930325 -0.41312429 0
13.864959 -10.19228 -0.73928696 37
6.4984221 -3.4538176 -0.35928291 42
8.7954454 -5.5280738 -0.56898201 0
13.897343 -10.216085 -1.0458878 42
6.4953294 -3.4521739 -0.48946983 31
8.7011433 -5.4688034 -0.74478155 5
13.934951 -10.243731 -1.3550714 30
6.4902401 -3.4494691 -0.61913198 0
8.6414967 -5.4313145 -0.92025232 1
12.691338 -9.3295383 -1.5128145 4
6.51478 -3.4625115 -0.75213766 54
8.5962133 -5.402853 -1.0950928 12
8.8844671 -5.5840249 -1.3178324 0
9.333065 -5.8659759 -1.5794661 2
8.3888187 -5.2725024 -1.5967861 3
7.6375842 -4.8003397 -1.6133589 4
6.9981728 -4.3984599 -1.6257002 4
6.4803686 -4.0730119 -1.6410277 3
6.0172162 -3.7819135 -1.6498029 4
5.6217918 -3.5333834 -1.6586107 6
4.1727672 -2.6226487 -1.6954849 7
3.1217122 -1.9620444 -1.7186964 10
2.9959612 -1.9123154 0.93821216 4
3.9427421 -2.5166435 0.90387148 6
8.8220873 -5.6311188 1.4642056 26
12.532627 -7.9995475 1.2908518 4
13.8023 -8.8099775 0.84238243 32
13.839647 -8.8338156 0.55412978 29
13.832905 -10.318241 0.47993079 35
6.5154853 -3.521441 0.16238025 63
13.852493 -8.8420153 0.26332831 25
13.850368 -10.331267 0.17492087 36
6.5275497 -3.5279615 0.031339739 1
13.874482 -8.8560505 -0.0272917 27
13.882746 -10.355419 -0.1305885 32
6.5059071 -3.5162642 -0.099392116 21
13.81797 -8.8199787 -0.31705016 41
13.907567 -10.373934 -0.4379749 32
6.5209303 -3.5243838 -0.2307429 24
9.4645739 -6.0412164 -0.41623604 0
13.886363 -10.358117 -0.74426591 36
6.4987545 -3.5123985 -0.36064824 41
8.8004055 -5.6172791 -0.5718258 0
13.902493 -10.370149 -1.0516982 37
6.4956479 -3.5107195 -0.4913289 29
8.8746138 -5.6646457 -0.76299632 4
13.930225 -10.390835 -1.3616328 28
6.4975586 -3.5117519 -0.62215376 19
8.6335917 -5.5108018 -0.92348504 1
12.708879 -9.4798079 -1.5227572 4
6.4939489 -3.5098014 -0.75254339 0
8.5951605 -5.4862719 -1.0998111 23
8.9289026 -5.6992984 -1.3302931 0
9.3085737 -5.9416418 -1.5823028 2
8.355135 -5.3330636 -1.5974226 3
7.5939293 -4.847188 -1.6112462 4
7.0003791 -4.4683261 -1.6334196 4
6.4451828 -4.113946 -1.6393507 3
5.9972363 -3.8280225 -1.6516119 4
5.606801 -3.5788085 -1.6615189 6
4.1671095 -2.6598568 -1.7006898 7
3.1171067 -1.9896421 -1.7237662 9
3.2843614 -2.1288168 1.0331564 6
3.9217808 -2.5419717 0.90311253 5
8.8191252 -5.7162724 1.4703019 25
13.817419 -8.9560041 1.4295897 29
13.784037 -8.9343672 0.84505409 31
13.838021 -8.9693584 0.55655843 29
13.84024 -10.474886 0.48271075 35
13.844124 -8.9733133 0.26435369 26
13.84807 -10.480812 0.17581168 32
6.5202894 -3.5830767 0.031424209 36
13.892873 -9.0049114 -0.027450874 27
13.88666 -10.510018 -0.13131231 33
13.826532 -8.9619112 -0.31867447 41
13.924082 -10.538342 -0.4408012 33
6.5241985 -3.5852249 -0.23173855 37
9.5764637 -6.2071538 -0.42305231 0
13.867884 -10.495809 -0.74718457 38
8.8246536 -5.7198553 -0.57598215 0
13.9189 -10.53442 -1.0584772 37
6.5129557 -3.5790467 -0.4945159 21
8.8147631 -5.7134447 -0.76126158 1
13.924118 -10.538369 -1.3681941 26
6.4973369 -3.5704637 -0.62450409 37
8.6550817 -5.6099443 -0.92995054 0
12.658263 -9.5803156 -1.5246692 3
6.5041633 -3.5742152 -0.7566002 0
8.5966959 -5.5721002 -1.1049584 23
8.9555044 -5.8046689 -1.3402615 1
9.2768335 -6.0129437 -1.5840049 3
8.3276405 -5.3977075 -1.5993319 3
7.5764246 -4.9107938 -1.6147673 4
6.9690132 -4.5170889 -1.6334196 4
6.4294324 -4.1673503 -1.6427048 3
5.9670954 -3.8676782 -1.6507074 4
5.5849357 -3.6199751 -1.6624882 6
4.1420903 -2.6847692 -1.6980873 7
3.1061826 -2.0133271 -1.7254562 9
3.227421 -2.1240537 1.0198846 7
3.9465871 -2.5973566 0.91297847 1
8.8187132 -5.8038359 1.4769523 24
13.831119 -9.1026363 1.4375473 24
13.791402 -9.076498 0.84936976 29
13.838516 -9.1075048 0.55912197 27
13.820686 -10.612653 0.48460111 37
6.5180516 -3.6413226 0.16369542 0
13.844619 -9.1115208 0.26557133 26
13.853872 -10.638136 0.17682396 33
6.5370197 -3.6519194 0.031626947 51
13.899836 -9.1478615 -0.027590152 26
13.879569 -10.657868 -0.13194565 30
6.5190291 -3.6418688 -0.10035969 0
13.830443 -9.1021919 -0.32022142 37
13.926289 -10.693743 -0.44322374 34
6.5199518 -3.6423843 -0.23248529 57
13.873619 -9.1306067 -0.61568558 37
13.873511 -10.653216 -0.75147676 38
6.4804716 -3.6203287 -0.36240369 0
8.8312149 -5.8120632 -0.57904476 1
13.908351 -10.67997 -1.0633192 35
6.5087161 -3.6361074 -0.4961094 33
8.8379803 -5.8165154 -0.76675493 1
13.951419 -10.71304 -1.3781923 27
6.514008 -3.6390638 -0.62853312 36
8.6356735 -5.6833725 -0.93210566 0
12.597387 -9.6733046 -1.525434 3
6.5207405 -3.6428249 -0.76146841 2
8.6007729 -5.6604033 -1.1105347 34
9.2031908 -6.0568705 -1.3836243 1
9.2445526 -6.0840921 -1.5857068 2
8.2996511 -5.4622269 -1.6012411 3
7.5386672 -4.9614024 -1.614063 4
6.9307508 -4.5613165 -1.6318758 4
6.419785 -4.2250357 -1.6477361 3
5.9529676 -3.9178104 -1.6543254 4
5.5562859 -3.6567433 -1.6615189 6
4.1295657 -2.7177799 -1.7006898 7
3.0981081 -2.0389495 -1.7288362 8
3.1867883 -2.1293437 1.0117173 8
5.6851811 -3.7987161 1.3212764 19
8.8240938 -5.8960705 1.4847112 22
13.823564 -9.2366085 1.443429 30
13.794132 -9.2169437 0.85347998 31
13.824458 -9.2372065 0.56114578 32
13.837732 -10.780143 0.48782587 35
6.5237689 -3.7045109 0.16448453 16
13.857158 -9.2590551 0.26704529 23
13.854994 -10.79359 0.17779574 32
6.5287561 -3.7073429 0.031711422 3
13.898828 -9.2868986 -0.027716164 27
13.883709 -10.81596 -0.13269962 30
12.402584 -7.0427861 -0.19168863 0
13.826418 -9.2385159 -0.3216137 36
13.923845 -10.847227 -0.44554532 32
13.866042 -9.2649918 -0.61820465 36
13.880767 -10.813668 -0.75594068 38
6.5036774 -3.6931019 -0.36513442 16
8.8535233 -5.9157338 -0.58320111 0
13.912195 -10.838151 -1.0693718 38
6.4935842 -3.6873705 -0.49690613 2
8.7938423 -5.8758564 -0.76646578 0
13.945496 -10.864094 -1.3850662 24
8.7275114 -4.9559026 -0.84543079 1
8.6520987 -5.781147 -0.93821198 0
12.551536 -9.7781439 -1.5281109 3
8.7824669 -4.9871087 -1.0296254 1
8.6040344 -5.7490311 -1.1161109 44
9.1936827 -6.1430211 -1.3886086 1
9.2051458 -6.150681 -1.5862741 2
8.2580328 -5.5178404 -1.6006048 3
7.513669 -5.0204725 -1.6161758 4
6.9215827 -4.6248531 -1.6372793 3
6.3836293 -4.2654042 -1.6460589 2
5.9125128 -3.9506142 -1.6507074 4
5.5403028 -3.7019114 -1.664427 7
4.113637 -2.7486439 -1.701991 7
3.0777698 -2.0564997 -1.7254562 9
3.1558418 -2.1406841 1.0066128 6
4.8264823 -3.2739201 1.1269934 5
8.818779 -5.9819922 1.4908074 21
13.827998 -9.3798676 1.4506946 30
13.802179 -9.3623533 0.85800117 26
13.835727 -9.3851099 0.56424904 32
13.828015 -10.928546 0.49016103 32
13.809445 -7.9696751 0.34957346 36
13.851758 -9.3959837 0.26819885 25
13.848343 -10.944611 0.17868653 34
10.576874 -6.1041002 0.051579632 0
13.883308 -9.4173851 -0.027815647 26
13.88318 -10.972143 -0.13342345 33
10.111818 -5.8357091 -0.15690945 0
13.841016 -9.3886976 -0.32347006 40
13.9168 -10.998713 -0.44776598 30
9.7857971 -5.6475563 -0.35171491 0
13.863873 -9.4042025 -0.62102002 37
13.87705 -10.967299 -0.75988948 36
8.8913355 -6.031209 -0.58845121 0
13.911373 -10.994424 -1.0751823 40
8.7837439 -5.0692534 -0.67484689 1
8.7856226 -5.9595013 -0.76935703 0
13.94753 -11.023 -1.3928772 23
8.7237711 -5.0346422 -0.84845257 1
8.6708717 -5.8816633 -0.94467741 0
12.486091 -9.8679972 -1.5284933 3
8.7577763 -5.0542674 -1.0308424 1
8.5867271 -5.8245859 -1.1191136 3
9.203124 -6.2427025 -1.3965833 1
9.171813 -6.2214632 -1.5879762 1
8.2356501 -5.5864415 -1.6037868 3
7.4849539 -5.0772262 -1.6175841 4
6.8793826 -4.6664524 -1.6349635 4
6.3472223 -4.3054752 -1.6443819 3
5.9041357 -4.0049186 -1.6561344 4
5.5207467 -3.7448566 -1.6663657 6
4.0880871 -2.7730486 -1.6993886 6
3.0693383 -2.0820067 -1.7288362 8
3.1192715 -2.1462219 0.99946648 3
5.5164642 -3.7956157 1.2939553 17
8.8115454 -6.0628037 1.4963495 27
13.827861 -9.5142908 1.4572682 25
13.795729 -9.4921827 0.86149484 32
13.832459 -9.5174551 0.56667763 27
13.839486 -11.087519 0.49316338 34
13.80114 -8.087368 0.35071328 48
13.851739 -9.5307207 0.26941648 24
13.862856 -11.106241 0.17982028 40
10.494744 -6.1498442 0.051376898 1
13.889747 -9.5568714 -0.027954925 27
13.891267 -11.129003 -0.13420758 30
10.128106 -5.9349966 -0.15776953 0
13.837747 -9.5210924 -0.32486233 48
13.924686 -11.155777 -0.4503904 28
9.7308798 -5.7022247 -0.35109261 0
13.880231 -9.5503244 -0.62457633 40
13.881978 -11.121561 -0.76418167 39
