# .PCD v0.7 - Point Cloud Data file format
VERSION 0.7
FIELDS x y z intensity
SIZE 4 4 4 4
TYPE F F F F
COUNT 1 1 1 1
WIDTH 1384
HEIGHT 1
VIEWPOINT 0 0 0 1 0 0 0
POINTS 1384
DATA ascii
0.030895934 1.9032809 -0.37438965 0
0.07789091 4.7983098 -1.0288917 1
0.051921502 3.198518 -0.74259222 1
0.051902141 3.1973252 -0.79876989 0
0.030880265 1.9023156 -0.65451181 2
0.028833762 1.7762449 -0.82808381 33
0.053861003 2.31989 0.61254328 2
0.073381238 3.1606612 0.61092907 2
0.24476488 10.542462 1.4752897 18
0.29348737 12.641027 1.0977949 15
0.54371339 23.418711 1.2051063 5
0.93792486 40.398106 1.3638042 15
1.6973472 17.627625 0.49249616 44
-2.3497512 47.702682 1.0471421 26
1.0851047 46.737404 0.74909824 0
1.6979163 17.633535 0.17933439 48
-0.59687215 12.1172 0.051241737 47
0.28085023 12.096724 -0.020062551 3
1.6975716 17.629955 -0.13354407 43
-0.25384191 5.153286 -0.069343336 34
0.11844575 5.1016707 -0.098696269 25
0.49057397 5.0948057 -0.12920208 23
-0.24961124 5.0673985 -0.15793566 16
0.11680933 5.0311875 -0.18655792 0
0.64655411 6.7147212 -0.28980872 0
-0.30073729 6.1053171 -0.29842716 0
0.11652923 5.0191226 -0.27497515 0
-0.24682476 5.0108299 -0.33383808 0
0.11547262 4.9736128 -0.36053672 0
0.47891116 4.9736829 -0.39149284 0
-0.24610542 4.9962263 -0.42137235 0
0.11429056 4.9226995 -0.44396248 0
0.26217774 2.7228198 -0.26271576 2
-0.13802469 2.8020616 -0.28600705 2
0.057138536 2.4610591 -0.26551601 1
0.051310614 2.2100401 -0.27762204 2
0.048249904 2.0782099 -0.29785192 8
0.046380214 1.997679 -0.32203022 17
0.046610441 2.0075953 -0.35915017 23
0.047553103 2.0481975 -0.40295133 0
0.11138726 4.7976494 -1.0288917 1
0.073888168 3.1824961 -0.73897421 0
0.073952012 3.1852458 -0.79586172 2
0.043896694 1.8907094 -0.65060818 3
0.041485939 1.7868738 -0.83315367 32
0.06947165 2.3001287 0.60743874 3
0.095681973 3.1679232 0.6124469 2
0.20019995 6.6283965 0.9277367 29
0.38293359 12.678503 1.1012547 13
0.70743346 23.422331 1.2055173 4
1.2208972 40.422543 1.3648835 16
1.8224237 17.635231 0.49305215 42
-2.0173421 47.73391 1.0474929 28
1.1918535 39.460938 0.63259035 1
1.8226237 17.637165 0.17949635 50
-0.51209474 12.117075 0.051224843 40
0.36420697 12.058485 -0.020002861 0
1.8243099 17.653484 -0.13381551 45
-0.21802787 5.1589284 -0.069397092 37
0.15405895 5.1007195 -0.098696269 26
0.52695227 5.0992117 -0.12940396 21
-0.21405922 5.0650229 -0.15781121 10
0.1530166 5.0662084 -0.18789153 0
-0.25844422 6.1152515 -0.29881728 0
0.15096331 4.9982262 -0.27388138 0
-0.21116245 4.99648 -0.33277574 0
0.15031232 4.9766731 -0.36082584 0
0.51198244 4.9543519 -0.39024308 0
-0.20869465 4.9380879 -0.41633603 0
0.14949632 4.949656 -0.44647682 0
0.27954286 2.7050805 -0.26118612 2
-0.11661094 2.7592227 -0.28154454 2
0.073958255 2.4486752 -0.26422918 1
0.066019319 2.1858258 -0.2746315 2
0.062398639 2.0659492 -0.29614991 9
0.06056384 2.0052011 -0.32330307 18
0.060505971 2.0032849 -0.35844594 26
0.060192104 1.9928933 -0.3921442 0
0.14452395 4.7850266 -1.026376 1
0.096221834 3.1857975 -0.73987871 0
0.096070081 3.1807728 -0.79489237 10
0.057666112 1.9092605 -0.65711427 4
0.053740654 1.7792929 -0.82977378 36
0.084952779 2.2841282 0.60335517 2
0.1215909 3.2692184 0.63217878 5
0.25442028 6.8406062 0.95766366 2
0.47128808 12.671537 1.1009088 13
0.8712306 23.424805 1.2059283 2
1.4558183 39.142632 1.321978 52
1.9459344 17.626055 0.49316338 43
-1.6858798 47.798782 1.0486327 19
1.4563117 39.155899 0.62784803 54
1.9470258 17.635939 0.17961782 45
-0.42777115 12.12835 0.051258631 77
0.44971952 12.091623 -0.020062551 1
1.9479481 17.644293 -0.13384567 44
-0.18242942 5.1723166 -0.069558352 46
0.18966465 5.0995197 -0.098696269 27
0.56648749 5.1311798 -0.13031241 18
-0.17841165 5.058403 -0.1575623 7
0.18659861 5.0170827 -0.18611337 0
0.55562103 5.032752 -0.21752822 0
-0.21560462 6.1129136 -0.29862222 0
0.25176328 6.7691674 -0.37100863 0
-0.17486848 4.9579458 -0.33011991 0
0.18549696 4.9874625 -0.3616932 0
0.54962075 4.9784026 -0.39243019 0
-0.17393424 4.9314575 -0.41566452 0
0.18404752 4.9484916 -0.44647682 0
0.29448861 2.6674445 -0.25774443 2
-0.096222959 2.7281544 -0.27829906 1
0.090903476 2.4441247 -0.26380023 1
0.081720069 2.1972101 -0.27612677 2
0.076084226 2.0456791 -0.29331321 9
0.074561201 2.0047293 -0.32330307 17
0.074343607 1.998879 -0.35774174 30
0.17723586 4.7653461 -0.937904 0
0.17879815 4.8073516 -1.0314074 1
0.11730184 3.1538985 -0.73264271 0
0.070431426 1.893692 -0.65190941 6
0.066565298 1.7897432 -0.83484364 33
0.10004319 2.2641606 0.59825063 2
0.30702546 6.9485493 1.344044 12
0.46637017 10.554811 1.4780607 17
0.55991578 12.67192 1.1012547 11
1.0354493 23.434114 1.2067504 1
1.420579 32.150307 1.0861322 10
2.0708051 17.627924 0.49360815 46
-1.3533839 47.853359 1.0495971 15
1.4169683 32.068588 0.5143522 25
2.0719662 17.637808 0.1797798 46
-0.3428627 12.123044 0.051224843 42
0.53394669 12.084192 -0.020055918 0
2.0720134 17.63821 -0.13390599 45
-0.14608924 5.1654677 -0.069450848 45
0.22526109 5.0980711 -0.098696269 25
0.60276234 5.1310716 -0.13041335 47
-0.14309298 5.059525 -0.1575623 2
0.22338408 5.0555911 -0.18759517 0
0.58654612 4.9930291 -0.21598305 0
-0.1420884 5.0240049 -0.24537344 0
0.303951 6.8789678 -0.37713379 0
-0.13979991 4.9430876 -0.32905757 0
-0.13938925 4.9285674 -0.41532877 0
0.21823801 4.939126 -0.44575843 0
0.31867808 2.7127774 -0.26233336 1
-0.075937018 2.6850042 -0.27383652 1
0.10726212 2.4275382 -0.26208448 1
0.0960062 2.1727962 -0.27313623 2
0.090538561 2.0490534 -0.29388055 9
0.088554911 2.0041599 -0.32330307 17
0.087775052 1.9865103 -0.35562909 22
0.21188565 4.7953606 -0.94407946 0
0.083316132 1.8855966 -0.64930695 7
0.078418188 1.7747473 -0.82808381 34
0.11644053 2.2749946 0.60131335 2
0.35532689 6.9423146 1.3432851 21
0.53963977 10.543387 1.4769523 19
0.64897925 12.679643 1.1022927 10
1.1977986 23.40238 1.2055173 1
1.6388638 32.019833 1.0820844 46
2.1953022 17.624939 0.49394175 42
-1.0201229 47.901627 1.0504739 8
1.6391774 32.025963 0.51383948 47
2.1970272 17.638788 0.17994176 46
-0.25804919 12.117144 0.051191054 45
0.62115914 12.136098 -0.020148769 4
2.1975718 17.64316 -0.13405678 44
-0.11002391 5.1663618 -0.069450848 56
0.26084659 5.0963745 -0.098696269 41
0.63955748 5.1346745 -0.13061523 13
-0.10751197 5.0484095 -0.15718894 0
0.25949037 5.0698771 -0.1881879 0
0.62781078 5.0403662 -0.21821499 0
-0.10590493 4.9729481 -0.24283779 0
0.34625107 6.7649922 -0.37100863 0
-0.10630696 4.9918261 -0.33224458 0
0.6141476 4.9306717 -0.38930574 0
-0.10497796 4.9294205 -0.41532877 0
0.25230676 4.9295254 -0.44504005 0
0.33465609 2.6867795 -0.26003888 2
-0.057105575 2.6814904 -0.27343085 1
0.12623963 2.4664478 -0.2663739 1
0.11117272 2.1720731 -0.27313623 2
0.10484134 2.0483716 -0.29388055 9
0.10274619 2.007437 -0.32393947 17
0.10224507 1.9976462 -0.35774174 18
0.24495691 4.7859249 -0.94253558 0
0.095511235 1.8660817 -0.64280087 7
0.091547526 1.7886394 -0.83484364 35
0.13726236 2.3590682 0.62377328 1
0.40469682 6.9553471 1.3463207 26
0.61415315 10.555181 1.4791691 23
0.73748326 12.674802 1.1022927 8
1.3648602 23.457253 1.2088054 0
1.484549 25.514294 0.86256433 3
2.3209028 17.629007 0.49449775 46
-0.62873709 43.928944 0.96323401 0
1.4754463 25.357851 0.40700856 5
2.321681 17.634918 0.18006323 50
-0.17333482 12.110651 0.051157266 51
0.7058692 12.131465 -0.020148769 10
2.3238223 17.651182 -0.13423774 46
-0.073895991 5.1630049 -0.069397092 57
0.29665163 5.0984216 -0.098773614 39
-0.072207592 5.0450392 -0.15706447 0
0.29325283 5.0400081 -0.18715064 0
0.66507018 5.0517092 -0.21890174 41
-0.071127452 4.9695716 -0.24264275 0
-0.071397744 4.9884562 -0.33197898 0
0.65584207 4.9816151 -0.39367998 0
-0.070846774 4.9499607 -0.41700754 0
0.29342574 5.0429797 -0.45545664 0
0.3544445 2.6922731 -0.26080373 1
-0.037928257 2.649992 -0.27018538 1
0.1443795 2.4813871 -0.26808968 1
0.12679489 2.1791682 -0.27413306 2
0.119599 2.0554955 -0.29501522 9
0.11652873 2.0027282 -0.32330307 17
0.11618866 1.9968836 -0.35774174 16
0.11007447 1.8918016 -0.65190941 5
0.10403225 1.7879567 -0.83484364 34
0.25587833 3.9249415 1.0382609 2
0.45222208 6.9366765 1.3432851 33
0.68834203 10.558543 1.4802775 11
0.8254329 12.661392 1.1016006 7
1.5280682 23.43918 1.2083944 0
1.6179026 24.81716 0.83935755 33
2.4455674 17.624254 0.49483132 44
-0.32224509 43.960251 0.96384776 1
1.6188761 24.832092 0.39874151 41
2.4458377 17.626204 0.18014421 47
-0.088811636 12.115565 0.05117416 43
0.79028469 12.122251 -0.020142136 32
2.4486423 17.646414 -0.13432822 38
-0.037878938 5.1673946 -0.069450848 45
0.33223778 5.0962267 -0.098773614 42
2.4473825 17.637337 -0.44948196 8
-0.037043434 5.0534163 -0.15731339 0
0.33077163 5.0737371 -0.18848425 0
0.69812405 5.0311093 -0.21821499 27
-0.037075859 5.0578399 -0.24693385 0
0.45028502 6.9069643 -0.37910259 0
0.88626391 6.38696 -0.39099741 0
-0.036482245 4.9768596 -0.33118224 0
0.69444066 5.0045643 -0.39586708 0
-0.036287807 4.9503345 -0.41700754 0
0.32007241 4.9096203 -0.44360328 0
0.37377855 2.6936767 -0.26118612 2
-0.019339392 2.6382544 -0.26896834 1
0.15859455 2.4326966 -0.26294234 1
0.14200513 2.17823 -0.27413306 2
0.1324005 2.0309036 -0.29161119 10
0.13102126 2.0097473 -0.3245759 17
0.13038275 1.999953 -0.35844594 15
0.13405737 2.0563185 -0.51474124 1
0.12377107 1.898536 -0.65451181 4
0.11698361 1.7944225 -0.83822358 35
0.28327313 3.9230595 1.0382609 1
0.39711607 5.4996743 1.065521 12
0.65590543 9.0836573 1.2741139 5
0.91524023 12.675194 1.1033306 7
1.6919538 23.431927 1.2085999 0
1.791694 24.813234 0.83962739 52
7.8637943 53.904354 1.5149623 30
-0.018784225 53.843056 1.1805009 55
1.7933482 24.836142 0.39899784 48
-0.004228266 12.11989 0.051191054 34
0.8760463 12.132396 -0.020168666 13
1.6456139 11.280273 -0.085953169 3
-0.0018000064 5.1595335 -0.069343336 45
0.36723173 5.0858049 -0.098618917 38
1.6387869 11.233477 -0.2865662 7
-0.0017700065 5.0735421 -0.15793566 0
0.36388159 5.0394092 -0.18729882 0
0.73726875 5.0537939 -0.2194168 34
-0.0017492437 5.0140276 -0.24478829 0
0.49561685 6.8638153 -0.37691504 0
0.93083131 6.3806171 -0.39099741 0
-0.001741893 4.9929576 -0.33224458 0
0.35858187 4.966013 -0.36082584 0
0.72245395 4.9522424 -0.39211774 0
-0.0017131638 4.9106083 -0.41365001 0
0.35720909 4.947001 -0.4471952 0
0.38970077 2.6713018 -0.25927407 1
-0.00090932607 2.6064899 -0.26572287 1
0.17528756 2.4275637 -0.2625134 1
0.1592093 2.204895 -0.27762204 2
0.14572002 2.0180817 -0.28990918 9
0.14504863 2.0087836 -0.3245759 18
0.14490892 2.0068488 -0.35985437 13
0.15511759 2.1482289 -0.53800642 0
0.13538776 1.87499 -0.64670455 2
0.12820256 1.7754817 -0.82977378 34
0.31034866 3.9171307 1.03724 1
0.54995966 6.941431 1.3455619 18
0.5225051 6.5949073 0.92551988 0
1.004651 12.680413 1.1043684 5
1.96624 24.81731 1.2807337 49
1.9677198 24.835987 0.84084171 47
1.678951 10.971993 0.30868578 9
0.34764925 53.833942 1.1803255 57
1.9670081 24.827005 0.39906192 43
1.672254 10.928228 0.11191697 8
0.078292131 12.123639 0.051207948 32
1.9694693 24.85807 -0.041345432 30
1.6589816 10.841493 -0.082695991 10
0.033344414 5.1634259 -0.069397092 46
0.40367573 5.0950775 -0.098850965 35
1.6512421 10.790915 -0.27556384 10
0.03273746 5.0694385 -0.15781121 0
0.39810708 5.0247917 -0.18685427 0
0.77071929 5.0366731 -0.21890174 51
0.032275759 4.9979429 -0.24400809 0
0.53500575 6.752687 -0.37100863 0
0.032165572 4.9808807 -0.33144781 0
0.76364446 4.9904385 -0.39555463 0
0.031917024 4.9423928 -0.41633603 0
0.39079276 4.9324727 -0.44611764 0
0.41315854 2.7000029 -0.26233336 2
0.016883258 2.6143944 -0.26653424 1
0.19097434 2.4104226 -0.26079765 1
0.17334452 2.1879041 -0.27562833 2
0.16261983 2.0525401 -0.29501522 10
0.15938084 2.0116587 -0.32521233 18
0.15953772 2.0136387 -0.3612628 13
0.22349954 2.8209462 -0.55656689 0
0.16679582 2.1052485 -0.49023747 0
0.1584639 2.0000854 -0.50116992 0
0.15534532 1.9607234 -0.67663252 2
0.14002186 1.7673151 -0.82639384 34
0.34034657 3.9456944 1.0454072 3
0.59908122 6.9452486 1.3470796 17
0.91067427 10.557598 1.4824944 18
1.0938367 12.68103 1.1050605 4
1.5819283 18.339558 0.94698668 3
1.5738426 18.245821 0.61808342 5
1.687843 10.537556 0.29678759 11
0.72363079 53.842197 1.1805886 63
1.565944 18.154249 0.29197466 5
1.6776547 10.473948 0.10738198 20
0.16308977 12.134796 0.051258631 32
1.5520488 17.99316 -0.029944599 6
1.6770605 10.470239 -0.079951525 31
0.06933707 5.1590681 -0.069343336 41
0.44061074 5.1080737 -0.099160358 28
1.6734118 10.447459 -0.26708496 37
0.068181463 5.0730844 -0.15793566 0
0.43558139 5.0497675 -0.18789153 0
0.81028718 5.0587921 -0.22010355 28
0.067542747 5.0255599 -0.24537344 0
0.58213496 6.7487874 -0.37100863 0
0.80449581 5.0226355 -0.30844006 0
0.066883981 4.9765439 -0.33118224 0
0.95740163 5.9772582 -0.47429064 0
0.066473939 4.9460349 -0.41667178 0
0.42110971 4.8819947 -0.4418073 0
0.43199787 2.697053 -0.26233336 2
0.034974184 2.6022758 -0.26531717 1
0.2050633 2.3773329 -0.25736609 1
0.18725033 2.1708243 -0.27363464 2
0.17490348 2.0276854 -0.29161119 10
0.17274213 2.0026283 -0.32393947 19
0.17122287 1.9850152 -0.35633329 12
0.23745388 2.7528424 -0.54344398 0
0.17242315 1.9989303 -0.50116992 0
0.16577928 1.9219067 -0.66362035 1
0.15329123 1.7771308 -0.83146369 34
0.36824346 3.947073 1.0464281 0
0.64572918 6.9213452 1.3432851 26
0.62446904 6.6934652 0.94048333 2
1.1845608 12.696893 1.1071364 3
1.6435003 17.616106 0.91020054 38
1.6458513 17.641304 0.59797984 32
1.7475086 10.4427 0.29445243 42
1.0443 51.133045 1.1213181 5
1.6462054 17.645102 0.28396392 37
1.7467742 10.438312 0.10713904 45
0.24772027 12.129362 0.051241737 25
1.6452997 17.635393 -0.029367594 43
1.7481345 10.44644 -0.079861045 41
0.10535218 5.1584582 -0.069343336 36
0.47700381 5.1128368 -0.099315055 52
1.7469674 10.439466 -0.2671859 43
0.10318814 5.0524983 -0.15731339 0
0.47119585 5.0505834 -0.18803971 0
0.10270742 5.0289607 -0.2455685 0
0.83888155 5.012959 -0.30819795 47
0.10154339 4.9719653 -0.33091664 0
0.4558329 4.8859134 -0.35562161 0
0.8358801 4.9950228 -0.39680442 0
0.10100187 4.9454503 -0.41667178 0
0.46184313 4.950335 -0.44827279 0
0.45213053 2.7018256 -0.26309818 2
0.052977983 2.5940111 -0.2645058 1
0.22571875 2.4194005 -0.26208448 1
0.20166352 2.1615608 -0.27263778 2
0.18831941 2.0185299 -0.29047653 10
0.18561828 1.9895775 -0.32203022 19
0.18580812 1.9916124 -0.35774174 10
0.25848931 2.7706566 -0.54730362 0
0.24850498 2.6636379 -0.5735631 0
0.17778714 1.9056381 -0.6584155 1
0.16535734 1.7724075 -0.82977378 37
0.61820471 6.1609693 1.6344697 14
0.69913054 6.9674687 1.353151 25
0.61541551 6.1331725 0.86234069 2
1.2723764 12.680383 1.1064444 1
1.7688358 17.62805 0.91143358 38
1.7693688 17.633362 0.59811479 40
1.8217441 10.438124 0.29467484 40
1.3988371 51.036564 1.1193892 8
1.7713468 17.653074 0.28428435 37
1.8216673 10.437684 0.10726051 43
0.33261165 12.135334 0.051275529 35
1.7699744 17.639397 -0.029394124 38
1.823772 10.449742 -0.079981685 41
0.14147173 5.1615953 -0.069397092 33
0.51428336 5.125299 -0.099624448 61
1.8218679 10.438833 -0.26748869 42
0.13845843 5.0516553 -0.15731339 0
0.5064438 5.0471706 -0.18803971 0
0.94542563 5.4170446 -0.23624219 0
0.13770394 5.024127 -0.24537344 0
0.87729013 5.0266461 -0.30940846 13
0.13614215 4.9671454 -0.33065107 0
0.50068617 4.9897909 -0.36342794 0
0.88032991 5.0440631 -0.40117863 0
0.1355249 4.9446249 -0.41667178 0
0.48923194 4.875639 -0.4418073 0
0.47166619 2.7025256 -0.26348057 2
0.070977136 2.5896003 -0.26410013 1
0.24022137 2.3940234 -0.25951082 1
0.21674903 2.1601002 -0.27263778 2
0.20359269 2.0289855 -0.29217854 10
0.20068635 2.0000212 -0.32393947 20
0.20010068 1.9941844 -0.35844594 9
0.27939311 2.784405 -0.55039138 0
0.27451375 2.7357781 -0.58949542 0
0.19486296 1.9419858 -0.67142767 1
0.17917483 1.7856393 -0.83653361 32
0.66367894 6.1795764 1.6405951 17
0.74691647 6.9546084 1.3516332 24
0.63622081 5.9239111 0.83352208 3
1.5187451 14.141176 1.234803 18
1.8918587 17.615273 0.91143358 45
1.8958439 17.652378 0.59919417 40
1.8960009 10.433019 0.29489723 38
1.3524477 39.31929 0.86257935 4
1.8953986 17.648232 0.28441253 31
1.898067 10.444388 0.10746296 43
0.41704851 12.124721 0.051241737 41
1.8952122 17.646496 -0.029427284 38
1.8995409 10.452497 -0.080102317 40
0.17764024 5.1644793 -0.069450848 39
0.550906 5.1295366 -0.099779144 117
1.89613 10.433729 -0.26769057 41
0.17454661 5.0745392 -0.15806013 0
0.54550862 5.0792813 -0.18937333 1
1.8949862 10.427435 -0.45531559 50
0.17167661 4.9911003 -0.24381304 0
0.73443222 6.8383665 -0.37669629 0
0.91450292 5.0321841 -0.31013477 29
0.17067859 4.9620852 -0.33038548 0
0.90482706 4.9789414 -0.39649197 0
0.17086343 4.9674592 -0.41868633 0
0.53091556 4.9434042 -0.44827279 0
0.49052176 2.6991668 -0.26348057 2
0.089327678 2.5969956 -0.2649115 1
0.25820285 2.4041505 -0.26079765 1
0.23140015 2.1545882 -0.27213937 2
0.21775261 2.0275147 -0.29217854 10
0.21506582 2.0024977 -0.3245759 19
0.21485868 2.0005691 -0.35985437 8
0.49412993 4.6008897 -0.91011423 0
0.28650621 2.667686 -0.57524019 0
0.28792405 2.6808877 -0.62591207 0
0.29215607 2.7202923 -0.68341357 0
0.21043527 1.9593823 -0.67793375 1
0.19163647 1.784345 -0.83653361 33
0.70636415 6.1709499 1.6395742 18
0.79768336 6.9687343 1.3554277 24
0.6730566 5.8799677 0.82798004 2
1.5893335 13.884762 1.2133522 16
2.0179694 17.629417 0.91287214 41
2.0190334 17.638712 0.59919417 37
1.9710174 10.431314 0.29523084 41
1.6207943 39.161053 0.85933524 56
2.0190141 17.638542 0.28447661 34
1.9731636 10.442673 0.10758444 43
0.5025112 12.141498 0.051326212 38
2.0206349 17.652704 -0.029460445 35
1.9761794 10.458633 -0.080253117 41
0.21352509 5.1591167 -0.069397092 37
0.58715796 5.129539 -0.099856488 132
1.9726365 10.439883 -0.26819527 41
0.20980373 5.0692029 -0.15793566 0
0.58050048 5.0713778 -0.18922515 30
1.9714464 10.433585 -0.45617405 50
0.20569052 4.969821 -0.24283779 0
0.7912389 6.9124346 -0.38107139 0
0.95257682 5.0413704 -0.31110319 17
0.20498595 4.9527974 -0.32985431 0
0.56622237 4.9466414 -0.36082584 0
0.94104511 4.98034 -0.39711687 0
0.20471427 4.9462328 -0.41700754 0
0.55725878 4.8683333 -0.4418073 0
0.91077411 4.8201356 -0.4711293 0
0.10663301 2.5764289 -0.26288307 1
0.27588508 2.4101918 -0.26165554 1
0.24914433 2.1765788 -0.27512991 2
0.230551 2.0141435 -0.29047653 11
0.22859144 1.9970242 -0.32393947 19
0.22881992 1.9990203 -0.35985437 7
0.2329908 2.0354581 -0.40295133 0
0.2940034 2.5684772 -0.55427659 0
0.4949553 4.3240366 -1.0103234 0
0.51282936 4.4801879 -1.1264206 0
0.22668998 1.9804127 -0.68574101 0
0.20367646 1.7793616 -0.83484364 34
0.74989462 6.1697073 1.6405951 19
0.84204972 6.9279075 1.3485975 3
1.2843101 10.566574 1.4891448 18
1.6679568 13.723002 1.200205 19
2.1405137 17.610933 0.91266662 40
2.1450188 17.647999 0.60000372 40
2.0461023 10.429071 0.29556441 41
1.549951 32.034817 0.70318013 46
2.1445169 17.643869 0.28479704 35
2.0483286 10.440419 0.10770591 46
0.58745521 12.141688 0.051343106 39
2.1462371 17.658022 -0.029493606 37
2.0514557 10.456357 -0.080343589 43
0.24934372 5.1535053 -0.069343336 34
2.0470116 10.433705 -0.26839715 42
0.24460839 5.055634 -0.1575623 0
0.61685562 5.0751381 -0.18952151 39
2.0473154 10.435254 -0.45686078 51
0.24038112 4.9682641 -0.24283779 0
0.83514011 6.8710589 -0.37910259 0
0.24418683 5.0469217 -0.33622831 0
0.97655886 4.9775624 -0.39742929 6
0.2407812 4.9765329 -0.41969359 0
0.59123236 4.8643246 -0.4418073 0
0.94440252 4.8136601 -0.4711293 0
0.12230941 2.527925 -0.25801486 1
0.29270455 2.4082069 -0.26165554 1
0.26481238 2.1787262 -0.27562833 2
0.24460666 2.0124848 -0.29047653 11
0.24348055 2.0032198 -0.32521233 19
0.24514548 2.0169179 -0.36337546 10
0.23961835 1.9714438 -0.39060035 4
0.2406702 1.9800979 -0.42765668 7
0.52466035 4.3166075 -1.0094188 0
0.54643548 4.4957609 -1.1312675 0
0.23640287 1.9449887 -0.67403007 0
0.21696858 1.7850944 -0.83822358 34
0.79492241 6.1796656 1.6446787 19
0.70700449 5.4961982 1.0708334 4
1.3590577 10.565209 1.4902532 27
1.7535517 13.631976 1.1932853 19
2.2674854 17.627256 0.91431069 43
2.269702 17.644489 0.60040843 40
2.1228464 10.434124 0.29612041 40
1.7733355 32.019226 0.70309246 58
2.2686617 17.636402 0.28492522 33
2.1251531 10.445461 0.10790837 42
0.67308998 12.153266 0.051410686 31
2.2709913 17.65451 -0.029513502 34
2.1267967 10.45354 -0.080434069 43
0.2853156 5.151639 -0.069343336 31
2.2669981 17.623466 -0.34365794 19
2.1253824 10.446589 -0.26910374 41
0.28078148 5.0697708 -0.15806013 0
0.65380144 5.082602 -0.18996604 12
2.1233034 10.43637 -0.45754755 51
0.27506 4.9664645 -0.24283779 0
0.82244927 6.3936572 -0.35307074 0
1.1032693 5.4227424 -0.33555567 0
0.27963549 5.0490794 -0.33649391 0
1.0144649 4.9862542 -0.39867908 30
0.27397493 4.9468722 -0.41734332 0
0.62517709 4.8600783 -0.4418073 0
0.97877872 4.8108511 -0.47151169 2
0.14105481 2.546876 -0.26004329 1
0.30545059 2.3745494 -0.25822398 1
0.27545896 2.1413968 -0.27114251 2
0.26117626 2.030364 -0.29331321 10
0.25645199 1.9936379 -0.32393947 19
0.25620595 1.9917253 -0.35915017 14
0.25387642 1.9736156 -0.39137226 19
0.25249192 1.9628528 -0.42430252 14
0.25104424 1.9515986 -0.45677108 7
0.24855159 1.9322209 -0.48662922 9
0.25383621 1.9733032 -0.68443978 0
0.22803785 1.7727487 -0.83315367 33
0.84012568 6.1892948 1.6487623 16
0.94450706 6.9582834 1.3569456 15
1.4343815 10.567241 1.4919158 21
1.8486773 13.619401 1.1932853 19
2.3910282 17.614956 0.91451621 43
2.3949783 17.644058 0.60094815 38
2.1981118 10.430787 0.29645401 40
1.5767437 25.272776 0.55517912 15
2.3949587 17.643913 0.28530973 33
2.2004983 10.442112 0.10802983 42
0.75866592 12.160248 0.051461369 21
2.3952627 17.646152 -0.029526768 35
2.2013733 10.446265 -0.080494389 42
0.3212736 5.1495218 -0.069343336 31
2.3899767 17.607212 -0.34365794 64
2.202384 10.45106 -0.26960841 43
0.31666592 5.0756679 -0.15830904 2
0.68873078 5.0739527 -0.18981786 33
2.196111 10.421293 -0.45754755 85
0.3094767 4.9604359 -0.24264275 0
2.2006931 10.443037 -0.64714307 50
0.30866456 4.9474182 -0.32985431 0
1.0517174 4.990757 -0.39961642 26
0.30825546 4.9408607 -0.41700754 0
0.67248744 4.9542861 -0.45078713 0
0.57062191 2.7077949 -0.26577505 2
0.15610611 2.502141 -0.25558075 1
0.32523 2.3960037 -0.26079765 1
0.2941387 2.1669507 -0.2746315 2
0.27694213 2.040262 -0.29501522 10
0.2724885 2.0074515 -0.32648519 19
0.27010447 1.9898882 -0.35915017 19
0.26764855 1.9717952 -0.39137226 26
0.26513684 1.9532911 -0.42262542 30
0.26361457 1.9420764 -0.4549621 14
0.26360083 1.9419752 -0.48953736 18
0.2543785 1.8740332 -0.65060818 4
0.24235888 1.7854835 -0.83991355 31
0.88331431 6.183279 1.6487623 16
0.99528325 6.9670715 1.3599813 25
1.5075589 10.553047 1.4913616 22
1.5976878 11.183958 0.98085362 8
2.5167687 17.617607 0.91554374 5
6.0781474 42.547577 1.4505599 20
2.2742853 10.430815 0.29689881 42
1.7218547 24.810347 0.54527146 57
2.2776041 10.446036 0.10823229 44
0.85489553 12.31826 0.052154053 4
2.276804 10.442367 -0.080584861 39
0.35804665 5.1591239 -0.069504596 34
2.5179291 17.625729 -0.34435406 76
2.2778473 10.447151 -0.26991123 42
0.35236958 5.077322 -0.1584335 6
0.72413659 5.0690207 -0.18981786 28
2.2747705 10.43304 -0.45874935 51
0.34852499 5.0219254 -0.24576354 0
0.98280734 6.8797388 -0.38063386 0
2.2777977 10.446924 -0.64835358 45
0.34623581 4.9889402 -0.33277574 0
1.1425023 7.9976187 -0.58547461 0
1.0924802 5.0105667 -0.40180352 3
0.34412116 4.9584703 -0.41868633 0
0.71438229 5.0007401 -0.45545664 0
1.0500944 4.8161678 -0.47342375 6
0.17577446 2.5327487 -0.25882623 1
0.33913714 2.3739901 -0.25865293 1
0.30701452 2.1491289 -0.27263778 2
0.28893915 2.0225997 -0.29274589 11
0.28537941 1.9976815 -0.32521233 19
0.28231925 1.9762601 -0.35703751 20
0.28196266 1.9737639 -0.3921442 25
0.28042614 1.963008 -0.42514107 26
0.27826834 1.9479033 -0.45677108 32
0.27440774 1.9208788 -0.48469046 36
0.2674554 1.8722117 -0.65060818 21
0.25379246 1.77657 -0.83653361 32
0.92473894 6.1654873 1.6456996 19
1.045063 6.967721 1.3614991 4
1.531251 10.209269 1.4442544 20
1.6083435 10.723267 0.94141185 9
1.6661814 11.108888 0.57789207 9
1.6537971 11.026318 0.37630093 8
2.3496873 10.426385 0.29723239 43
1.8971531 24.825632 0.54588521 87
1.6480008 10.987672 0.17803019 7
2.3539925 10.445488 0.10839426 45
1.8982017 24.839354 0.10522042 55
1.6357505 10.905996 -0.018285107 7
2.3540463 10.445727 -0.080735661 43
0.39496937 5.1684623 -0.069665864 50
1.6906143 11.271789 -0.2204423 5
2.3524842 10.438796 -0.27011311 42
0.38658851 5.0587926 -0.15793566 12
0.76425034 5.0954661 -0.19100331 10
2.3528223 10.440296 -0.45977947 56
0.37900946 4.9596152 -0.24283779 0
0.75296718 5.0202384 -0.27803773 0
2.3524303 10.438558 -0.6488378 47
0.36950007 4.8351779 -0.32268357 0
0.72786117 4.8528495 -0.35562161 0
1.1861724 5.2634621 -0.4227373 0
0.37629944 4.9241529 -0.41600028 0
0.75459462 5.0310888 -0.45868939 0
1.1160799 4.9524374 -0.48757294 11
0.19223911 2.5155888 -0.25720349 1
0.35983151 2.3990953 -0.26165554 1
0.32201067 2.1469333 -0.27263778 2
0.30129045 2.008786 -0.29104388 11
0.29990458 1.9995459 -0.32584876 19
0.29610917 1.9742409 -0.35703751 17
0.29515302 1.9678659 -0.39137226 22
0.29296333 1.9532666 -0.42346397 23
0.29012656 1.9343532 -0.4540576 29
0.29068935 1.9381055 -0.48953736 35
0.27939722 1.8628176 -0.64800572 48
0.26457572 1.7639987 -0.83146369 32
0.96835959 6.1627021 1.6467205 13
0.67120558 4.271595 0.83556885 3
1.5416099 9.8109035 1.3893882 18
1.6386281 10.428334 0.91650128 33
1.6736246 10.651053 0.5546695 11
1.6637142 10.587983 0.36172923 10
2.4269505 10.429198 0.29778838 40
2.0710864 24.819756 0.54606056 62
1.6576188 10.549191 0.17110893 10
2.4286709 10.436591 0.10847524 44
2.072896 24.84144 0.105288 79
1.6454109 10.4715 -0.017575458 17
2.4314461 10.448517 -0.080886453 42
0.43137473 5.1695647 -0.06971962 47
1.7022187 10.833028 -0.21208869 12
2.4307408 10.445487 -0.27071875 42
0.42256078 5.0639391 -0.15818459 18
1.6579345 10.551201 -0.39593548 0
2.4292746 10.439185 -0.46046624 53
0.41661468 4.992681 -0.24459325 0
0.79047632 5.0306416 -0.27891275 30
2.4279623 10.433546 -0.64956409 45
0.41585854 4.9836197 -0.33277574 0
1.0057213 6.400475 -0.46953619 0
1.2644655 5.4337168 -0.43710974 0
0.41099852 4.9253778 -0.41633603 0
0.76063466 4.8407273 -0.4418073 0
1.150627 4.9445248 -0.48757294 25
0.21078913 2.5260823 -0.25842056 1
0.37842342 2.4083109 -0.26294234 1
0.34007147 2.1642365 -0.27512991 2
0.31899479 2.0301032 -0.2944479 11
0.31446964 2.0013049 -0.32648519 17
0.3123295 1.9876848 -0.35985437 15
0.30827478 1.9618802 -0.39060035 18
0.30902091 1.9666288 -0.42681813 26
0.30422854 1.9361298 -0.4549621 24
0.30481508 1.9398626 -0.49050674 32
0.29122093 1.8533485 -0.64540333 48
0.27913532 1.7764349 -0.83822358 34
1.0094783 6.1443424 1.6436578 16
0.68572944 4.1737957 0.8173548 4
1.5329975 9.3308201 1.3228837 19
1.7120371 10.420572 0.91684729 33
1.7136176 10.430192 0.54377753 32
1.7129627 10.426207 0.35660216 33
2.5043674 10.43144 0.29834437 40
1.6324213 18.041946 0.39718279 8
1.718257 10.45843 0.16982722 27
2.5052073 10.434939 0.10863721 46
1.6100911 17.795149 0.075468794 13
1.7178267 10.455811 -0.017568825 34
2.5099335 10.454624 -0.081067406 43
0.4652918 5.1425271 -0.069397092 34
1.7136177 10.430193 -0.20443122 55
2.5082719 10.447703 -0.27122346 42
0.45754287 5.0568838 -0.15806013 15
0.89493906 5.4471812 -0.20463581 0
2.5048928 10.433629 -0.46098128 53
0.44821954 4.9538398 -0.24283779 0
0.82687229 5.0328832 -0.27935025 14
2.506335 10.439636 -0.65101671 46
0.45351756 5.0123949 -0.33490041 0
1.0562013 6.4287286 -0.47213829 0
2.5079212 10.446243 -0.84172529 34
0.44824722 4.9541459 -0.41902208 0
0.79441053 4.8352995 -0.4418073 0
1.1962721 4.9828315 -0.49216184 10
0.22770204 2.5166225 -0.25760919 1
0.39458254 2.401686 -0.2625134 1
0.35838941 2.1813912 -0.27762204 2
0.33059201 2.012198 -0.29217854 11
0.32651293 1.9873701 -0.3245759 18
0.32747513 1.9932268 -0.3612628 19
0.32387254 1.9712989 -0.39291614 26
0.32527921 1.9798609 -0.43017232 20
0.31773776 1.9339588 -0.4549621 28
0.31835034 1.9376873 -0.49050674 33
0.30415255 1.8512703 -0.64540333 43
0.29153025 1.7744429 -0.83822358 29
1.0530026 6.1409569 1.6446787 19
0.70423114 4.1069732 0.80521214 3
1.5505662 9.042675 1.2835354 21
1.7881116 10.428004 0.91857719 33
1.7863916 10.417974 0.54377753 28
1.7890873 10.433695 0.35727677 36
2.5867362 10.452517 0.29945636 15
1.7191336 17.628117 0.38832727 47
1.7912281 10.446179 0.16982722 25
2.5904865 10.467669 0.10916358 2
1.7199194 17.636175 0.074843682 48
1.7928076 10.455391 -0.017588722 34
9.0419264 36.536732 -0.28379625 19
0.50273466 5.155076 -0.069612108 9
1.78504 10.410091 -0.20427652 87
0.49477547 5.073462 -0.15868241 6
1.792255 10.452168 -0.39312005 50
2.5805516 10.427525 -0.46149635 31
0.86266297 5.0309243 -0.279569 23
2.5781963 10.418008 -0.6507746 5
0.48849934 5.0091066 -0.33490041 0
0.86034763 5.0174212 -0.36892128 0
2.5807879 10.42848 -0.84172529 15
0.48166189 4.9389944 -0.41801482 0
1.0247486 5.9761834 -0.54669166 0
0.24333449 2.4951687 -0.25558075 1
0.40797907 2.3792744 -0.2603687 1
0.37159726 2.1671009 -0.27612677 2
0.34663913 2.0215487 -0.29388055 10
0.34171411 1.9928267 -0.32584876 17
0.34138238 1.9908921 -0.3612628 20
0.33696344 1.9651215 -0.3921442 24
0.33578819 1.9582676 -0.42597961 27
0.33320701 1.9432144 -0.45767558 20
0.33055833 1.9277678 -0.48856798 27
0.3189871 1.860286 -0.64930695 40
0.30513644 1.779511 -0.84160352 32
1.0958486 6.1334562 1.6446787 9
0.97948366 5.4821625 1.0761459 0
1.566976 8.7703524 1.2464037 17
1.8636723 10.430959 0.91996109 32
1.8632942 10.428843 0.54501057 31
1.8646966 10.436692 0.35781646 35
10.179339 39.935139 1.1461183 36
1.8442377 17.635571 0.38876566 46
1.8683326 10.457043 0.17021173 26
9.3094091 36.522266 0.38154617 8
1.8450804 17.643629 0.074928157 51
1.8671628 10.450496 -0.017601985 32
8.3552446 32.778931 -0.25505471 1
1.8457621 17.65015 -0.23850882 17
1.8597822 10.409186 -0.20450857 108
8.3488703 32.753925 -0.85323846 7
0.52935088 5.0619316 -0.1584335 4
1.8658837 10.443336 -0.39326823 53
0.52856171 5.0543857 -0.24810416 0
0.90268147 5.0523014 -0.2811003 12
5.3983746 21.178667 -1.3252754 1
0.52345729 5.0055742 -0.33490041 0
0.89324951 4.9995108 -0.36805391 0
4.4284582 17.373533 -1.4047501 2
0.51986158 4.97119 -0.4210366 0
0.88076299 4.9296236 -0.45150551 0
1.372925 5.3861995 -0.53384453 1
0.26281738 2.5131981 -0.25760919 1
0.42947578 2.4037726 -0.26337129 1
0.38671732 2.1644537 -0.27612677 2
0.35517237 1.9878969 -0.28934187 11
0.35353458 1.9787302 -0.32393947 17
0.3531954 1.9768319 -0.35915017 15
0.35274521 1.9743122 -0.39446002 23
0.35013911 1.9597257 -0.42681813 26
0.34333843 1.9216626 -0.4531531 33
0.34537363 1.9330536 -0.49050674 37
0.33130118 1.8542901 -0.64800572 33
0.31882754 1.7844752 -0.84498346 30
1.2926203 6.9540329 1.3668115 17
1.5905204 8.556674 1.2175851 17
1.9393611 10.433366 0.92134506 31
1.9375154 10.423436 0.5454216 31
1.9404347 10.439141 0.35835615 34
8.4702101 32.286522 0.92828137 28
1.9695297 17.642138 0.38920406 46
1.9412904 10.443745 0.17021173 25
8.459857 32.247055 0.33749202 44
1.9682103 17.630318 0.074928157 52
1.9437299 10.456868 -0.017635148 31
8.4570045 32.236183 -0.25128484 17
1.9693815 17.640808 -0.23856257 31
1.9338678 10.403812 -0.20466326 93
8.4687576 32.280983 -0.84243798 31
0.56512022 5.0620856 -0.15855795 17
1.9387459 10.430056 -0.39326823 51
7.0773787 26.977364 -1.198208 0
0.55718589 4.9910135 -0.2451784 0
5.5298867 21.078672 -1.3214017 1
0.55573285 4.9779983 -0.33330691 0
0.92885965 4.9970746 -0.36834306 18
4.5334487 17.280478 -1.3997509 2
0.55101627 4.9357491 -0.41835058 0
0.9013235 4.8489361 -0.44468087 0
1.5761968 6.0081043 -0.59655982 2
0.2799148 2.5073473 -0.25720349 1
0.4433395 2.3850758 -0.26165554 1
0.40254378 2.1656032 -0.27662519 2
0.37265977 2.0048332 -0.29217854 10
0.36950502 1.9878614 -0.32584876 17
0.36770713 1.9781891 -0.35985437 9
0.36723706 1.9756602 -0.39523196 15
0.36166763 1.9456978 -0.42430252 16
0.35888189 1.930711 -0.45586661 28
0.35673276 1.9191492 -0.4875986 38
0.34700337 1.8668071 -0.65321064 31
0.32995254 1.7750771 -0.84160352 31
0.75678605 3.9188824 1.0535744 2
1.3389028 6.9332709 1.3645347 25
1.6149153 8.3625526 1.1915375 18
2.0151742 10.435223 0.92272896 37
2.0117517 10.4175 0.54583257 30
2.0162978 10.441041 0.35889584 34
8.6922798 32.215023 0.92794776 61
2.0926459 17.627958 0.38920406 44
2.0171869 10.445645 0.17046808 26
8.6993628 32.241272 0.33805889 59
2.0936017 17.636009 0.075012632 49
2.01896 10.454826 -0.017655045 34
8.7026873 32.253593 -0.25188801 54
2.0943744 17.642517 -0.23877759 36
2.0102439 10.409692 -0.20505001 76
8.7064133 32.267403 -0.84364927 57
0.60280269 5.0778685 -0.15918024 42
2.0190928 10.455514 -0.39475003 52
7.2645016 26.923439 -1.1980363 0
0.58636409 4.9393935 -0.24283779 0
1.048865 5.4313617 -0.3029758 0
5.6633859 20.989441 -1.3182544 1
0.589531 4.9660707 -0.33277574 0
0.96599227 5.0022197 -0.36921042 29
4.6498222 17.233007 -1.3985013 1
0.58499068 4.927824 -0.41801482 0
0.93288714 4.830791 -0.44360328 10
1.5371972 5.6971064 -0.56673181 2
0.29459774 2.4816222 -0.25476938 1
0.46224174 2.3936369 -0.26294234 1
0.41539505 2.1510496 -0.27512991 2
0.38965005 2.0177336 -0.2944479 11
0.38262498 1.9813558 -0.32521233 17
0.3837482 1.987172 -0.36196703 2
0.38102072 1.9730482 -0.39523196 1
0.37746701 1.954646 -0.42681813 9
0.37235194 1.9281585 -0.45586661 22
0.37085795 1.9204222 -0.48856798 32
0.36146197 1.8717667 -0.65581304 38
0.34164935 1.7691706 -0.83991355 29
0.78868514 3.9362564 1.0596999 7
1.3911309 6.9430089 1.3683293 25
1.64057 8.1879368 1.1682611 17
2.0903246 10.432622 0.92376691 32
2.0891387 10.426702 0.54706568 32
2.0922818 10.442389 0.35943553 36
8.9394083 32.234463 0.93028289 55
2.2171578 17.624821 0.38946709 45
2.0939903 10.450916 0.17078851 27
8.9381313 32.229858 0.33858529 66
2.2186692 17.636837 0.075080216 48
2.0942562 10.452243 -0.017674942 32
8.9447479 32.253719 -0.25237057 55
2.2199864 17.647308 -0.23904637 38
2.0922959 10.44246 -0.20597818 54
8.9603214 32.309872 -0.84637463 48
0.640733 5.0933704 -0.15980253 21
2.0936067 10.449001 -0.39504638 50
7.4341283 26.806599 -1.1951176 0
0.63429689 5.0422072 -0.24810416 0
2.0934787 10.448363 -0.58363861 48
5.8129816 20.960934 -1.3189807 1
0.63066208 5.0133133 -0.33622831 0
1.0040257 5.0110011 -0.3703669 25
4.7561636 17.150171 -1.3944395 1
0.62733877 4.9868951 -0.4233869 0
0.96658939 4.8241601 -0.44360328 21
1.5492674 5.5864778 -0.55678916 1
0.31688222 2.5189874 -0.25882623 1
0.4758158 2.3747537 -0.26122659 1
0.42806283 2.1364229 -0.27363464 2
0.40372685 2.0149641 -0.2944479 10
0.40110302 2.001869 -0.32903087 16
0.39683825 1.9805838 -0.3612628 2
0.96537459 4.8180971 -0.96646565 0
0.94971347 4.739934 -1.0364386 1
0.38733482 1.933153 -0.45767558 15
0.38425589 1.9177864 -0.48856798 19
0.37229112 1.8580713 -0.65190941 40
0.35541657 1.773852 -0.84329349 28
0.81300104 3.9155078 1.0556163 8
1.4419633 6.9446635 1.3706061 25
1.676753 8.0754385 1.1538517 17
2.1679676 10.441185 0.92584276 29
2.1643159 10.423597 0.54768217 30
2.1675701 10.439271 0.3598403 34
9.1697044 32.190498 0.93083888 14
2.3427815 17.628735 0.38990548 46
2.1693392 10.44779 0.17098077 26
10.436215 36.63662 0.38563576 10
2.3427966 17.628849 0.075114004 49
2.171241 10.456949 -0.017708102 35
10.418921 36.575905 -0.28675184 8
2.3447137 17.643274 -0.23920763 36
2.1659598 10.431515 -0.20605554 52
9.3149328 32.700329 -0.85828543 10
0.67680228 5.0927362 -0.15992698 11
2.1705663 10.4537 -0.3957873 52
7.5729184 26.584936 -1.1875633 1
0.66790348 5.025775 -0.247519 0
2.1688066 10.445226 -0.58429486 49
5.9569864 20.912163 -1.3184965 1
0.65828502 4.9533992 -0.33251014 0
1.0422287 5.019495 -0.37152341 3
4.8681297 17.089703 -1.3922523 1
0.65898782 4.9586873 -0.42137235 0
1.0026743 4.8289967 -0.44468087 36
1.5347803 5.387888 -0.53805107 1
0.33288753 2.50488 -0.25760919 1
0.49561709 2.3869498 -0.26294234 1
0.44538793 2.1450403 -0.27512991 2
0.41617408 2.004343 -0.29331321 11
0.4126603 1.9874202 -0.32712162 17
0.41465807 1.9970416 -0.36478388 3
0.99340206 4.7843399 -0.96106207 1
1.0002741 4.8174362 -1.0548865 1
0.89986748 4.3338666 -1.0275089 0
0.39684615 1.9112574 -0.4875986 4
0.38525376 1.855427 -0.65190941 41
0.36926579 1.7784271 -0.84667343 27
0.841129 3.9135175 1.0566372 9
1.4920611 6.9421072 1.372124 27
1.7272619 8.0364246 1.1499723 15
2.2424822 10.433588 0.92653471 32
2.2387118 10.416045 0.5480932 31
2.2429166 10.43561 0.36024508 34
11.681322 39.947006 1.1574606 37
2.4669042 17.619871 0.39008084 41
2.2455866 10.448031 0.17123711 26
11.686363 39.964245 0.42151073 41
2.4691386 17.635832 0.075215369 44
2.2467122 10.453269 -0.017727999 33
10.704324 36.605934 -0.28756613 9
2.4711559 17.65024 -0.23953016 30
2.2420933 10.43178 -0.20636493 52
8.0806274 27.633591 -0.72676176 4
0.72786129 5.1987519 -0.16341177 1
2.2460129 10.450016 -0.39623183 51
7.7471137 26.493063 -1.1858464 1
0.70574313 5.0407729 -0.24849425 0
2.2441921 10.441545 -0.5849511 49
6.0927486 20.835577 -1.3163176 1
0.69949061 4.9961143 -0.33569714 0
1.1342516 5.277328 -0.39118379 0
4.9794841 17.028507 -1.3900652 1
0.69303691 4.9500189 -0.4210366 0
1.0371995 4.8257742 -0.44504005 28
1.5857674 5.4229016 -0.54263997 1
0.34871134 2.4906721 -0.25639212 1
0.50976187 2.371767 -0.26165554 1
0.45785025 2.1302381 -0.27363464 2
0.43015677 2.0013885 -0.29331321 11
0.42818457 1.9922127 -0.32839444 15
0.42279807 1.9671509 -0.35985437 3
1.0358504 4.8194971 -0.96955341 1
1.0404561 4.8409257 -1.0615948 1
0.92846382 4.31986 -1.0256999 0
0.68009871 3.1642926 -0.80846369 0
0.39740276 1.8489944 -0.65060818 37
0.37938696 1.7651722 -0.84160352 28
0.86591262 3.8962238 1.0535744 5
1.5413415 6.9353552 1.3728828 27
1.7884809 8.0473728 1.1532975 14
2.3204544 10.441018 0.92861062 32
2.3165741 10.423559 0.54932624 29
2.3200524 10.43921 0.36091968 34
11.987494 39.956398 1.1601293 41
2.321943 10.447717 0.17149346 26
11.992663 39.973629 0.42248252 40
1.6559329 11.25473 0.048048634 2
2.3231056 10.452948 -0.017754527 33
8.4171247 28.055738 -0.2208544 0
1.6552159 11.249857 -0.1528241 6
2.3174686 10.427584 -0.20659697 69
8.1584396 27.193495 -0.71666783 3
0.7920723 5.3834066 -0.1693857 0
2.3215144 10.445787 -0.39667636 53
7.9020224 26.338812 -1.1813827 1
0.73859066 5.0199127 -0.24771406 30
2.3213651 10.445116 -0.58604491 50
6.2093754 20.696926 -1.3102649 1
0.73435271 4.9911089 -0.33569714 0
1.2082844 5.4367452 -0.40361607 0
5.0902219 16.966593 -1.3878781 1
0.72525656 4.929286 -0.41969359 0
1.0942003 4.9234171 -0.45473826 37
1.6373174 5.4574633 -0.54722893 1
0.3655116 2.4842398 -0.25598645 1
0.53234696 2.3953259 -0.26465812 1
0.47701603 2.1463611 -0.27612677 2
0.44497749 2.0022018 -0.29388055 10
0.4403688 1.9814647 -0.32712162 16
0.44250068 1.9910574 -0.36478388 2
1.0677685 4.8044858 -0.96800953 1
1.0750749 4.8373618 -1.0624334 1
0.96028996 4.3208799 -1.0275089 0
0.70890838 3.189774 -0.81621873 1
0.4078396 1.8350978 -0.64670455 24
0.39170086 1.7624806 -0.84160352 29
0.69578105 3.0306468 0.82080799 2
1.5730245 6.8516984 1.3584634 28
1.8428453 8.0269699 1.1521891 18
2.3959644 10.436216 0.92964858 29
2.3964381 10.43828 0.55097032 30
2.3973472 10.44224 0.36159432 34
12.295542 39.967281 1.1629093 41
1.6877241 10.939921 0.24269359 9
2.4001944 10.454641 0.17187797 24
12.297313 39.973038 0.42337331 49
1.6753074 10.859435 0.046409842 9
2.3987088 10.448171 -0.017774424 33
8.4445982 27.449594 -0.21654166 0
1.6648042 10.791353 -0.14674985 9
2.3919995 10.418947 -0.20675166 76
8.2987022 26.975355 -0.71242839 186
1.6501282 10.696222 -0.33690453 9
2.3979602 10.444909 -0.39726907 53
8.0751324 26.248629 -1.1798375 1
0.77422702 5.0185823 -0.2479091 5
2.4013784 10.459799 -0.58779496 45
6.3454967 20.62636 -1.3085703 1
0.98216373 6.3664393 -0.42865127 0
2.3969014 10.440298 -0.77629596 47
5.2003379 16.903963 -1.385691 1
0.7742368 5.0186453 -0.42775172 0
1.1392424 4.9622526 -0.45904857 57
1.6894268 5.4915676 -0.55181783 1
0.38466603 2.4934263 -0.25720349 0
0.54816651 2.3876753 -0.26422918 1
0.50086933 2.1816604 -0.281111 1
0.4633745 2.0183425 -0.29671723 10
0.45684212 1.9898891 -0.32903087 16
0.45815212 1.995595 -0.36619231 2
1.1065531 4.8198662 -0.97264117 1
1.1088196 4.8297386 -1.0624334 1
0.73115975 3.1847475 -0.81621873 1
0.42571911 1.8543251 -0.65451181 3
0.40724057 1.7738372 -0.8483634 27
0.7035464 2.9692655 0.80549443 2
1.580073 6.6685805 1.3243121 23
1.8897054 7.9753613 1.1466471 17
2.4724391 10.434746 0.93103248 27
2.4720154 10.432958 0.55158687 30
2.4738758 10.440809 0.36213401 35
12.600715 39.964359 1.1653556 41
1.6933169 10.489652 0.2329613 14
2.4758887 10.449305 0.17207022 25
12.606144 39.981579 0.42438558 45
1.6898839 10.468386 0.044787947 32
2.4808142 10.470093 -0.017840747 32
8.5506268 27.119123 -0.21440037 2
1.6859221 10.443843 -0.14218071 31
2.4692891 10.421452 -0.2071384 52
8.4904289 26.928202 -0.71273124 96
1.6865324 10.447623 -0.32943714 41
2.4745069 10.443473 -0.39786181 51
8.2449646 26.149687 -1.1779488 1
0.81179112 5.028832 -0.24868931 27
2.4761844 10.450552 -0.58823246 46
6.4809356 20.554903 -1.3068755 1
0.80714828 5.0000706 -0.33702508 0
2.4770882 10.454367 -0.77860898 50
5.3038321 16.821608 -1.3819417 1
0.79845595 4.9462242 -0.42204386 0
1.1793685 4.977437 -0.46120372 28
1.7313156 5.4910316 -0.55296504 1
0.40079561 2.4828229 -0.25639212 1
0.56115448 2.3683109 -0.2625134 1
0.50785244 2.1433535 -0.27662519 1
0.47197637 1.9919412 -0.29331321 11
0.4716334 1.9904938 -0.3296673 15
0.46934927 1.9808537 -0.36407968 2
1.1410798 4.8158426 -0.97341311 1
1.1434122 4.825686 -1.0632719 1
0.74979651 3.1644607 -0.81234121 0
0.74300885 3.1358135 -1.1086364 0
0.41627076 1.7568399 -0.84160352 30
0.71599698 2.9304683 0.79630631 2
1.5790501 6.4628158 1.2856072 24
1.9472178 7.9696712 1.1477555 18
3.4929473 14.29611 1.2777046 19
2.5466864 10.423206 0.5519979 25
2.5552449 10.458236 0.36334831 18
12.91382 39.981956 1.1684692 34
1.7598581 10.43814 0.23208451 39
2.5554223 10.458961 0.17251882 9
12.918152 39.995365 0.42547885 46
1.7615954 10.448444 0.044754159 48
2.5604937 10.479718 -0.017887173 1
8.2553644 25.559099 -0.20251772 0
1.7594571 10.435762 -0.14223447 35
2.5476789 10.427269 -0.2076025 53
1.7600936 10.439537 -0.32956159 43
2.5502012 10.437592 -0.39830634 47
8.3646793 25.897545 -1.1691928 6
0.84820735 5.030921 -0.24907941 19
2.5509777 10.44077 -0.58866996 3
6.5886893 20.398973 -1.2998545 1
0.84402597 5.0061202 -0.33782181 0
2.5433838 10.40969 -0.7765851 2
5.4223652 16.787966 -1.3822541 1
0.83363003 4.9444594 -0.42237964 0
1.7769506 5.501545 -0.55525953 1
0.41944224 2.4878125 -0.25720349 1
0.59277713 2.4261482 -0.26937652 1
0.52751333 2.1590331 -0.27911732 2
0.48963022 2.0039833 -0.29558256 10
0.48364344 1.9794803 -0.32839444 16
0.48690483 1.9928286 -0.36689654 3
1.1774672 4.8191972 -0.97572893 1
1.181715 4.8365831 -1.0674646 1
0.77647555 3.1779983 -0.81718808 0
0.76488262 3.1305501 -1.1086364 0
0.4319675 1.7679784 -0.8483634 25
0.73171711 2.9066458 0.79120177 2
1.5867388 6.3031025 1.2560095 27
2.0018415 7.9520411 1.1472013 16
3.5994768 14.298428 1.2801265 19
8.1448841 32.354435 1.7164134 12
10.061895 39.969501 1.3910587 37
8.4494095 25.548655 0.7483629 34
1.8347636 10.437416 0.23234755 43
10.065356 39.983246 0.66065991 11
8.3191175 25.154688 0.26821202 22
1.8351882 10.439832 0.044771053 44
9.1975584 36.536037 -0.062469143 23
8.3054924 25.113489 -0.19944151 19
1.8343464 10.435042 -0.14239573 34
8.3068495 25.117594 -0.6678133 16
1.834316 10.43487 -0.3298105 43
8.5427628 25.830929 -1.1688493 2
0.88884246 5.0563564 -0.2506398 3
5.7858272 22.983404 -1.2980927 1
6.7021046 20.265291 -1.2942861 1
0.87273538 4.9647279 -0.33543158 29
4.6563931 18.496881 -1.3822984 1
5.5294166 16.719412 -1.3797545 2
1.4836849 8.4402361 -0.72187299 0
1.358647 5.3970389 -0.50179255 1
1.8265669 5.5230284 -0.55870122 1
0.43886694 2.4965816 -0.25842056 0
0.61067116 2.4258075 -0.26980546 1
0.54741764 2.1745415 -0.28160942 2
0.50650847 2.0120354 -0.29728457 9
0.49937904 1.9837147 -0.3296673 17
0.49888298 1.9817442 -0.36548811 3
1.213957 4.8222775 -0.97804475 1
1.2164065 4.8320079 -1.0683032 1
0.79485357 3.1574466 -0.81331056 0
0.78764254 3.1288021 -1.1099375 0
0.43987441 1.7473407 -0.83991355 29
0.75878352 2.9276733 0.79834807 0
1.5903057 6.1359997 1.2248938 31
2.0583019 7.9417067 1.1477555 15
3.7102079 14.315384 1.2839322 19
6.1797023 23.843626 1.2671701 0
8.4059467 32.433315 1.1307918 19
8.5506477 25.261803 0.74169099 25
1.9104645 10.440087 0.23269826 43
8.3775434 32.323727 0.53505188 23
8.4932432 25.092209 0.26817152 45
1.9101866 10.438569 0.044821739 46
8.3605433 32.258137 -0.055253256 18
8.4921551 25.088993 -0.19971293 36
1.9100313 10.43772 -0.14261074 35
8.4894285 32.755421 -0.65444291 1
8.4871273 25.074141 -0.66821706 48
1.9099985 10.437541 -0.33030832 42
7.6528149 29.527451 -1.1307573 0
8.5832281 25.358057 -1.1501354 12
0.98021501 5.3565664 -0.26585373 0
5.9281025 22.872858 -1.2941551 1
6.8242164 20.16128 -1.2906545 1
0.91384 4.9938483 -0.33782181 6
4.7713981 18.409855 -1.3782506 1
5.6204338 16.604856 -1.3735057 2
0.91334629 4.9911499 -0.42741594 0
1.5861957 6.120142 -0.57003921 3
1.8727396 5.5327706 -0.5609957 1
0.45556921 2.4895425 -0.25801486 1
0.62659371 2.4176352 -0.26937652 1
0.55860239 2.1552992 -0.27961573 1
0.52352291 2.0199492 -0.29898658 10
0.51420641 1.9840027 -0.33030373 17
0.51369375 1.9820246 -0.36619231 3
1.2485776 4.8174839 -0.97881669 1
1.2510916 4.8271837 -1.0691417 1
0.8246662 3.1818738 -0.82106566 0
0.80661947 3.1122425 -1.1060339 0
0.45933899 1.7723033 -0.85343331 27
1.0452492 3.9200737 1.0709299 10
1.5916187 5.9691629 1.1937782 21
2.108592 7.9080052 1.1449845 16
3.8192971 14.323787 1.287046 21
6.3563023 23.838501 1.2692252 0
8.5950871 32.234779 1.1259345 46
8.6613817 25.012577 0.73613113 51
1.9840505 10.430425 0.23278594 41
8.5957861 32.2374 0.5346033 47
8.6682129 25.032305 0.26817152 58
1.9852569 10.436768 0.044872422 44
8.5999699 32.25309 -0.055346109 52
8.6762629 25.055552 -0.19992405 54
1.9850954 10.435918 -0.14277202 34
8.5880699 32.208462 -0.64469701 17
8.6789808 25.0634 -0.66952926 48
1.9873019 10.447518 -0.33105507 39
7.858767 29.473305 -1.1307573 0
8.6685143 25.033175 -1.1381173 37
1.9821664 10.42052 -0.51785892 31
6.0701461 22.76531 -1.2904363 0
6.9556565 20.086737 -1.2889599 1
0.94942695 4.9912672 -0.33808741 40
4.884388 18.318274 -1.3739138 1
5.7270861 16.538837 -1.3713186 1
0.94742376 4.9807363 -0.42708018 0
1.6011708 6.0049872 -0.560341 2
1.9243486 5.5571871 -0.56481975 1
0.47739995 2.5097568 -0.26044896 0
0.64755505 2.4285727 -0.2710923 1
0.57772565 2.1666863 -0.28160942 1
0.53353137 2.0009413 -0.29671723 9
0.53007966 1.9879962 -0.33157656 17
0.5265038 1.9745854 -0.36548811 3
1.2872353 4.8276119 -0.98267633 1
1.2887915 4.8334484 -1.0724959 1
0.85185874 3.1947877 -0.82591254 0
0.83319968 3.124809 -1.11254 0
0.47356883 1.7760595 -0.85681325 26
1.0746357 3.9201412 1.0729717 12
1.6072944 5.8632159 1.1748053 21
2.1721265 7.923655 1.1494181 15
3.9318445 14.342894 1.2911978 19
7.8416581 28.605419 1.5259062 9
8.8325996 32.220257 1.1275536 76
8.8611488 25.023113 0.73824388 52
2.0599184 10.432013 0.23313665 42
8.837553 32.238323 0.53562868 49
8.8641205 25.031504 0.26881936 77
2.060395 10.434426 0.044923108 45
8.8439617 32.261703 -0.05546549 49
8.8736696 25.05847 -0.20043676 55
2.0602272 10.433578 -0.14293328 32
8.831748 32.217148 -0.64608932 57
8.8817739 25.081356 -0.67164898 48
2.0632882 10.44908 -0.33155289 40
8.841074 32.251167 -1.2396692 4
8.8657446 25.036089 -1.141036 41
2.0587363 10.426026 -0.51883417 60
6.2268167 22.714674 -1.2899988 1
7.078392 19.988762 -1.2858125 1
0.99198085 5.0236735 -0.34074324 20
5.0100436 18.276033 -1.3733355 1
5.8264346 16.453342 -1.3675692 1
0.97522312 4.9388075 -0.42405841 1
1.5535287 5.6670847 -0.52980959 2
1.9856927 5.6074233 -0.57132077 0
0.49259689 2.4946508 -0.25923193 1
0.66869938 2.4393344 -0.27280805 1
0.58864063 2.1472898 -0.27961573 1
0.55062789 2.0086241 -0.29841924 9
0.54603344 1.991864 -0.33284941 17
0.54131705 1.9746591 -0.36619231 3
1.3281701 4.8450036 -0.98807991 1
1.3256058 4.8356495 -1.0750115 1
0.87619352 3.1962481 -0.8278513 0
0.84999448 3.100677 -1.1060339 0
0.48116392 1.7552278 -0.8483634 30
1.1009287 3.9088206 1.0719508 15
1.6151818 5.734664 1.1512787 20
2.2424264 7.9616809 1.157177 3
4.0372825 14.334273 1.2929276 20
6.7155948 23.843557 1.2743629 0
9.0735807 32.21553 1.1295774 37
9.0533199 25.009518 0.73968947 55
2.1367068 10.436966 0.23357505 44
9.0851717 32.256683 0.53697443 14
9.0604391 25.029186 0.26946723 72
