# .PCD v0.7 - Point Cloud Data file format
VERSION 0.7
FIELDS x y z intensity
SIZE 4 4 4 4
TYPE F F F F
COUNT 1 1 1 1
WIDTH 1343
HEIGHT 1
VIEWPOINT 0 0 0 1 0 0 0
POINTS 1343
DATA ascii
-5.7150707 -10.503979 -0.65495276 1
-6.3666077 -9.9094009 -0.71420574 32
-5.0828538 -11.210291 -0.81905854 9
-6.309236 -9.8201046 -0.91452479 0
-4.4588852 -9.8341208 -0.90955997 19
-5.2949653 -9.7318487 -0.99891555 0
-6.245779 -9.7213354 -1.1097542 12
-4.4220243 -9.7528248 -1.091695 12
-5.2325683 -9.6171665 -1.1808814 47
-5.2162085 -9.5870981 -1.3706653 39
-5.2172799 -9.5890675 -1.5641481 2
-5.250608 -9.650322 -1.7705297 2
-5.2032943 -9.5633621 -1.9471573 8
-5.0570645 -9.2946005 -2.0811434 3
-4.5852051 -8.4273491 -2.0569448 3
-4.1675725 -7.6597643 -2.0242648 5
-3.8466778 -7.0699778 -2.0104959 4
-2.6898928 -4.943872 -1.9362099 5
-1.9406278 -3.5667648 -1.8927629 6
-1.2561526 -2.2708311 0.6850276 3
-2.2070799 -3.9898858 0.88110393 36
-2.3106003 -4.1770267 0.66781521 8
-4.3188701 -7.8075104 0.77464944 22
-4.0838208 -7.382596 0.43403557 13
-4.1391416 -7.4826031 0.28860083 3
-9.0600863 -13.887545 0.46113834 11
-5.3740525 -11.635849 0.28100902 44
-8.5452213 -15.447767 0.28287446 3
-11.246405 -17.238792 0.20836639 20
-5.3803277 -11.649436 0.054198317 51
-11.725516 -21.197001 -0.040164895 35
-12.444324 -19.074995 -0.17172538 42
-5.3748584 -11.637594 -0.17228325 38
-11.763993 -21.266556 -0.47004485 52
-12.42542 -19.046019 -0.57404083 41
-5.3878288 -11.665677 -0.40000412 43
-11.738768 -21.220955 -0.8990047 55
-12.444127 -19.074694 -0.97844779 58
-5.3689499 -11.624801 -0.62513661 46
-5.766995 -10.425382 -0.65254647 2
-6.4727192 -9.9215584 -0.71832156 25
-4.8965836 -10.602038 -0.77709639 1
-5.441896 -9.8376789 -0.81474936 0
-6.4016075 -9.8125563 -0.91796172 0
-4.532445 -9.8136082 -0.91056722 22
-5.3685603 -9.7051048 -0.99999315 0
-6.3330741 -9.7075071 -1.1131959 8
-4.4833302 -9.7072659 -1.0900723 14
-5.3053541 -9.5908432 -1.1821682 62
-5.2983785 -9.5782328 -1.3746527 38
-5.3626757 -9.6944675 -1.5874089 4
-5.2910886 -9.5650539 -1.7616198 22
-5.2947073 -9.5715961 -1.9563121 1
-4.9888425 -9.0186644 -2.0271077 3
-4.636353 -8.3814449 -2.0535905 3
-4.2228308 -7.6338935 -2.0251691 6
-3.8996973 -7.0497437 -2.0124347 5
-2.7225101 -4.9216633 -1.9349087 5
-1.9672352 -3.5563025 -1.8944529 5
-1.2833493 -2.2822328 0.69115305 4
-2.2387307 -3.9812269 0.88262177 40
-2.3280549 -4.1400757 0.66448998 7
-4.3908505 -7.8084297 0.77776331 22
-4.1509252 -7.3817611 0.43567964 16
-4.2049952 -7.4779158 0.2895453 4
-9.2009802 -13.890626 0.46336228 10
-5.4704738 -11.630616 0.28179812 43
-8.6018896 -15.297094 0.28120825 3
-11.304634 -17.06649 0.20723265 10
-5.4768472 -11.644166 0.054350369 50
-11.796751 -20.978647 -0.039906237 38
-12.49988 -18.870941 -0.17066981 27
-5.4798059 -11.650457 -0.17303582 36
-11.839646 -21.054932 -0.46718296 49
-12.547043 -18.942142 -0.57353616 19
-5.486156 -11.663958 -0.40124869 43
-11.821977 -21.023508 -0.89411473 57
-12.501957 -18.874077 -0.97261041 37
-5.4635787 -11.615956 -0.62669706 44
-5.8337636 -10.374422 -0.65189016 1
-6.5682859 -9.9160738 -0.72122675 9
-4.9008327 -10.419518 -0.76620752 0
-6.0521016 -10.762701 -0.89483649 0
-6.5007868 -9.8141708 -0.92233592 0
-4.5974536 -9.7745132 -0.90989572 44
-5.4654737 -9.7194767 -1.005381 1
-6.4358716 -9.7161694 -1.1193144 5
-4.5526838 -9.6793299 -1.0904779 10
-5.397522 -9.5986347 -1.1877445 80
-5.3845706 -9.5756035 -1.379637 35
-5.3894691 -9.5843153 -1.5754948 35
-5.4235463 -9.6449156 -1.7832582 3
-5.8091488 -10.330648 -2.1196902 4
-4.982429 -8.8604584 -1.9993179 4
-4.6966701 -8.3522816 -2.0544293 3
-4.2817516 -7.6144147 -2.0278828 5
-3.9488187 -7.0223465 -2.0124347 5
-2.764219 -4.9157243 -1.9401135 6
-1.9831301 -3.5266817 -1.8860031 6
-1.2934936 -2.2631443 0.68809032 5
-2.2703679 -3.9723198 0.8841396 33
-2.3569014 -4.1237221 0.66448998 6
-4.4590983 -7.8018045 0.78018516 20
-4.2182164 -7.3803482 0.43732372 16
-4.2789202 -7.486557 0.29102945 6
-4.9712834 -7.3924766 0.24774927 0
-5.5670834 -11.624602 0.28258723 45
-8.6687822 -15.167222 0.27992654 4
-11.376629 -16.917454 0.20638233 20
-5.5752821 -11.641723 0.054519318 48
-11.869483 -20.767288 -0.039660841 34
-12.774168 -18.995646 -0.17259999 11
-5.5782838 -11.64799 -0.17357336 34
-11.901016 -20.822458 -0.463857 45
-12.810628 -19.049862 -0.57949156 16
-5.5864477 -11.665037 -0.40261772 47
-11.887137 -20.798176 -0.88803941 52
-12.718157 -18.912354 -0.97913456 5
-5.5635228 -11.617167 -0.62884259 45
-5.8941574 -10.312636 -0.65057766 1
-12.775619 -18.997803 -1.3882223 21
-4.9389772 -10.313057 -0.76089585 0
-5.6242542 -9.8404045 -0.82139921 0
-6.5936203 -9.8049488 -0.92577279 0
-4.6776319 -9.7673426 -0.91224599 39
-6.0768285 -10.632244 -1.1041591 0
-6.5390949 -9.7238674 -1.1254331 2
-4.6235852 -9.6544886 -1.0912893 12
-5.4979496 -9.6194172 -1.1950365 51
-5.4808311 -9.5894651 -1.3871133 35
-5.4798269 -9.5877085 -1.5823028 36
-5.4809504 -9.589674 -1.7800761 35
-5.8830829 -10.29326 -2.1203945 3
-4.9993715 -8.7470865 -1.9815633 4
-4.7568064 -8.3226852 -2.0552678 3
-4.3309393 -7.5775719 -2.0260737 3
-3.9900448 -6.9811306 -2.0085573 5
-2.7984698 -4.8963065 -1.9401135 5
-2.0148985 -3.5253413 -1.8927629 5
-1.3073192 -2.2507145 0.68706942 5
-2.3118527 -3.9801455 0.88945204 31
-2.3756845 -4.0900402 0.66171896 6
-4.5354738 -7.8083892 0.78399092 22
-4.2917089 -7.3887172 0.43958431 13
-4.3431287 -7.4772434 0.29183897 8
-5.0971661 -7.466567 0.2514188 0
-5.6726341 -11.63578 0.28381473 42
-8.7162027 -15.006041 0.27806804 3
-11.429059 -16.741819 0.20520811 8
-5.6809578 -11.652854 0.054755844 48
-11.935822 -20.549023 -0.039402187 45
-12.992168 -19.031534 -0.17374603 12
-5.6804957 -11.651906 -0.17421842 36
-11.971772 -20.610914 -0.46099511 49
-13.051528 -19.118486 -0.58433664 12
-5.6817622 -11.654504 -0.40361339 45
-11.949731 -20.572966 -0.88196403 53
-12.64484 -18.522753 -0.96351099 24
-5.6654968 -11.62114 -0.63118321 48
-5.9700212 -10.278144 -0.65101516 1
-13.009238 -19.05654 -1.399117 18
-4.9688768 -10.192225 -0.75452185 0
-5.7108507 -9.8319483 -0.82400131 0
-6.7181201 -9.8410158 -0.93358392 0
-4.7526913 -9.7487812 -0.913589 52
-5.6486692 -9.7248955 -1.0140016 0
-6.6449847 -9.7338839 -1.131934 1
-4.710053 -9.6613216 -1.0957519 40
-5.592936 -9.6289434 -1.2010418 85
-5.5715652 -9.5921507 -1.3930944 38
-5.5784478 -9.6040001 -1.5913802 32
-5.5695834 -9.5887394 -1.7870767 34
-5.9646883 -10.268962 -2.1239154 4
-5.0169477 -8.6373072 -1.9645808 3
-4.8246155 -8.3061829 -2.0594604 3
-4.3876491 -7.5538902 -2.0278828 3
-4.0503798 -6.9732389 -2.0143735 4
-2.8306844 -4.8733797 -1.9388124 5
-2.0376401 -3.5080538 -1.891073 5
-1.3426585 -2.2748394 0.69727844 5
-2.2198088 -3.7609777 0.84391695 10
-2.4041805 -4.0733547 0.66171896 7
-4.6081057 -7.8074212 0.78710473 22
-4.363492 -7.3929768 0.44163939 14
-4.4053841 -7.4639544 0.29251361 10
-5.167388 -7.4570923 0.25230837 1
-5.7715039 -11.631718 0.28469151 46
-8.7577314 -14.83805 0.27608138 4
-11.497819 -16.592581 0.20435779 16
-5.7763948 -11.641575 0.054891001 49
-12.003764 -20.337736 -0.039156791 39
-12.696415 -18.322283 -0.16807614 26
-5.7830362 -11.654959 -0.17486346 37
-12.040159 -20.399401 -0.45813322 51
-12.669957 -18.284101 -0.56152439 78
-5.7878661 -11.664694 -0.40535578 44
-12.030082 -20.382326 -0.87737048 57
-12.671418 -18.286209 -0.95578504 29
-5.7642479 -11.617093 -0.63313371 43
-6.045691 -10.243093 -0.65145266 1
-12.682594 -18.302338 -1.3502121 26
-5.0203977 -10.11796 -0.75160044 0
-5.901022 -9.997983 -0.84134871 0
-6.8661551 -9.9085951 -0.94451946 0
-4.8436661 -9.7617807 -0.91795379 41
-5.9837174 -10.138093 -1.0614151 0
-6.7649384 -9.7625284 -1.1407294 0
-4.7933059 -9.6602859 -1.099403 43
-5.6822586 -9.6273365 -1.2057601 71
-5.6626029 -9.5940342 -1.3990755 36
-5.67555 -9.6159706 -1.5998902 31
-5.6624842 -9.593833 -1.7953503 24
-6.044239 -10.240633 -2.1267323 4
-5.0472007 -8.5513716 -1.9530017 4
-4.8904381 -8.2857714 -2.0628147 3
-4.4462194 -7.5331407 -2.0305963 3
-4.1088266 -6.9615026 -2.0192204 5
-2.8665607 -4.8567562 -1.9401135 5
-2.0620811 -3.4937429 -1.891073 5
-1.3604958 -2.2687278 0.69829935 5
-2.4318318 -4.0552602 0.91373742 18
-2.4264464 -4.0462799 0.66005635 6
-4.6809425 -7.80582 0.79021859 22
-4.4252687 -7.3794646 0.44266695 16
-4.4779434 -7.4673033 0.29386285 11
-5.2469254 -7.4600821 0.25364277 2
-5.8705926 -11.626839 0.2855683 46
-8.7973404 -14.670219 0.27409473 4
-11.594968 -16.485733 0.20403387 10
-5.8791623 -11.643811 0.055093739 50
-12.069337 -20.126516 -0.038911399 50
-5.8858948 -11.657146 -0.17550851 37
-12.112346 -20.198236 -0.45550337 72
-12.790395 -18.185392 -0.5612216 1
-5.8835764 -11.652554 -0.40635142 29
-12.096016 -20.171005 -0.87188786 55
-12.796473 -18.194033 -0.95561337 12
-5.87042 -11.626497 -0.63586444 46
-6.139647 -10.238317 -0.65385896 1
-13.533598 -19.242079 -1.4264747 22
-5.0729227 -10.047036 -0.74894458 0
-6.0301766 -10.055768 -0.84973329 0
-6.9305744 -9.8538952 -0.94389457 0
-4.9188843 -9.7419596 -0.91929686 58
-6.0195165 -10.037992 -1.0553088 0
-6.8718696 -9.7704287 -1.1472304 0
-4.8839474 -9.6727667 -1.1046768 38
-5.7718277 -9.6249514 -1.2104785 77
-5.7620997 -9.6087294 -1.4070503 35
-5.7649407 -9.6134682 -1.606131 33
-5.7597861 -9.6048717 -1.8048966 23
-6.1176076 -10.201566 -2.1274366 3
-5.1854968 -8.6472015 -1.9831072 2
-4.9441395 -8.2447205 -2.0611374 3
-4.5027084 -7.5086007 -2.0324051 3
-4.1613169 -6.9393048 -2.0211592 6
-2.9023416 -4.8398705 -1.9414148 6
-2.0920146 -3.4885898 -1.8961428 9
-1.3923984 -2.2855976 0.70646662 4
-2.472343 -4.0583076 0.91829091 29
-2.4566965 -4.0326242 0.66061056 7
-4.7519097 -7.8001766 0.79298639 25
-4.5078545 -7.3995638 0.44574958 15
-4.5445247 -7.4597573 0.29480731 11
-5.3244305 -7.4590683 0.25486594 4
-5.9790297 -11.638927 0.28688347 22
-8.8475246 -14.523056 0.27249259 4
-11.656326 -16.32951 0.20310257 7
-11.445399 -22.279898 0.10579485 21
-12.130472 -19.911957 -0.038659371 40
-12.785999 -17.912083 -0.16593485 0
-11.411572 -22.214048 -0.33564323 31
-12.178157 -19.990231 -0.45271885 85
-12.805522 -17.939434 -0.55637652 2
-11.377847 -22.148397 -0.77511692 38
-12.161675 -19.963177 -0.86655337 56
-12.818693 -17.957886 -0.94788742 0
-11.422759 -22.235825 -1.2204306 41
-6.219286 -10.208849 -0.65473402 1
-13.785902 -19.312862 -1.438822 22
-5.1210561 -9.9687738 -0.74575758 0
-6.0462661 -9.92484 -0.84221607 0
-7.026999 -9.8442202 -0.94764394 25
-5.0031681 -9.7392902 -0.92231864 57
-6.0500679 -9.9310799 -1.0484842 0
-6.9815497 -9.78055 -1.1541138 0
-4.9695406 -9.673831 -1.1087337 41
-5.8699179 -9.6353674 -1.2169126 67
-5.8558841 -9.6123304 -1.4135298 37
-5.8628159 -9.6237097 -1.6146411 33
-5.8575187 -9.6150141 -1.814443 30
-6.1968732 -10.172059 -2.1302533 3
-5.5275269 -9.0733385 -2.0896347 3
-5.0076828 -8.2200232 -2.0636532 3
-4.5469103 -7.4636736 -2.0287871 4
-4.2116799 -6.9133983 -2.0221286 8
-2.9380274 -4.8227205 -1.942716 6
-2.1219773 -3.4831886 -1.9012128 11
-1.4083208 -2.275821 0.70646662 4
-2.5026815 -4.0442882 0.9190498 49
-2.4764516 -4.0019011 0.65839374 5
-4.8293157 -7.8040872 0.79679221 23
-4.5741172 -7.3916907 0.44718814 14
-4.6133223 -7.4550452 0.2958867 11
-5.3927946 -7.4443822 0.25564432 8
-7.7918687 -14.910812 0.36886269 13
-8.8981886 -14.379312 0.27095452 3
-11.694955 -16.144081 0.20180686 7
-10.674384 -20.426903 0.097347476 1
-12.195518 -19.707737 -0.038427245 44
-12.845034 -17.731686 -0.1650904 2
-11.486718 -21.981415 -0.33333179 38
-12.239552 -19.778894 -0.44985697 102
-12.897609 -17.804262 -0.55496335 0
-11.454419 -21.919605 -0.76988971 36
-12.227128 -19.758818 -0.86136711 55
-14.012822 -19.343739 -1.0261769 8
-11.494444 -21.996199 -1.2116532 41
-6.3051171 -10.188955 -0.65626526 1
-14.044538 -19.38752 -1.4516535 14
-5.1738873 -9.9009447 -0.74336731 5
-6.0860157 -9.8348913 -0.83816832 0
-7.1095896 -9.8142996 -0.94951856 1
-5.0728827 -9.7076578 -0.92265439 2
-6.047976 -9.7734203 -1.0362716 0
-7.0636754 -9.7509184 -1.1564083 1
-5.0498543 -9.6635904 -1.1115735 42
-5.960062 -9.6313524 -1.2216311 87
-5.9499974 -9.6150885 -1.4200093 40
-5.9590292 -9.6296835 -1.6225837 34
-5.945281 -9.6074667 -1.8208072 26
-6.2573767 -10.111808 -2.1267323 2
-5.5928006 -9.0378647 -2.0904067 3
-5.0567145 -8.1715593 -2.0602989 3
-4.6112075 -7.4516282 -2.0342143 3
-4.2557578 -6.8772273 -2.0201898 8
-2.9756055 -4.8085246 -1.9453185 5
-2.1500583 -3.4744554 -1.9045928 11
-1.429554 -2.2762563 0.70952934 3
-2.5294483 -4.0276012 0.9190498 46
-2.498724 -3.9786792 0.65728539 8
-4.8958025 -7.7955093 0.79921407 22
-4.6485333 -7.4017868 0.44965425 13
-4.6796718 -7.4513688 0.29696608 14
-5.4775558 -7.456789 0.2573123 10
-7.9018435 -14.879998 0.36938876 15
-8.9380522 -14.231921 0.2692883 3
-11.735468 -15.975904 0.20067312 15
-10.704569 -20.157824 0.096401371 1
-12.266386 -19.531574 -0.038241543 44
-12.926832 -17.59775 -0.16463801 4
-11.549715 -21.749321 -0.33096659 38
-12.293886 -19.575363 -0.44707245 72
-12.901776 -17.563641 -0.55011827 52
-11.532039 -21.716036 -0.76540929 39
-12.277116 -19.54866 -0.85573626 57
-12.875067 -17.527281 -0.93432409 36
-11.557629 -21.764225 -1.2030711 50
-12.26079 -19.522665 -1.2626544 40
-12.877499 -17.53059 -1.3189807 24
-5.2338238 -9.8558378 -0.74257058 22
-6.1871781 -9.8517466 -0.84308344 0
-12.894785 -17.554123 -1.7065715 9
-5.1876292 -9.7688484 -0.93171978 2
-6.1126609 -9.7330942 -1.0362716 1
-7.0999045 -9.665349 -1.1518193 3
-5.1268992 -9.6544876 -1.1144133 52
-6.0491872 -9.6320267 -1.2267784 58
-6.0431852 -9.6224699 -1.4269872 38
-6.0564561 -9.6436005 -1.6316612 34
-6.0319705 -9.6046124 -1.8278079 33
-6.3222065 -10.066751 -2.1260281 3
-5.652617 -9.0005741 -2.0904067 3
-5.1087174 -8.134531 -2.0594604 3
-4.6522365 -7.4076834 -2.0305963 3
-4.3033376 -6.8521376 -2.0211592 8
-3.0094419 -4.7918873 -1.9466196 6
-2.1788383 -3.4693301 -1.9096626 11
-1.4516497 -2.2760031 0.71259201 4
-2.5638404 -4.0197778 0.92132658 44
-2.4774446 -3.88432 0.6445387 9
-4.9715352 -7.7947388 0.80267388 22
-4.7129831 -7.3893619 0.45088732 13
-4.7530756 -7.4522219 0.29831532 14
-5.5557661 -7.4536309 0.25853547 11
-8.0796404 -14.9617 0.37280822 15
-8.9812746 -14.081503 0.26762205 3
-11.844324 -15.890376 0.20063263 9
-12.32716 -19.327429 -0.038009413 52
-12.980051 -17.41407 -0.1637634 5
-11.630954 -21.537945 -0.32897767 62
-12.354979 -19.371044 -0.44436526 75
-12.971506 -17.402607 -0.54789764 26
-11.599776 -21.480211 -0.75993317 39
-12.346659 -19.358 -0.8511427 55
-12.987564 -17.42415 -0.93363732 39
-11.635252 -21.545904 -1.1954641 44
-12.317319 -19.311998 -1.2545605 45
-12.939919 -17.360229 -1.3129281 26
-5.3214679 -9.8541765 -0.74522644 31
-6.2815495 -9.8486757 -0.84655291 0
-12.943143 -17.364555 -1.6968856 11
-5.9678264 -11.051089 -1.0579636 1
-6.2104535 -9.7372065 -1.0413003 0
-7.3004632 -9.7943211 -1.1732343 0
-5.2187562 -9.6639786 -1.1196872 36
-6.146224 -9.6365023 -1.2327836 60
-6.1315579 -9.6135073 -1.4319714 37
-6.1513133 -9.6444817 -1.6390365 36
-6.1349773 -9.6188688 -1.8386271 28
-6.3796272 -10.002449 -2.1218028 3
-5.7216473 -8.9708195 -2.0927224 3
-5.1716924 -8.1085606 -2.061976 3
-4.6996479 -7.368454 -2.0287871 3
-4.3531566 -6.8251996 -2.0221286 8
-3.0489242 -4.7803278 -1.9505234 5
-2.1932578 -3.4387512 -1.9012128 11
-1.4822208 -2.2885363 0.71973836 5
-2.5918412 -4.001781 0.92132658 50
-2.4291298 -3.7505555 0.62514156 16
-5.0496612 -7.7966332 0.80647963 24
-4.8057156 -7.4199839 0.45479199 11
-4.8180256 -7.4389906 0.29912484 11
-5.6269603 -7.440177 0.25942504 11
-8.2358627 -14.999575 0.37517554 14
-9.0467501 -13.968105 0.26666078 6
-11.911539 -15.749882 0.19990379 6
-11.730013 -21.3633 0.10293964 38
-12.392207 -19.133463 -0.037797183 47
-13.02892 -17.227325 -0.16285864 0
-11.694408 -21.298454 -0.32655874 57
-12.424692 -19.183619 -0.44204479 76
-13.032377 -17.231895 -0.54537416 17
-11.678256 -21.269037 -0.7553283 41
-12.403275 -19.150551 -0.84580827 56
-13.128172 -17.358559 -0.93501085 79
-11.706549 -21.320566 -1.187467 45
-12.373678 -19.104855 -1.2466853 47
-14.859877 -19.648285 -1.4937795 23
-5.4016585 -9.8377771 -0.74681991 37
-6.40871 -9.8949938 -0.85435927 0
-14.904227 -19.706926 -1.9359056 19
-6.0179749 -10.960243 -1.0532631 3
-6.3302565 -9.7738619 -1.0499209 0
-7.4022851 -9.7875776 -1.178588 24
-5.3014188 -9.6552153 -1.1229327 57
-6.2414551 -9.6367531 -1.2383598 69
-6.2287283 -9.6171036 -1.4389493 38
-6.2486291 -9.64783 -1.6469792 32
-6.2298875 -9.6188936 -1.8469006 31
-6.4621453 -9.9774971 -2.1260281 2
-5.7798686 -8.9240675 -2.0911784 2
-5.2090397 -8.0427122 -2.0544293 2
-4.7658014 -7.358357 -2.0351188 3
-4.4049187 -6.801157 -2.0240674 7
-3.0842788 -4.7621002 -1.9518245 6
-2.2053862 -3.4050975 -1.891073 10
-1.5138401 -2.3002243 0.72688472 11
-2.6167879 -3.9761128 0.91980875 57
-2.4587352 -3.7359579 0.62569577 21
-5.1220126 -7.7827101 0.80890149 21
-4.8665662 -7.3945684 0.45540851 10
-4.8922062 -7.4335275 0.30033916 16
-5.7008305 -7.4241004 0.26031464 14
-8.4060516 -15.047029 0.37789357 16
-9.0851345 -13.804528 0.26480231 3
-11.982823 -15.60504 0.19917496 7
-11.810212 -21.140556 0.10228074 44
-12.459562 -18.931847 -0.037578318 30
-13.054974 -17.001284 -0.16162211 0
-11.77609 -21.079475 -0.32451606 37
-12.490229 -18.978443 -0.43941498 116
-13.095024 -17.05344 -0.5427497 20
-11.750002 -21.03278 -0.74997663 40
-12.473001 -18.952267 -0.84106654 53
-13.133368 -17.103376 -0.92642647 11
-11.788474 -21.101645 -1.1800551 44
-12.43215 -18.890194 -1.2385913 23
-15.161567 -19.744667 -1.5095162 18
-5.4930911 -9.8327618 -0.74947578 21
-6.6017008 -10.031041 -0.87026101 0
-15.201296 -19.796404 -1.9555897 20
-5.9873481 -10.717493 -1.034125 4
-7.0565796 -10.722213 -1.1573197 0
-7.5320334 -9.8088465 -1.1877658 20
-5.3933988 -9.6543093 -1.1273952 42
-6.3469095 -9.6438951 -1.2452229 66
-6.3339672 -9.6242304 -1.4469242 38
-6.349658 -9.6480722 -1.654922 31
-6.3327951 -9.6224489 -1.8564469 33
-6.5286164 -9.9199924 -2.1239154 3
-5.8516026 -8.8912954 -2.0934944 2
-4.9990873 -7.5959296 -1.9496113 4
-4.8367496 -7.3492632 -2.0423546 3
-4.4589219 -6.7751679 -2.0260062 6
-3.1170247 -4.7362041 -1.9505234 5
-2.2442393 -3.4100389 -1.9029027 10
-1.5406052 -2.3056781 0.73198926 7
-2.2975581 -3.4385378 0.79914075 14
-2.5067658 -3.7516394 0.6312378 20
-5.2005749 -7.7832088 0.81270725 23
-4.9424844 -7.3969488 0.45766911 9
-4.9706354 -7.4390798 0.30195823 16
-5.7770944 -7.4156632 0.26142663 14
-8.5800095 -15.109689 0.38096231 16
-9.1346254 -13.67093 0.26345649 4
-12.049686 -15.467362 0.19848661 6
-11.890358 -20.939327 0.10170632 50
-12.518093 -18.734646 -0.037359454 47
-13.131557 -16.856087 -0.1611094 0
-11.845942 -20.861107 -0.32241964 38
-12.562428 -18.800999 -0.43732658 125
-13.154781 -16.885899 -0.54032719 26
-11.817585 -20.811171 -0.74499834 37
-12.658308 -18.944492 -0.84462279 21
-13.188597 -16.929304 -0.92196256 5
-11.854619 -20.876389 -1.1720581 46
-12.670236 -18.962343 -1.2490916 16
-15.441358 -19.82102 -1.5235583 19
-5.5773692 -9.8219376 -0.75160044 4
-6.6516213 -9.9548531 -0.86765891 0
-15.498426 -19.894276 -1.9758985 16
-6.0836749 -10.713559 -1.0378183 3
-6.6354828 -9.9306993 -1.0768604 0
-7.6712904 -9.8471136 -1.1988558 9
-5.4803166 -9.6510248 -1.131452 33
-6.445014 -9.6456432 -1.2512281 68
-6.4318728 -9.6259756 -1.4539021 39
-6.4498568 -9.6528912 -1.663432 34
-6.4327283 -9.6272564 -1.8659933 30
-6.6042747 -9.8839931 -2.1260281 2
-5.9178944 -8.8567524 -2.0950382 2
-5.0172291 -7.508812 -1.9361947 5
-4.8836098 -7.3088369 -2.0405457 3
-4.5061131 -6.7438736 -2.0260062 6
-3.1500137 -4.7143278 -1.9505234 5
-2.274034 -3.4033315 -1.9079727 8
-1.5675192 -2.3108702 0.73709375 2
-2.2311158 -3.2891583 0.7680251 11
-2.537343 -3.7406049 0.63234621 22
-5.2458353 -7.7335224 0.81132334 20
-5.029882 -7.4151592 0.46095726 8
-5.0404 -7.430665 0.30303761 17
-5.8559966 -7.4096575 0.2626498 17
-8.7432547 -15.149866 0.38350499 16
-9.1871834 -13.543941 0.26223886 4
-12.090414 -15.298135 0.19739336 6
-11.954278 -20.713766 0.10101363 53
-12.581213 -18.547491 -0.037160486 42
-13.206754 -16.710651 -0.16059671 7
-11.919318 -20.653189 -0.32048446 40
-12.872975 -18.977615 -0.44351444 33
-13.153334 -16.643061 -0.53548211 48
-11.888644 -20.600039 -0.74039346 39
-12.900204 -19.017756 -0.85188359 15
-13.261862 -16.780382 -0.91887224 1
-11.926185 -20.665087 -1.1648412 43
-12.930103 -19.061834 -1.2615607 11
-13.207672 -16.711815 -1.291623 6
-5.6737332 -9.8311558 -0.75531858 0
-6.7142363 -9.8982697 -0.86679155 0
-13.161831 -16.653812 -1.6631416 6
-6.7583213 -9.9632607 -1.085481 0
-7.8163838 -9.8901577 -1.2107105 2
-5.5793858 -9.667676 -1.1379429 39
-6.5389843 -9.6399097 -1.2563754 68
-6.5367904 -9.6366758 -1.4623753 33
-6.5482059 -9.6535044 -1.6713747 30
-6.5308161 -9.6278677 -1.8749032 29
-6.6775355 -9.8441648 -2.1274366 2
-5.9817834 -8.8184719 -2.0958102 2
-5.0431795 -7.434763 -1.9261322 5
-4.93014 -7.268117 -2.0387368 3
-4.5596185 -6.7218866 -2.0289142 5
-3.1849713 -4.6953526 -1.9518245 5
-2.2916317 -3.3783722 -1.9029027 8
-1.5923874 -2.3126121 0.74117738 1
-2.2339785 -3.2443898 0.76119488 15
-2.5768752 -3.7423763 0.63567144 20
-5.2364178 -7.6048093 0.80163592 23
-5.1109791 -7.4226356 0.46362889 8
-5.1148252 -7.4282217 0.30438685 18
-5.9375954 -7.4060297 0.26398417 16
-8.9236603 -15.216092 0.38674906 15
-9.2202721 -13.390532 0.26050854 3
-12.14688 -15.150941 0.19658354 6
-12.017655 -20.491787 0.10033785 44
-12.633264 -18.347191 -0.03693499 42
-13.268049 -16.549387 -0.15993321 3
-11.980258 -20.42802 -0.31828055 41
-13.107215 -19.035507 -0.44699508 19
-16.100634 -20.082502 -0.64974517 14
-11.971494 -20.413076 -0.73665977 35
-13.127871 -19.065506 -0.85810715 13
-13.2487 -16.525253 -0.90994447 64
-11.997403 -20.457254 -1.1578194 43
-12.612109 -18.316469 -1.2180284 13
-13.25409 -16.531977 -1.284844 6
-5.7745342 -9.8463907 -0.75956792 0
-6.7967515 -9.8708696 -0.86852628 2
-16.079004 -20.055523 -2.0140166 13
-5.766881 -9.8333406 -0.96025896 0
-6.8254542 -9.9125557 -1.0851219 0
-16.121653 -20.108719 -2.4753408 9
-5.6628475 -9.6559486 -1.1411884 48
-6.6422114 -9.6464329 -1.2632385 69
-6.6309185 -9.6300316 -1.4683564 40
-6.6491246 -9.6564732 -1.6798848 32
-6.6404243 -9.6438379 -1.8869952 30
-6.7460985 -9.797307 -2.1274366 2
-6.0365243 -8.766798 -2.0934944 2
-5.2147384 -7.5733242 -1.9714135 2
-4.9851804 -7.2399392 -2.0405457 3
-4.6064353 -6.6898904 -2.0289142 5
-3.2176735 -4.6730027 -1.9518245 6
-2.3151615 -3.3622913 -1.9029027 7
-1.6062779 -2.2982688 0.74015647 0
-2.2250764 -3.1836481 0.75057 16
-2.6120164 -3.7372832 0.63788825 26
-5.2391591 -7.4962087 0.79402435 20
-5.1970005 -7.4358883 0.46671152 7
-5.17801 -7.4087167 0.30506146 18
-6.0219493 -7.404726 0.26542976 18
-9.0992718 -15.270226 0.38973013 16
-9.2631245 -13.253715 0.25909868 2
-12.209452 -15.013021 0.19589518 7
-12.0949 -20.297432 0.099797212 39
-12.699173 -18.170025 -0.036755919 31
-13.312593 -16.369469 -0.15908876 2
-12.052969 -20.227064 -0.31645289 40
-12.756383 -18.251883 -0.43067461 147
-16.429663 -20.202288 -0.65731561 16
-12.023663 -20.177883 -0.73118365 37
-12.736272 -18.223106 -0.82417405 27
-13.323398 -16.382753 -0.90719748 16
-12.058124 -20.235716 -1.1500174 47
-12.723659 -18.205059 -1.2164971 9
-16.359419 -20.115915 -1.5722212 18
-5.8737798 -9.8572664 -0.76355165 0
-6.9043498 -9.8787699 -0.8734414 22
-16.412359 -20.181009 -2.038075 17
-5.9924965 -10.056494 -0.98611206 0
-6.9583917 -9.9560938 -1.0951793 0
-16.41991 -20.190296 -2.4994326 6
-5.7504907 -9.6503649 -1.1452452 68
-6.7390108 -9.6422024 -1.2688148 68
-6.7366376 -9.6388063 -1.4768295 36
-6.7594743 -9.6714821 -1.6906642 31
-6.7392607 -9.64256 -1.8959051 27
-6.8210983 -9.759654 -2.1295493 2
-6.0998292 -8.7276592 -2.0942662 2
-5.5184221 -7.8957791 -2.0653303 3
-5.0110497 -7.1698294 -2.0305963 3
-4.648581 -6.6512074 -2.0269754 6
-3.2502186 -4.6504254 -1.9518245 6
-2.342732 -3.3519897 -1.9062827 8
-1.6245214 -2.2901533 0.74117738 0
-2.2222536 -3.1328003 0.74222189 14
-2.6586714 -3.7480361 0.64287609 23
-5.2475576 -7.3976932 0.78745073 23
-5.2811427 -7.4450393 0.46958867 6
-5.2573619 -7.4115148 0.30668056 17
-6.1091199 -7.4056869 0.26698652 25
-9.2760668 -15.322644 0.39271119 14
-9.302206 -13.113694 0.25762469 2
-12.25797 -14.859536 0.19500439 6
-12.157587 -20.082474 0.09915521 48
-12.723886 -17.937376 -0.036464099 30
-13.373099 -16.211334 -0.15845542 2
-12.117242 -20.015831 -0.31446397 44
-13.614669 -19.193148 -0.45511666 32
-16.743334 -20.29685 -0.6641795 16
-12.091764 -19.973745 -0.72682768 40
-12.819241 -18.0718 -0.82135862 25
-13.378957 -16.218435 -0.90324861 22
-12.132888 -20.041676 -1.1437757 47
-13.69158 -19.301571 -1.296124 15
-16.677309 -20.216812 -1.5891683 20
-5.9713883 -9.863821 -0.76726985 0
-13.710857 -19.328749 -1.7173922 18
-16.707645 -20.253586 -2.0571342 17
-6.0481062 -9.9905472 -0.98376179 0
-7.0599976 -9.9527626 -1.1002079 0
-13.266617 -16.082253 -2.0022995 2
-5.8486328 -9.661047 -1.1513305 55
-6.85218 -9.6597939 -1.2773937 69
-6.8405046 -9.6433344 -1.4848044 36
-6.8566103 -9.6660395 -1.6980395 30
-6.8429708 -9.6468115 -1.9060879 32
-6.8981795 -9.7246418 -2.1323659 2
-6.15834 -8.6816597 -2.0934944 2
-5.5779357 -7.863441 -2.0670073 3
-5.0158958 -7.0711107 -2.0125062 2
-4.7083731 -6.6375833 -2.0327919 5
-3.2935476 -4.6430464 -1.9583306 5
-2.3639784 -3.3325956 -1.9045928 9
-1.6223928 -2.2536464 0.73301017 2
-2.2234187 -3.0885243 0.73539162 16
-2.7032878 -3.7551045 0.64730972 21
-5.2455244 -7.2864947 0.77949315 22
-5.3633294 -7.4501362 0.47226027 4
-5.3440094 -7.4232993 0.30870441 19
-6.1940289 -7.4027224 0.26843211 19
-9.4666061 -15.39377 0.39621833 13
-9.3444567 -12.980272 0.2562789 2
-12.271575 -14.666232 0.1935872 9
-12.230442 -19.888079 0.098614581 55
-12.799722 -17.77994 -0.036324821 35
-13.403812 -16.019411 -0.15749033 38
-12.183353 -19.811506 -0.31258255 41
-13.879174 -19.279394 -0.45944816 19
-13.369132 -15.977963 -0.52589285 46
-12.168082 -19.786674 -0.72309399 41
-12.88904 -17.904011 -0.81780231 30
-13.39697 -16.011234 -0.89689618 26
-12.190887 -19.823757 -1.1361687 44
-13.949668 -19.377316 -1.3077179 8
-13.379619 -15.990498 -1.2642653 44
-6.0651937 -9.862689 -0.77045685 0
-13.975988 -19.413877 -1.7335831 14
-13.345326 -15.949513 -1.6293976 49
-6.0613308 -9.8564081 -0.9746964 0
-7.1176686 -9.8870678 -1.098412 0
-13.324911 -15.925114 -1.9942689 39
-5.9472051 -9.670826 -1.1574157 51
-6.9543018 -9.6601372 -1.2838279 78
-6.9424405 -9.6436605 -1.4922807 37
-6.9632502 -9.6725674 -1.7076843 32
-6.9470649 -9.6500845 -1.9162707 29
-6.9658999 -9.6762486 -2.1323659 2
-6.2187972 -8.6384573 -2.0934944 2
-5.6372652 -7.8306575 -2.0686843 3
-5.0309906 -6.9884887 -1.9989388 3
-4.7568636 -6.6077023 -2.0337613 5
-3.3258808 -4.6199412 -1.9583306 5
-2.3808315 -3.3071845 -1.8995228 9
-1.6426497 -2.2485108 0.73505193 2
-2.2263927 -3.0475569 0.72932029 17
-2.736448 -3.7457368 0.64897233 23
-5.2516017 -7.1885586 0.77291954 21
-5.4434891 -7.45122 0.47472638 2
-5.4169283 -7.4148626 0.3099187 19
-6.2766051 -7.3958821 0.26976648 22
-9.6458759 -15.442624 0.3991994 11
-9.3900223 -12.85336 0.25506127 7
-12.371078 -14.577153 0.19354671 9
-12.296941 -19.686861 0.098040164 55
-12.866907 -17.612631 -0.036165647 45
-13.445442 -15.843104 -0.15667604 52
-12.255681 -19.620808 -0.31091616 41
-14.150264 -19.369329 -0.46393433 14
-13.423431 -15.817168 -0.52367222 41
-12.227555 -19.575779 -0.71848905 43
-12.935907 -17.707079 -0.8129124 28
-13.456707 -15.856377 -0.89346242 61
-12.254907 -19.619568 -1.129342 49
-12.831177 -17.563721 -1.1913402 21
-13.436674 -15.832772 -1.2591811 49
-6.1444731 -9.8370314 -0.77178472 0
-12.830916 -17.563364 -1.5763 14
-13.399582 -15.789066 -1.6225239 51
-6.09832 -9.7631426 -0.96966004 0
-7.0243654 -9.6151733 -1.0736277 13
-13.368779 -15.752769 -1.9843262 47
-6.0398731 -9.6695719 -1.162284 45
-7.0614552 -9.6659431 -1.2911199 52
-7.0517387 -9.6526432 -1.5012523 37
-7.0633082 -9.6684799 -1.7156271 33
-7.0561981 -9.6587467 -1.9277263 28
-7.0263157 -9.6178436 -2.1302533 2
-6.2696929 -8.5821543 -2.0904067 2
-5.6964111 -7.7974281 -2.0703614 3
-5.0566721 -6.9217329 -1.9898939 2
-4.8074565 -6.5805988 -2.0356998 5
-3.3558221 -4.5935555 -1.9570295 6
-2.4188328 -3.3109751 -1.9113526 8
-1.6575263 -2.2375667 0.73505193 3
-2.2278543 -3.0074773 0.72324896 17
-2.7800946 -3.7529707 0.65340596 15
-5.2540936 -7.09273 0.76634592 22
-6.1466908 -8.2976856 0.53124142 9
-5.4921622 -7.4141088 0.31140286 22
-6.3672352 -7.4025946 0.27154565 11
-9.835865 -15.516792 0.40279421 8
-9.4298296 -12.729738 0.25384364 2
-12.417925 -14.437171 0.19277738 8
-12.34586 -19.476494 0.097398162 49
-12.933435 -17.459408 -0.03602637 41
-13.503268 -15.698999 -0.15613317 46
-12.310595 -19.420858 -0.30903476 39
-12.985787 -17.530079 -0.42193428 20
-13.481099 -15.673225 -0.52185529 42
-12.282201 -19.376064 -0.71413308 39
-12.967404 -17.505262 -0.80757797 38
-13.50945 -15.706186 -0.89002872 52
-12.307756 -19.41638 -1.1223202 50
-12.947382 -17.478235 -1.1913402 18
-13.481499 -15.67369 -1.2536128 59
-6.263 -9.8803377 -0.77842432 0
-12.88775 -17.397736 -1.569072 7
-13.43379 -15.618223 -1.6140878 44
-6.1970816 -9.7763462 -0.97503215 0
-7.1235514 -9.6163921 -1.0790156 26
-13.405451 -15.585276 -1.9743836 46
-6.1422205 -9.6897993 -1.1695863 45
-7.1680174 -9.6764183 -1.2988409 38
-7.1534019 -9.6566887 -1.5092272 33
-7.1697016 -9.6786928 -1.7258391 33
-7.1553621 -9.6593351 -1.9372727 27
-7.0876055 -9.5678673 -2.1295493 1
-6.3381557 -8.5561523 -2.0942662 2
-5.7526569 -7.7657619 -2.0720387 3
-5.1210222 -6.9130907 -1.9971298 2
-4.8486853 -6.5454516 -2.0347304 5
-3.3839626 -4.5681586 -1.9557282 6
-2.4364231 -3.2890334 -1.9079727 8
-1.624308 -2.1610172 0.71361291 2
-2.2204795 -2.9541779 0.71414196 14
-2.7943268 -3.7176375 0.65063494 12
-5.2603836 -6.9985371 0.76011831 22
-6.1492648 -8.1811256 0.52651471 11
-5.5726123 -7.4139333 0.31302193 18
-6.4476724 -7.3911061 0.27276883 22
-10.026202 -15.575529 0.40612599 5
-9.4559908 -12.580471 0.25217742 1
-12.463195 -14.28683 0.19192708 7
-12.41008 -19.278841 0.096840635 43
-12.970893 -17.256779 -0.035794243 53
-13.557321 -15.541049 -0.15549983 57
-12.376597 -19.226826 -0.3073146 42
-13.035766 -17.343088 -0.41961384 19
-13.529731 -15.509423 -0.51953369 44
-12.337098 -19.165464 -0.70952815 41
-13.038861 -17.347206 -0.80446619 27
-13.550467 -15.533193 -0.8855648 49
-12.375965 -19.225843 -1.1162736 50
-13.073887 -17.393805 -1.1917777 15
-13.535475 -15.516007 -1.2485285 60
-6.3555856 -9.8732901 -0.78134573 0
-14.801903 -19.692797 -1.7853361 18
-13.495312 -15.469967 -1.6084639 46
-6.2889113 -9.7697124 -0.97872543 0
-7.3508868 -9.7797918 -1.1030815 30
-13.458961 -15.428298 -1.9663529 45
-6.2334089 -9.6834908 -1.1740488 37
-7.2807975 -9.6865425 -1.3069907 37
-7.2635665 -9.663619 -1.5181987 34
-7.2727823 -9.6758795 -1.7343491 29
-7.2653313 -9.665967 -1.9487283 25
-7.1400337 -9.4992676 -2.125324 1
-6.3977342 -8.5116949 -2.0942662 2
-5.8043814 -7.7222848 -2.0712001 4
-5.3026028 -7.0547066 -2.0486863 4
-4.8895993 -6.5052371 -2.0327919 5
-3.4203167 -4.5504694 -1.9583306 5
-2.4571466 -3.2690454 -1.9062827 8
-1.6370094 -2.1465499 0.71259201 1
-2.2219963 -2.9136217 0.70807058 13
-2.813005 -3.6885896 0.64897233 9
-5.277698 -6.9204507 0.75562054 21
-6.145668 -8.0585871 0.52137697 11
-5.6484756 -7.4066377 0.31437117 20
-6.5309091 -7.3818493 0.27410319 20
-10.22659 -15.645743 0.40980846 2
-9.5193329 -12.482349 0.25153655 1
-12.504325 -14.133567 0.19103627 8
-12.465584 -19.071198 0.096232422 38
-13.025556 -17.079931 -0.035615172 17
-13.596578 -15.368134 -0.1547157 40
-12.433934 -19.022776 -0.30543321 43
-14.977821 -19.639864 -0.47770232 19
-13.582035 -15.351697 -0.51741397 42
-12.404974 -18.97847 -0.70579445 41
-13.108743 -17.189011 -0.80135441 21
-13.605618 -15.378352 -0.88213104 50
-12.435565 -19.02527 -1.1096419 50
-15.045395 -19.72847 -1.3589066 13
-13.574681 -15.343385 -1.2422339 54
-6.4440122 -9.8587465 -0.78373599 0
-15.084175 -19.779322 -1.8026836 15
-13.55542 -15.321613 -1.6028398 42
-6.3962173 -9.7856245 -0.98476905 0
-14.975664 -19.637035 -2.2266371 18
-13.516215 -15.277301 -1.9590871 39
-6.333519 -9.689702 -1.1801341 50
-7.3868279 -9.6860752 -1.3138539 38
-7.3645463 -9.6568575 -1.5251766 37
-7.388175 -9.6878414 -1.7456958 4
-7.3709488 -9.6652527 -1.9589111 18
-7.2276645 -9.4773693 -2.1316619 1
-6.4593787 -8.469945 -2.0950382 2
-5.8700085 -7.697125 -2.0753927 4
-5.3611741 -7.0299096 -2.0523043 3
-4.9490137 -6.489459 -2.0386081 5
-3.449707 -4.5234733 -1.9570295 5
-2.4799082 -3.2518122 -1.9062827 8
-2.9891398 -3.863313 1.2894037 12
-2.2302666 -2.8825076 0.70427603 15
-3.1950388 -4.129427 0.7304402 7
-5.274673 -6.8172498 0.74835497 17
-6.1553321 -7.9554577 0.51747233 12
-5.729403 -7.4049654 0.31599024 20
-6.6303501 -7.3896451 0.27610478 20
-10.446135 -15.74057 0.41419238 1
-9.5377159 -12.327018 0.24974215 1
-12.549267 -13.986384 0.19022645 8
-12.532069 -18.883722 0.095725581 44
-13.085732 -16.912651 -0.035455998 45
-13.65011 -15.213295 -0.15411252 41
-12.517779 -18.86219 -0.3042506 23
-15.249171 -19.708788 -0.48195645 17
-13.624787 -15.185072 -0.51499146 41
-12.583593 -18.961361 -0.70840806 17
-13.174613 -17.027525 -0.79809445 24
-13.661939 -15.226478 -0.878869 47
-12.49518 -18.828138 -1.1032052 28
-13.071055 -16.893682 -1.1699022 0
-13.636138 -15.197722 -1.2381181 56
-6.5457869 -9.8634014 -0.78771973 0
-15.370816 -19.866009 -1.8203201 14
-13.608791 -15.167244 -1.596591 44
-6.4952345 -9.7872276 -0.98946959 0
-15.275731 -19.743114 -2.2507029 18
-13.577337 -15.132188 -1.9525862 42
-6.4362183 -9.6983004 -1.186625 51
-7.5029435 -9.6971769 -1.3224328 45
-7.4827871 -9.6711264 -1.5356436 35
-7.4968204 -9.6892633 -1.7553406 7
-7.4914103 -9.682271 -1.9729124 3
-7.291244 -9.4235668 -2.1309576 2
-6.525558 -8.4339561 -2.0973539 2
-5.9140286 -7.6435847 -2.0720387 3
-5.4077373 -6.9892287 -2.0513997 3
-4.9989481 -6.4608893 -2.0405469 6
-3.4904613 -4.5112457 -1.9622343 5
-2.5092058 -3.2430224 -1.9113526 8
-3.0351419 -3.8666885 1.2975708 19
-2.218812 -2.8267064 0.69441009 16
-3.1919923 -4.0665116 0.72323561 11
-5.2827697 -6.7301054 0.74281931 8
-6.1564579 -7.8431611 0.51295114 11
-5.8204541 -7.4151011 0.31814903 20
-6.7248325 -7.3904958 0.27788395 24
-10.488734 -15.567762 0.41156203 0
-9.5865002 -12.212942 0.24878086 1
-12.600839 -13.848144 0.18953811 7
-12.583136 -18.67635 0.095117368 4
-13.131863 -16.729639 -0.035263661 49
-13.702144 -15.058462 -0.15350933 39
-12.827943 -19.039701 -0.30855095 16
-15.54443 -19.803183 -0.48690674 16
-13.687405 -15.042264 -0.51337641 42
-12.840762 -19.058727 -0.71537763 10
-13.219123 -16.840805 -0.79364908 37
-13.708733 -15.065703 -0.87509185 51
-12.655342 -18.78352 -1.1057409 6
-13.151686 -16.754892 -1.166621 0
-13.680099 -15.034236 -1.2325497 51
-6.6635489 -9.8902826 -0.79356259 6
-13.129555 -16.726698 -1.5410271 5
-13.647248 -14.998134 -1.5887799 44
-6.594584 -9.7879219 -0.99417019 0
-15.560781 -19.824013 -2.2722545 18
-13.626371 -14.975189 -1.9445555 44
-6.5326738 -9.6960335 -1.1918988 52
-7.599926 -9.6821003 -1.3275801 39
-7.6236382 -9.7123089 -1.5505964 3
-7.6327372 -9.7239008 -1.771226 3
-7.5905213 -9.6701193 -1.9811859 3
-7.3568554 -9.3724346 -2.1309576 2
-6.5842795 -8.3881941 -2.0973539 2
-5.9769058 -7.6144166 -2.0753927 3
-5.4443707 -6.9359808 -2.0468771 3
-5.0415354 -6.4227796 -2.0395775 7
-3.5218709 -4.4867678 -1.9622343 5
-2.5407393 -3.2368329 -1.9181124 8
-3.0909727 -3.881711 1.3098217 20
-2.2311528 -2.8019302 0.69213331 14
-3.1734183 -3.9852479 0.71270573 7
-4.9001775 -6.1537499 0.68296474 15
-6.1538301 -7.7281141 0.50822443 13
-5.8994727 -7.4086866 0.31963319 22
-6.8196497 -7.3903837 0.27966312 22
-9.2087374 -13.464142 0.35763988 2
-9.6241922 -12.086271 0.24756323 0
-12.656524 -13.715743 0.18893075 8
-11.785124 -17.231089 0.088173635 2
-13.208471 -16.587486 -0.035157546 36
-13.752687 -14.903644 -0.15290616 47
-13.062157 -19.098246 -0.31096992 15
-13.255843 -16.646978 -0.41156963 22
-13.729715 -14.878751 -0.51105481 45
-12.578517 -18.391113 -0.69359773 72
-13.209382 -16.588631 -0.78609192 58
-13.756665 -14.907955 -0.87148643 44
-12.664369 -18.516638 -1.0952082 11
-13.183746 -16.556437 -1.1591833 24
-13.73057 -14.879677 -1.2277076 56
-6.7504568 -9.8698769 -0.79568726 28
-13.186365 -16.559725 -1.534088 9
-13.711058 -14.858532 -1.5840932 45
-6.6920061 -9.7844162 -0.99853498 0
-13.184906 -16.557892 -1.9083921 4
-13.66308 -14.806539 -1.9349953 43
-6.6406407 -9.7093143 -1.1992012 49
-7.7267904 -9.7034721 -1.3378748 37
-7.718452 -9.6930008 -1.5560789 3
-7.7349672 -9.7137413 -1.7791687 14
-7.702126 -9.6724977 -1.9926414 7
-7.4147491 -9.3116035 -2.128845 3
-6.6597939 -8.3635149 -2.1027575 3
-6.0396647 -7.5847425 -2.0787468 3
-5.4999418 -6.9069471 -2.0495906 4
-5.0765824 -6.3752828 -2.0356998 7
-3.5601768 -4.4709477 -1.9661379 7
-2.5497246 -3.2019997 -1.9079727 8
-3.1277168 -3.8720725 1.3139054 21
-2.2432551 -2.7771206 0.68985653 10
-3.1837373 -3.9414253 0.7088263 8
-4.9054565 -6.0728912 0.67777503 9
-6.1524067 -7.6165991 0.50370318 12
-5.9736571 -7.3953099 0.32084748 20
-6.9175224 -7.3922253 0.28155348 23
-10.917166 -15.725307 0.41971612 21
-9.6806879 -11.984566 0.24685828 0
-12.700043 -13.571561 0.18816142 8
-11.788796 -16.980822 0.087312005 10
-13.26111 -16.417082 -0.034991741 37
-13.790806 -14.737176 -0.15218234 50
-12.702489 -18.296923 -0.29935893 50
-13.311421 -16.479366 -0.40971327 3
-13.775877 -14.721223 -0.50893509 45
-12.674685 -18.256872 -0.69185531 52
-13.287189 -16.449368 -0.78386927 4
-13.803064 -14.750276 -0.867881 50
-12.686246 -18.273525 -1.0860409 29
-16.247925 -20.114719 -1.4162205 12
-13.787738 -14.733897 -1.2235918 57
-6.8578911 -9.8782454 -0.80020213 1
-16.28236 -20.157351 -1.8778557 15
-13.754511 -14.69839 -1.5772194 45
-6.8124318 -9.8127651 -1.0062573 0
-16.171492 -20.020096 -2.3203864 17
-13.708984 -14.649739 -1.9269646 43
-6.7354951 -9.7019444 -1.2040694 62
-7.8418231 -9.7080746 -1.3460246 42
-7.8607478 -9.7315035 -1.5710317 4
-7.8001027 -9.6564255 -1.7786014 1
-7.8414245 -9.7075815 -2.0110977 8
-7.4869962 -9.2688036 -2.1309576 5
-6.72295 -8.3229246 -2.1043015 3
-6.0875511 -7.5363088 -2.0770698 3
-5.5553703 -6.8774762 -2.0523043 5
-5.1282802 -6.3487439 -2.0386081 4
-3.5913019 -4.4459848 -1.9661379 6
-2.57885 -3.1925826 -1.9130425 8
-3.1780863 -3.8759575 1.3230935 20
-2.2585719 -2.7545283 0.6883387 7
-3.1874263 -3.8873484 0.70328426 10
-4.9877424 -6.082993 0.68296474 9
-6.147285 -7.4971581 0.49877098 12
-6.0758681 -7.4100595 0.32341102 22
-7.0128245 -7.3848104 0.28322145 24
-11.066713 -15.693879 0.4210313 19
-9.7099533 -11.842148 0.24538432 0
-12.755116 -13.431694 0.18751356 8
-11.91065 -16.89068 0.087295108 7
-13.310082 -16.232824 -0.034806035 71
-13.857149 -14.592182 -0.15172996 47
-13.587685 -19.268909 -0.31688291 14
-16.479834 -20.098616 -0.50268579 17
-13.839361 -14.573451 -0.50732011 45
-12.757484 -18.091589 -0.68911725 16
-13.34912 -16.280434 -0.78046113 10
-13.855781 -14.590741 -0.86444724 47
-12.739272 -18.065762 -1.0792141 2
-16.569675 -20.208185 -1.4313146 14
-13.834885 -14.568738 -1.2182655 57
-13.556626 -19.224865 -1.5653473 17
-16.604225 -20.250322 -1.8978051 16
-13.801473 -14.533553 -1.5703456 40
-6.9163389 -9.8081684 -1.010958 0
-16.492104 -20.113581 -2.3451707 16
-13.78036 -14.51132 -1.9219934 45
-6.8477116 -9.7108479 -1.2113717 54
-7.9934673 -9.7487411 -1.3597509 30
-8.0400801 -9.8055887 -1.5924639 2
-7.9585485 -9.7061548 -1.7984582 4
-7.9273973 -9.6681623 -2.0149164 3
-7.5497451 -9.2075825 -2.1295493 4
-6.7887559 -8.2794886 -2.1058452 4
-6.1451116 -7.4945078 -2.0779083 3
-5.6081061 -6.839582 -2.0532086 5
-5.1869841 -6.3259859 -2.0434549 4
-3.6237962 -4.4195404 -1.9661379 7
-2.6021833 -3.173593 -1.9130425 7
-3.2273257 -3.8804376 1.3322817 20
-2.2702134 -2.729635 0.68606198 7
-3.1916897 -3.8375902 0.69829643 12
-5.0606661 -6.0847902 0.6871165 10
-6.1586056 -7.4049187 0.49548283 12
-6.1581283 -7.4043446 0.32503012 21
-7.1085868 -7.3817539 0.28500062 15
-11.229537 -15.691033 0.4230479 26
-9.7540293 -11.727946 0.24442303 0
-12.776441 -13.267411 0.18646079 8
-12.128378 -16.946985 0.088021584 5
-13.369371 -16.074923 -0.034666762 43
-13.900419 -14.434582 -0.15109661 55
-13.845244 -19.345963 -0.31973189 18
-16.793642 -20.192162 -0.50794548 15
-13.885293 -14.418874 -0.5053013 42
-12.822981 -17.917553 -0.68588138 17
-13.360213 -16.063911 -0.77453393 1
-13.904635 -14.43896 -0.86118519 45
-12.860434 -17.969885 -1.0788239 0
-13.346829 -16.047819 -1.1432141 10
-13.880867 -14.414278 -1.2134235 57
-13.818264 -19.308264 -1.5799544 22
-13.324216 -16.02063 -1.5100908 40
-13.847278 -14.379398 -1.5640968 43
-7.0356779 -9.8309536 -1.0183445 0
-16.807894 -20.209297 -2.3699551 16
-13.812285 -14.34306 -1.9124331 44
-6.957026 -9.7210531 -1.2186739 53
-8.1376228 -9.7844276 -1.3726192 8
-8.0626593 -9.6942949 -1.5834923 30
-8.0919456 -9.7295084 -1.8132089 14
-8.6259947 -10.371632 -2.1740222 1
-7.6264315 -9.1697874 -2.1330702 3
-6.828825 -8.2107697 -2.1004417 3
-6.2172904 -7.4754801 -2.0846167 3
-5.6681767 -6.8152418 -2.0577312 5
-5.2384663 -6.2985711 -2.0463631 4
-3.664237 -4.4057665 -1.9713428 5
-2.6312306 -3.1637111 -1.9181124 8
-3.2717941 -3.8785055 1.3394281 21
-2.2866821 -2.7107174 0.68530303 7
-3.1826434 -3.7728231 0.69053757 15
-5.1184397 -6.0675874 0.68919235 10
-6.1586366 -7.3006754 0.49137264 9
-6.2380247 -7.3947849 0.32651427 21
-7.2102304 -7.38344 0.28700218 23
-11.367007 -15.651083 0.42410004 27
-12.089568 -14.331421 0.30043396 18
-12.860367 -13.169309 0.18633932 9
-12.347468 -17.001068 0.088748053 5
-13.416792 -15.90476 -0.034500953 43
-13.953341 -14.288539 -0.15058392 43
-14.099836 -19.413879 -0.32247338 17
-13.447824 -15.941547 -0.40337071 49
-13.935326 -14.270091 -0.50348437 41
-12.881971 -17.737017 -0.68239659 11
-13.433375 -15.924418 -0.77231127 51
-13.943671 -14.278638 -0.85740805 47
-12.901053 -17.763292 -1.0718021 0
-13.401881 -15.887085 -1.1384015 48
-13.919787 -14.25418 -1.2080972 61
-14.062957 -19.3631 -1.5924368 15
-13.376572 -15.857081 -1.503441 51
-13.894388 -14.22817 -1.5581603 46
-7.0479245 -9.704195 -1.0102865 15
-13.403707 -15.889249 -1.8742688 49
-13.875915 -14.209252 -1.9074618 44
-7.0691528 -9.7334232 -1.226382 49
-13.375344 -15.855626 -2.2373693 37
-8.2043552 -9.7257452 -1.5979465 27
-8.2132883 -9.7363358 -1.8251231 7
-8.7185631 -10.335306 -2.1791136 1
-7.6978793 -9.125351 -2.1351829 2
-6.9087567 -8.1898956 -2.1073892 4
-6.2617626 -7.4229245 -2.0821011 3
-5.7080808 -6.7665696 -2.0550177 5
-5.282311 -6.2618465 -2.0463631 4
-3.6875892 -4.3714042 -1.9674392 5
-2.6485782 -3.1397223 -1.9147326 8
-3.3138769 -3.8732014 1.3455534 20
-2.3081038 -2.6976714 0.68606198 5
-3.1805763 -3.717402 0.68444133 15
-5.2073073 -6.0862098 0.69542003 11
-6.1627083 -7.2028656 0.48767346 8
-6.3284826 -7.3966198 0.32853812 21
-7.312243 -7.3840632 0.28900373 23
-11.535305 -15.651828 0.426292 31
-12.129523 -14.176775 0.29896 16
-12.887261 -13.013838 0.18540803 7
-12.57027 -17.056133 0.089491427 7
-13.480692 -15.755998 -0.034381572 33
-13.990835 -14.128251 -0.14992042 52
-12.956029 -17.579556 -0.29349971 12
-13.50419 -15.783462 -0.40174642 50
-13.975523 -14.112789 -0.50136465 40
-12.917718 -17.527573 -0.67779171 59
-13.481852 -15.757353 -0.76875496 55
-13.998023 -14.13551 -0.85466105 50
-12.89912 -17.502338 -1.0614644 18
-13.460536 -15.732439 -1.1340264 48
-13.979629 -14.116935 -1.2047077 56
-12.919136 -17.529497 -1.4490218 15
-13.435074 -15.70268 -1.4976585 42
-13.945679 -14.082652 -1.5528488 43
-7.2384648 -9.8216047 -1.0277456 11
-13.452147 -15.722635 -1.8656482 51
-13.910337 -14.046964 -1.8986664 43
-7.1794257 -9.741497 -1.2336843 34
-13.431417 -15.698404 -2.2283614 55
-13.404029 -15.666394 -2.5893114 3
-10.33009 -12.073627 -2.2767234 1
-8.8084755 -10.295192 -2.1835685 1
-7.7485991 -9.056427 -2.1316619 2
-6.9708676 -8.1474285 -2.108933 3
-6.3032613 -7.3671412 -2.0787468 2
-5.7678461 -6.7413578 -2.05954 4
-5.3233752 -6.2218676 -2.0453937 4
-3.7180173 -4.3455534 -1.9674392 6
-2.6751468 -3.1266646 -1.9181124 7
-3.3636482 -3.8762622 1.3547416 21
-2.3140104 -2.6666613 0.68226737 7
-3.1882761 -3.6741633 0.6805619 11
-5.2731743 -6.0767965 0.69853383 11
-6.1971331 -7.1415644 0.48644042 6
-6.421886 -7.4005694 0.33069688 19
-7.4117808 -7.3807983 0.29089409 22
-11.704167 -15.650978 0.42848396 30
-12.175771 -14.031336 0.29767829 21
-12.938121 -12.884038 0.18484116 7
-12.820789 -17.144142 0.090420634 13
-13.527439 -15.588996 -0.034222398 36
-14.038112 -13.97943 -0.14937755 48
-13.004187 -17.389381 -0.29183331 12
-13.556382 -15.62235 -0.40004474 53
-14.022706 -13.964088 -0.49954778 41
-12.999064 -17.382532 -0.67567593 255
-13.53651 -15.59945 -0.76564318 51
-14.042563 -13.983864 -0.85139894 46
-13.004246 -17.389462 -1.0600991 19
-13.509831 -15.568705 -1.1289951 47
-14.009943 -13.95138 -1.1988972 58
-12.938418 -17.301435 -1.4376018 18
-13.492074 -15.548242 -1.491876 42
-13.987141 -13.928672 -1.5465999 48
-12.95469 -17.323195 -1.8221416 7
-13.511971 -15.571171 -1.8588234 55
-13.97703 -13.918604 -1.8944598 44
-7.2973056 -9.7580605 -1.2422037 29
-13.483337 -15.538174 -2.2189248 61
-12.545436 -14.457337 -2.4038978 3
-10.41153 -11.998227 -2.2761559 1
-8.8723679 -10.224501 -2.1816592 1
-7.8219571 -9.0140095 -2.1344788 2
-7.030148 -8.1015301 -2.109705 4
-6.3571014 -7.325912 -2.0795856 2
-5.7994456 -6.6832705 -2.0541131 3
-5.3666806 -6.1845531 -2.0453937 5
-3.7581792 -4.3309188 -1.972644 5
-2.6945329 -3.1051748 -1.9164225 7
-3.4008482 -3.8642981 1.3588252 21
-2.3351655 -2.6533897 0.68302631 6
-3.200763 -3.6369464 0.67779088 10
-5.3602262 -6.0906901 0.7044155 14
-6.2257266 -7.0741363 0.48479635 7
-6.520936 -7.409575 0.3331255 19
-7.5173326 -7.3821044 0.29300687 19
-11.900169 -15.683576 0.43164039 28
-12.223228 -13.888946 0.29646066 20
-13.019192 -12.784991 0.18471968 5
-13.041716 -17.188051 0.091130212 32
-13.591017 -15.44313 -0.034109652 38
-14.08114 -13.827836 -0.14880453 39
-14.940905 -19.691048 -0.33220294 17
-13.601706 -15.455275 -0.39818838 46
-14.07135 -13.818222 -0.49783179 42
-13.0766 -17.234028 -0.67343569 13
-13.589629 -15.441554 -0.7625314 55
-14.091373 -13.837886 -0.84848028 49
-13.132575 -17.307798 -1.0606842 3
-13.562779 -15.411044 -1.1244012 45
-14.069967 -13.816864 -1.1957499 62
-14.904458 -19.643013 -1.6407729 18
-13.531764 -15.375803 -1.4843589 42
-14.035671 -13.783186 -1.5412884 46
-14.937708 -19.686834 -2.0816803 15
-13.557183 -15.404686 -1.8502028 78
-14.019881 -13.767679 -1.887194 47
-7.3989277 -9.7512598 -1.2478832 42
-13.544193 -15.389925 -2.2112036 59
-12.685392 -14.414092 -2.4113741 2
-10.521198 -11.954972 -2.2818294 1
-8.9670124 -10.188991 -2.187387 1
-7.8925004 -8.968049 -2.1365914 2
-7.0995007 -8.0669842 -2.1135647 3
-6.4080911 -7.2813525 -2.0795856 2
-5.8099236 -6.6016703 -2.0414503 4
-5.4097266 -6.1469359 -2.0453937 4
-3.7808266 -4.2960582 -1.9687403 6
-2.7113552 -3.0808446 -1.9130425 8
-3.4509213 -3.8664305 1.3680134 20
-2.3431721 -2.6253026 0.67999065 5
-3.2023354 -3.5879135 0.67280304 7
-5.4105778 -6.0620399 0.70545346 16
-6.1765413 -6.9202299 0.47719249 12
-6.6097736 -7.4056258 0.33501443 19
-7.6203871 -7.3795137 0.29500842 20
-12.041083 -15.641309 0.43278018 29
-12.261304 -13.73763 0.29505077 22
-10.792224 -10.451092 0.15208398 0
-13.107712 -17.026855 0.090758525 27
-13.629248 -15.270282 -0.033937212 37
-14.128482 -13.681893 -0.14829183 58
-15.224399 -19.776421 -0.33542824 15
-13.656012 -15.300268 -0.39664143 52
-14.10715 -13.661236 -0.49571207 42
-13.113677 -17.034603 -0.66920418 22
-13.635881 -15.277714 -0.75912327 56
-14.127348 -13.680795 -0.84487486 47
-13.143416 -17.073235 -1.0519069 0
-13.616848 -15.256389 -1.1200261 44
-14.108717 -13.662754 -1.1909078 59
-15.194611 -19.737726 -1.6575047 21
-13.582991 -15.218455 -1.4782872 46
-14.079986 -13.634931 -1.5356643 45
-15.232825 -19.787367 -2.1035042 15
-13.613996 -15.253193 -1.8433782 58
-14.052726 -13.608532 -1.878781 46
-7.5226545 -9.7718925 -1.257214 30
-13.587749 -15.223786 -2.2009091 56
-12.788354 -14.32814 -2.4118726 2
-10.614949 -11.893046 -2.2840986 1
-9.0195198 -10.105517 -2.1829321 2
-7.9758921 -8.9362316 -2.142225 2
-7.1556463 -8.0172243 -2.1135647 4
-6.4691854 -7.2481098 -2.0829396 2
-5.8039804 -6.5028105 -2.0233603 4
-5.4550924 -6.1119146 -2.0463631 5
-3.8233199 -4.283668 -1.9752464 6
-2.7352116 -3.0645456 -1.9147326 8
-3.5037837 -3.8709176 1.3782225 21
-2.361443 -2.60888 0.67999065 6
-3.2007215 -3.5360999 0.667261 6
-5.4393954 -6.009347 0.70372355 20
-6.2675948 -6.9243269 0.48048064 13
-6.7069201 -7.4096856 0.33730811 17
-7.7353377 -7.3868852 0.2974548 19
