# .PCD v0.7 - Point Cloud Data file format
VERSION 0.7
FIELDS x y z intensity
SIZE 4 4 4 4
TYPE F F F F
COUNT 1 1 1 1
WIDTH 1433
HEIGHT 1
VIEWPOINT 0 0 0 1 0 0 0
POINTS 1433
DATA ascii
8.4620123 8.2952976 -0.78851646 5
9.4243612 7.9839602 -0.89512563 2
8.5932999 6.2663417 -0.83328927 3
8.4963379 8.3289471 -1.0022283 1
9.3835449 7.9493823 -1.1088285 6
8.6509323 6.3083677 -1.0283009 2
9.4457979 9.2597017 -1.3484929 1
9.3703146 7.9381738 -1.3245775 2
8.5880909 7.2755041 -1.4135298 3
7.7342019 6.5521216 -1.4523827 3
7.0115986 5.9399595 -1.4809572 3
6.4473481 5.4619479 -1.5112475 5
5.9443898 5.035861 -1.5322958 3
5.5237732 4.6795301 -1.5521423 4
5.1432471 4.3571634 -1.5647801 5
4.841311 4.1013746 -1.5849378 6
2.2972767 1.9461653 -1.0357683 0
2.1217186 1.7974393 -1.2962046 1
4.1200404 3.4412253 1.4170169 19
3.8943996 3.2527606 0.98052222 4
8.4583769 7.0647798 1.5417942 20
13.573614 11.337234 1.5354598 26
13.661869 11.410948 0.91574925 67
13.669084 11.416973 0.6010831 35
13.705918 9.8487015 0.46936697 27
13.680264 13.224727 0.41717345 35
10.261704 8.5709925 0.21423864 0
11.332857 8.1434841 0.1412729 0
13.680552 13.225006 0.080368266 39
9.8516273 8.2284794 -0.021282883 0
11.274647 8.101656 -0.10468191 0
9.5500145 9.2320099 -0.17851877 0
9.5888977 8.009037 -0.2416357 0
11.102517 7.9779677 -0.34511089 0
8.7126436 8.4225235 -0.37722853 0
9.4797993 7.917913 -0.45787448 0
9.2622023 6.6555672 -0.48999649 1
8.5542536 8.2694073 -0.5808602 1
9.6529732 8.0625553 -0.68885982 3
8.6863327 6.2417631 -0.64859569 2
8.5024996 8.2193766 -0.78692299 10
9.5441713 7.9716792 -0.9011972 2
8.5979767 6.1782732 -0.82953995 2
8.5342169 8.2500381 -0.99987799 1
9.5274839 7.9577413 -1.1192452 2
8.5427895 6.1386166 -1.0103276 5
9.4873228 9.1714067 -1.3452474 1
9.6635838 8.0714178 -1.3580351 1
8.6295357 7.2077384 -1.4120345 3
7.7615218 6.482738 -1.4489787 3
7.0559268 5.8933964 -1.4815936 3
6.4883447 5.4193287 -1.5119518 5
5.9884386 5.0017872 -1.5346116 3
5.5443001 4.6308246 -1.5487881 5
5.1675591 4.316155 -1.5629711 6
4.8608904 4.0600133 -1.5820297 6
2.3572559 1.9688758 -1.0565877 0
2.1258676 1.7756109 -1.2911347 1
4.1887479 3.4492555 1.4323304 16
3.8897276 3.2030249 0.97369194 3
8.5961752 7.0785842 1.5578661 14
13.544764 11.153536 1.5233504 28
13.605515 11.203561 0.90670687 48
13.618839 11.214534 0.59541631 29
13.689497 9.6927042 0.46647584 70
13.688313 13.048878 0.41463077 33
10.259542 8.4482965 0.21295694 0
11.500422 8.1427526 0.14264959 0
13.682795 13.043618 0.079844527 35
9.9026575 8.1544161 -0.021269619 0
11.484362 8.131381 -0.10609938 1
9.5418587 9.0961208 -0.17717491 0
9.7124968 7.9978275 -0.24333735 0
11.242795 7.9603424 -0.34773532 0
8.739399 8.3311472 -0.37585953 0
9.6335888 7.9328494 -0.46261621 0
9.2334251 6.5376291 -0.48604769 1
8.6031008 8.2012157 -0.58027506 0
9.6411943 7.9391127 -0.68404716 0
8.6775599 6.1440544 -0.64472204 3
8.5625629 8.1625719 -0.78718859 3
9.713542 7.9986877 -0.9118948 1
8.7450466 6.1918378 -0.83953816 1
8.5714092 8.1710052 -0.99752772 2
9.6289368 7.9290195 -1.1246331 1
8.5301933 6.0397129 -1.0038266 21
9.5511198 9.10495 -1.3452474 1
9.7381172 8.0189247 -1.3606087 1
8.6704531 7.1397491 -1.4105393 3
7.791307 6.4158096 -1.446142 3
7.0938497 5.8414831 -1.4809572 3
6.5290599 5.3764029 -1.512656 5
6.0413899 4.9748273 -1.5392432 2
5.5734749 4.589519 -1.5479496 4
5.1945577 4.2774968 -1.5620667 6
4.8861203 4.0235119 -1.5810603 7
3.6907301 3.0391591 -1.6447375 6
2.1046274 1.733071 -1.2708551 1
4.2577658 3.4564924 1.447644 18
3.9119937 3.1757917 0.97369194 3
6.8830905 5.5877547 1.2403075 3
13.560421 11.008471 1.5164309 30
13.618268 11.055432 0.90239114 30
13.609895 11.048635 0.59163845 28
13.694522 9.5534315 0.46436307 49
13.677095 12.857131 0.41156203 49
10.299642 8.3613415 0.21257241 0
11.707889 8.1675358 0.14451218 0
10.015243 8.1304646 -0.021389 0
11.567093 8.0693159 -0.10634065 0
9.5264454 8.9553194 -0.17572354 0
9.8519278 7.9978833 -0.24542575 0
11.442394 7.9823251 -0.35217664 0
8.768218 8.2425489 -0.37461495 0
9.775629 7.9359436 -0.46676525 0
9.2296772 6.4387126 -0.48347238 1
8.6252146 8.1081181 -0.57793444 0
9.7832079 7.9420962 -0.69017231 0
8.6711226 6.0490589 -0.64109045 3
8.6484194 8.1299324 -0.78984439 0
9.8620672 8.006115 -0.92056847 0
8.7684364 6.1169457 -0.83766347 2
8.6166277 8.1000471 -0.99618471 11
11.280024 9.1572247 -1.3099767 2
8.5427589 5.9595118 -1.0003849 21
9.6144514 9.0380487 -1.3452474 1
9.7907743 7.9482384 -1.3601798 1
8.7170057 7.0765433 -1.4100409 3
7.8389816 6.3637557 -1.4467093 3
7.1405897 5.7967949 -1.4822299 4
6.5664349 5.3306909 -1.512656 5
6.0546436 4.9152141 -1.5338397 3
5.6144891 4.5578923 -1.5504651 3
5.2363935 4.2509513 -1.5656847 7
4.9231291 3.9966404 -1.5839684 7
3.7059839 3.0085511 -1.642135 8
2.1082308 1.7114807 -1.2657852 9
4.331316 3.4638369 1.4639785 18
3.9075637 3.124954 0.96686167 3
6.9455223 5.5544682 1.2441869 6
13.5505 10.836596 1.5063974 31
13.630308 10.90042 0.89786994 33
13.628077 10.898636 0.58893996 29
13.691672 9.4029903 0.46191671 60
13.691765 12.683153 0.40919471 45
10.348163 8.2756252 0.21231607 0
11.869655 8.1516886 0.14576739 0
10.094401 9.350791 0.058117896 0
10.205777 8.1617565 -0.021667553 0
11.774307 8.0862074 -0.10769781 0
9.5536909 8.8499126 -0.17502473 0
9.935277 7.9454327 -0.24604453 0
11.615968 7.9774656 -0.35570949 0
8.8078728 8.1590357 -0.37374374 0
9.9240713 7.936471 -0.47106245 0
9.2074471 6.3233724 -0.47986692 0
8.6844177 8.0446749 -0.57793444 1
9.928503 7.9400148 -0.69629747 0
8.6757355 5.95821 -0.6381852 3
8.7107105 8.0690308 -0.79010999 1
9.9983835 7.9959002 -0.92779654 0
8.763731 6.0186429 -0.83297682 3
8.6874685 8.0475016 -0.99752772 6
11.371737 9.0941973 -1.3128502 4
8.5435467 5.8674269 -0.9954136 23
9.6950417 8.9808512 -1.3472757 1
9.851881 7.8787389 -1.3606087 1
8.7748442 7.0174122 -1.4110377 4
7.8823276 6.3036494 -1.446142 3
7.1859751 5.7467628 -1.4828664 4
6.6053343 5.2824135 -1.512656 5
6.0997071 4.8780532 -1.5361555 3
5.6446948 4.5141711 -1.5496266 3
5.2643714 4.2100191 -1.5647801 9
4.9432015 3.9531736 -1.5810603 7
3.7368002 2.9883912 -1.6460387 7
2.1433711 1.7140952 -1.279305 7
4.3857651 3.4574583 1.4741875 18
3.9076955 3.0805786 0.96154922 3
7.0525718 5.5597992 1.2563794 8
13.578879 10.704725 1.5012077 28
13.618235 10.73575 0.89211571 30
13.631622 10.746305 0.58583677 27
13.700683 9.2690878 0.46002635 71
13.694348 12.509043 0.40665206 43
10.408826 8.2056561 0.21238016 0
12.085292 8.1762075 0.14771096 0
9.9320288 9.0723677 0.056817003 0
10.328475 8.142313 -0.021806831 0
11.929859 8.0710506 -0.10860258 0
9.5738983 8.7452354 -0.17427216 0
10.10985 7.9699631 -0.24898377 0
10.171056 6.8811464 -0.30998409 6
8.8734732 8.1054354 -0.37411711 1
10.060853 7.9313364 -0.47491512 0
9.2215776 6.2387848 -0.47832173 1
8.7580671 8.0000181 -0.57910472 0
10.096608 7.9595242 -0.70417267 0
8.6840506 5.8751245 -0.63576418 3
8.7255745 7.9703374 -0.78639179 2
10.157352 8.007411 -0.93733764 0
8.7097502 5.8925123 -0.82391596 1
8.7493248 7.9920321 -0.99819922 2
11.384892 8.9751244 -1.3071032 3
8.5480242 5.7830973 -0.99120706 17
9.7457504 8.9022131 -1.3456531 1
9.897275 7.8023825 -1.359322 1
8.8111534 6.9461536 -1.4090439 4
7.9105954 6.2362108 -1.4433053 3
7.2290206 5.6989002 -1.4835029 4
6.6389589 5.2337332 -1.5119518 5
6.1397777 4.8402104 -1.5376993 3
5.6760716 4.4746542 -1.5496266 3
5.2966938 4.1755767 -1.5656847 6
4.9828696 3.9281776 -1.5849378 7
3.7575719 2.9622307 -1.6460387 6
2.1922982 1.7282686 -1.3012745 7
4.4494958 3.4576061 1.4874593 17
3.8980951 3.0291247 0.95396006 3
7.1631584 5.5663342 1.2691261 8
13.599789 10.568099 1.495326 30
13.667618 10.620808 0.89047164 32
13.677904 10.628801 0.58462244 32
13.695187 9.1266489 0.45769119 57
13.698144 12.338196 0.40419707 43
10.551126 8.1990499 0.21411048 0
12.265229 8.173707 0.14920913 0
9.9356813 8.9492693 0.056479108 0
10.527198 8.1804552 -0.022105282 0
12.105742 8.0674219 -0.1096883 0
9.593111 8.6407089 -0.1735196 0
10.278929 7.9875312 -0.25176829 0
10.089074 6.7234888 -0.30604744 0
8.9654913 8.0753994 -0.37561059 1
10.198042 7.9246764 -0.47876778 0
9.2283287 6.1498771 -0.47643319 1
8.8374519 7.9600711 -0.58066511 0
10.215004 7.9378572 -0.70854777 0
8.7082424 5.8032846 -0.63455367 3
8.8136253 7.9386106 -0.78931326 1
10.272861 7.9828157 -0.94283098 0
8.7108555 5.8050265 -0.82016659 1
8.8374834 7.9601002 -1.0018926 1
11.450418 8.8978701 -1.3074623 2
8.5550556 5.7011995 -0.98738301 16
9.0152426 8.1202106 -1.2369298 1
9.932663 7.7184553 -1.3567482 1
8.8406286 6.8698597 -1.4060534 4
7.9508128 6.1784034 -1.4427379 2
7.2561564 5.6386013 -1.4809572 4
6.672226 5.1848412 -1.5112475 5
6.1641216 4.7900043 -1.5353836 3
5.7071724 4.4349189 -1.5496266 3
5.3195624 4.1337161 -1.5638757 5
4.9887218 3.876627 -1.5781522 7
3.7751739 2.9336052 -1.6447375 6
2.2214868 1.726269 -1.3114144 4
4.5103698 3.4546793 1.4997102 17
3.8973224 2.9851208 0.94864762 3
7.2710319 5.5691848 1.2813185 9
13.603636 10.419589 1.4877144 29
13.67166 10.471691 0.88595045 46
13.681951 10.479573 0.58165413 30
13.715112 9.0022926 0.4562456 30
13.703216 12.170563 0.40182975 36
10.703362 8.1981487 0.21603304 0
13.699648 8.9921427 0.16589139 26
9.9530563 8.8398438 0.056225687 0
10.58405 8.1067629 -0.022105282 0
12.322274 8.0880651 -0.11113594 0
9.5963812 8.5230627 -0.17249827 0
10.401114 7.9666448 -0.25339261 0
10.095651 6.6265597 -0.30483618 0
9.0365953 8.0258856 -0.37623289 0
10.345145 7.9237757 -0.48306498 0
9.2242641 6.0546007 -0.47402954 0
8.9316406 7.9326701 -0.58320081 1
10.374807 7.9464951 -0.71576667 0
8.7118273 5.7182488 -0.63189054 3
8.9404507 7.940495 -0.79568726 0
8.7668953 6.7149286 -0.80029321 0
8.6378212 5.6696725 -0.80954349 3
8.9613838 7.9590869 -1.0096149 2
11.512257 8.8177147 -1.3074623 3
8.59132 5.6391506 -0.98700058 15
9.0092297 8.0015812 -1.2284104 1
9.9926195 7.6537614 -1.3576062 2
8.8600159 6.7862535 -1.4015676 3
8.0126123 6.1371918 -1.446142 4
7.2984796 5.5902081 -1.4815936 4
6.717638 5.1453176 -1.5133601 4
6.2005272 4.7492409 -1.5361555 3
5.7442045 4.3997245 -1.5513036 3
5.3513842 4.0988474 -1.5647801 5
5.0279875 3.8511438 -1.5820297 7
3.7925589 2.9048781 -1.6434363 6
2.8724449 2.2001245 -1.686587 13
4.5868521 3.4627211 1.5170655 17
3.9023948 2.9460084 0.94485307 3
7.3919373 5.5803452 1.2957278 6
13.599714 10.26674 1.4794109 29
13.664728 10.31582 0.8808127 59
13.687775 10.333219 0.57882077 34
13.703752 8.8585701 0.45379925 60
10.843327 8.1858788 0.21769927 0
13.698268 8.8550253 0.16512206 36
9.9814262 8.7411556 0.056039844 0
10.768085 8.1290779 -0.022370573 0
12.512804 8.0887012 -0.1123423 0
9.6165342 8.4216042 -0.17179945 0
10.523507 7.9444394 -0.25501692 0
9.9838333 6.4538889 -0.30009204 0
9.1676006 8.0284538 -0.37934431 0
10.473586 7.9067535 -0.48647311 0
9.249527 5.9792085 -0.47317111 0
9.007844 7.8885479 -0.58456618 0
10.541599 7.9580979 -0.72342312 0
8.7515354 5.65729 -0.63189054 3
9.0707331 7.9436226 -0.8023268 2
8.702117 6.5694299 -0.79017389 1
8.6470518 5.5897474 -0.80673146 68
9.1456699 8.0092478 -1.0240524 7
8.7818966 6.6296577 -0.99209088 3
8.6104164 5.5660653 -0.9847061 19
9.0888224 7.9594646 -1.2316558 2
10.042634 7.5814176 -1.3571771 2
8.9451876 6.7529297 -1.4075487 2
8.0521021 6.0787187 -1.4455746 3
7.3436317 5.5438781 -1.4828664 4
6.725112 5.0769434 -1.5070223 4
6.2397966 4.7105675 -1.5376993 3
5.768537 4.3548021 -1.5496266 3
5.3736496 4.0566926 -1.5629711 5
5.0423613 3.8065956 -1.5781522 7
3.8187838 2.8828886 -1.6460387 6
2.8906281 2.1822021 -1.688277 11
4.6512523 3.4606268 1.5303373 18
3.9008107 2.9022827 0.93954062 2
7.4656763 5.5546155 1.3018241 1
13.619904 10.133486 1.4738753 29
13.678723 10.17725 0.87711352 49
13.68581 10.182522 0.57571751 29
13.701173 8.7218876 0.4516865 81
10.611949 9.1632214 0.3074002 1
11.022144 8.2007008 0.22013453 0
13.712517 8.7291088 0.16455519 39
9.981658 8.6189766 0.055701949 0
10.904804 8.1133966 -0.022536378 0
10.422965 6.6350474 -0.093161166 0
9.6478481 8.3307381 -0.17131567 0
10.662136 7.932847 -0.25702798 0
9.967927 6.3453798 -0.29827514 0
9.253686 7.9903865 -0.38058886 0
10.653604 7.9264984 -0.49225211 0
9.2539606 5.890883 -0.47128254 1
9.2864656 8.0186911 -0.59899986 1
8.8344889 6.57304 -0.60310781 1
8.7605047 5.5767589 -0.62971157 3
9.1863842 7.9322729 -0.80763847 2
8.7509689 6.5108991 -0.79046303 3
8.6824999 5.5271025 -0.80641901 51
9.2586813 7.9946995 -1.0304317 9
8.6553698 6.4397721 -0.97269446 2
8.6356287 5.4972653 -0.98317647 28
9.2435608 7.9816432 -1.2450434 3
10.066602 7.4897571 -1.3533167 2
8.9857454 6.6855783 -1.4065518 2
8.0721064 6.0058117 -1.4416033 3
7.3884926 5.497189 -1.4841392 4
6.7730279 5.0392714 -1.5098391 4
6.2630839 4.6598625 -1.5353836 3
5.7956605 4.3120899 -1.5487881 3
5.4080915 4.0237308 -1.5647801 6
5.0719271 3.7736173 -1.5791215 7
3.8418517 2.8584161 -1.6473399 7
2.9116096 2.166297 -1.6916568 10
4.7333465 3.4731743 1.5497346 18
3.9041417 2.8647311 0.93574601 1
7.5853915 5.5659118 1.3162334 1
13.600064 9.9792805 1.4645338 28
13.668624 10.029588 0.8721813 52
13.685357 10.041865 0.57288414 28
13.701135 8.5947056 0.44979611 76
10.587254 9.0200224 0.3049452 1
11.198823 8.217329 0.22256979 0
13.712506 8.6018391 0.16386685 39
9.9807501 8.5032997 0.055380948 0
11.058348 8.114253 -0.022741979 0
10.459964 6.561523 -0.093100853 0
9.6785297 8.2458172 -0.17088562 0
10.80802 7.9305706 -0.25927109 0
9.9488192 6.2408829 -0.29645824 0
9.3947325 8.0040302 -0.38419813 0
10.796176 7.9218798 -0.49640113 0
9.2792854 5.8208852 -0.47059581 1
9.5523252 8.1382942 -0.61265343 3
8.8167057 6.4694095 -0.59895146 1
8.7803869 5.5079265 -0.62850106 3
9.336009 7.954 -0.81613714 18
8.6299152 6.3323488 -0.77571774 2
8.7122087 5.4651589 -0.80579418 6
9.4055548 8.0132504 -1.0408401 2
8.6111679 6.3185921 -0.96299624 3
8.6550331 5.4292922 -0.98126441 41
9.3962536 8.0053263 -1.258431 2
8.7405281 6.4135122 -1.1693 1
9.0426874 6.6352272 -1.4085455 2
8.1245298 5.9615135 -1.4438726 3
7.4120536 5.4387217 -1.4815936 3
6.7999511 4.9895811 -1.5084307 4
6.2780294 4.6066122 -1.5315238 4
5.8272853 4.2758708 -1.5496266 3
5.4315176 3.9854696 -1.5638757 5
5.0843277 3.7307129 -1.5752439 7
3.8576753 2.8306355 -1.6460387 6
2.9346819 2.1533732 -1.6967268 10
4.7982206 3.4695048 1.5630063 18
3.9144983 2.8305016 0.9334693 2
8.6737766 6.2718482 1.4974579 24
13.620962 9.8490667 1.4593441 28
13.667092 9.8824224 0.86766011 43
13.680618 9.8922024 0.56978089 27
13.709774 8.467329 0.44812816 40
10.542793 8.8558655 0.30187646 0
11.356388 8.2115946 0.22455645 0
13.717774 8.47227 0.16321899 35
9.9479866 8.3562326 0.054874107 0
11.283278 8.1587305 -0.023086855 0
10.481695 6.4736266 -0.092889741 0
9.6470461 8.1034451 -0.16932675 0
10.966827 7.9299107 -0.26174623 0
10.982175 6.7827291 -0.32583153 0
9.4993629 7.9793925 -0.38618943 0
10.961349 7.9259496 -0.50143921 0
9.2992964 5.7433619 -0.46956569 1
9.5936117 8.0585604 -0.61167818 2
8.7645597 6.337491 -0.59238881 1
8.8356104 5.456984 -0.62971157 5
9.4463196 7.9348369 -0.82091761 2
8.6027889 6.2205181 -0.76935703 1
8.7433653 5.400012 -0.80516928 9
9.5192566 7.9961033 -1.0472194 4
8.6098728 6.2256408 -0.95796758 4
8.6859503 5.364552 -0.98049963 50
9.4976168 7.9779258 -1.2645162 1
8.6626263 6.2637849 -1.1530001 2
9.0920057 6.5742612 -1.4090439 2
8.1659508 5.9046488 -1.4438726 3
7.4626417 5.3960986 -1.4841392 3
6.841001 4.9466014 -1.5098391 4
6.3004951 4.5557718 -1.5292081 4
5.8506556 4.2305012 -1.5479496 3
5.4497366 3.940604 -1.5611622 5
5.1291175 3.70877 -1.5810603 8
3.8712125 2.7992024 -1.6434363 6
2.9467058 2.1307087 -1.6950368 10
4.8632722 3.4650979 1.5762781 17
3.9373615 2.8053834 0.93422818 3
7.8527131 5.5950847 1.3489313 2
13.614742 9.7005501 1.4513866 28
13.670684 9.7404089 0.86354989 45
13.680972 9.7477388 0.56694752 29
13.700222 8.3298664 0.4459042 48
10.558163 8.7437878 0.30056128 0
11.514413 8.2040586 0.22654311 0
13.718488 8.3409719 0.16253065 33
10.018404 8.2967844 0.054941684 0
11.753685 8.3745403 -0.023929151 1
10.543722 6.4106841 -0.093040533 0
9.7434301 8.0690632 -0.17002556 0
11.129404 7.9297376 -0.26429871 0
11.828777 7.1920099 -0.34945127 0
9.641057 7.984282 -0.38967422 0
11.117333 7.9211373 -0.50603276 0
9.345994 5.6824541 -0.46990904 1
9.5542488 7.9123921 -0.60563159 0
8.7728081 6.2506557 -0.58998251 1
8.870079 5.3930936 -0.62946951 2
9.673625 8.0112534 -0.83579028 2
8.7142382 6.2089243 -0.77542859 1
8.7910728 5.345057 -0.80610663 97
9.6270351 7.9726701 -1.0529273 2
8.5882359 6.1191468 -0.95078373 4
8.7299938 5.3079205 -0.98126441 60
10.138465 8.3962126 -1.3420019 1
8.6251717 6.1454635 -1.1422765 3
9.1279831 6.5037189 -1.4075487 3
8.2005243 5.8429012 -1.4427379 3
7.5001311 5.3438687 -1.4841392 3
6.8753672 4.8987226 -1.5098391 4
6.351325 4.5253406 -1.5338397 4
5.8864174 4.1940923 -1.5496266 4
5.4834604 3.9069841 -1.5629711 5
5.142242 3.6638646 -1.5771828 7
3.8875794 2.7699137 -1.642135 6
2.9615088 2.110085 -1.6950368 10
4.9253292 3.4577281 1.588529 17
3.9375651 2.7642879 0.92967469 1
8.6762018 6.0909524 1.4830486 13
13.613641 9.5571823 1.444121 34
13.679502 9.6034174 0.85985076 51
13.689796 9.6106453 0.56451887 28
13.703147 8.2011642 0.44412503 78
10.569386 8.6293983 0.29915842 0
11.712163 8.2222881 0.2292988 0
13.721471 8.2121305 0.16188279 37
10.045098 8.2013435 0.054772738 0
11.6449 8.1750679 -0.023590906 0
10.512712 6.291728 -0.092377037 0
9.8707829 8.0590239 -0.17126191 0
11.295781 7.929975 -0.26692855 0
9.9606762 5.9613419 -0.2930263 0
9.7894716 7.9926362 -0.39340791 0
9.5889301 6.7317147 -0.43431395 0
9.3751507 5.6109114 -0.469394 0
9.6711502 7.8960328 -0.60953259 0
8.7671986 6.1548347 -0.58670115 1
8.8869581 5.3187342 -0.62801689 3
9.7200432 7.9359517 -0.83499354 0
8.6267633 6.0562449 -0.76386368 0
8.8179083 5.2774091 -0.80516928 10
9.7750864 7.9808912 -1.063 0
8.5590134 6.0086827 -0.94288146 29
8.7736702 5.2509332 -0.98202926 32
10.196835 8.3252287 -1.3420019 1
8.6288052 6.0576787 -1.1371292 4
9.1894064 6.4512372 -1.4100409 2
8.2475967 5.7900591 -1.4438726 3
7.5372558 5.2913785 -1.4841392 4
6.9093995 4.8506045 -1.5098391 4
6.3699141 4.4718695 -1.5307519 3
5.90275 4.1439066 -1.5462724 4
5.4978466 3.8596523 -1.5593532 5
5.1740475 3.6323357 -1.5791215 7
3.9068224 2.7427058 -1.642135 6
2.9821024 2.0935249 -1.6984167 11
5.0193262 3.4716597 1.6109889 18
3.9115467 2.7054543 0.9190498 1
8.663126 5.9919243 1.4736271 19
13.634146 9.4301729 1.4392773 31
13.687074 9.4667807 0.85615158 43
13.687511 9.467083 0.5616855 28
13.704944 8.0728292 0.44234586 71
10.579526 8.5152817 0.29775557 0
11.900853 8.2313251 0.23186222 0
13.723325 8.0836563 0.16123495 31
10.083412 8.1159678 0.054671369 0
11.800382 8.1618338 -0.023789873 0
10.511576 6.191792 -0.091984965 0
9.8707199 7.9447756 -0.17029433 1
11.45283 7.9214473 -0.26932633 0
11.121813 6.5512486 -0.32583153 0
9.9228945 7.9867697 -0.39651933 0
9.5436411 6.6009402 -0.43016493 1
9.4106493 5.5432963 -0.46922231 1
9.8287449 7.9109907 -0.61596924 0
8.7705355 6.066215 -0.58407611 1
8.9341936 5.2626424 -0.62874317 4
9.8591566 7.9354682 -0.84216428 0
8.6064901 5.9527516 -0.75837034 2
8.8648453 5.2217932 -0.80610663 8
9.9361353 7.997427 -1.0744156 0
8.5647116 5.9238553 -0.93893033 28
8.8135452 5.1915751 -0.98241162 8
10.229906 8.2338781 -1.3387564 1
8.6152821 5.9588327 -1.1298372 5
9.2407484 6.3914418 -1.4110377 3
8.3008432 5.7413483 -1.446142 3
7.5577731 5.2273979 -1.4809572 3
6.9398556 4.8000097 -1.5091349 5
6.4009776 4.4272904 -1.5307519 3
5.9411855 4.1092715 -1.5487881 4
5.5246577 3.8211763 -1.5593532 5
5.1960878 3.5939183 -1.5781522 7
3.9289854 2.7175159 -1.6434363 7
2.9966452 2.072655 -1.6984167 10
5.0798054 3.4587164 1.6222188 19
3.8988106 2.6546056 0.91146064 2
8.690444 5.9171128 1.4708561 28
13.630438 9.2806349 1.4316657 28
13.703269 9.330224 0.85286343 44
13.706972 9.3327456 0.55966163 28
13.722233 7.9481025 0.44101149 33
10.613459 8.4151402 0.29696646 0
12.089803 8.2316542 0.23436157 0
13.723373 7.9487629 0.16054659 27
10.236663 8.1163883 0.05517821 0
11.965696 8.1471529 -0.024002105 1
10.387082 6.0163383 -0.090507179 0
9.991374 7.921905 -0.17136942 0
11.613068 7.9070563 -0.27172413 0
9.982686 5.7821064 -0.2912094 0
10.046962 7.9659791 -0.39913294 0
9.5917721 6.5308051 -0.43016493 1
9.4648628 5.4821763 -0.46990904 1
9.9709978 7.9057493 -0.62123561 0
8.7817535 5.9792829 -0.58188856 1
8.986351 5.2050152 -0.62971157 4
10.01401 7.9398532 -0.85039735 0
8.6037273 5.8580694 -0.75432259 1
8.916687 5.1646652 -0.80735636 5
10.138163 8.03829 -1.0898603 0
8.571682 5.8362508 -0.9349792 27
8.9099379 5.1607561 -0.98891264 3
10.277515 8.1487799 -1.3371336 1
8.6159954 5.8664227 -1.1242609 4
9.3037539 6.3347006 -1.4135298 3
8.3296146 5.671433 -1.4438726 3
7.5991535 5.1740794 -1.4815936 3
6.9553266 4.735713 -1.5049096 4
6.4332595 4.3802505 -1.5307519 3
5.9679155 4.0634093 -1.5479496 4
5.5589614 3.7849622 -1.5611622 5
5.2158775 3.5513647 -1.5762134 8
3.9488001 2.6886423 -1.6434363 7
2.996774 2.0404308 -1.6899669 10
5.1102519 3.4274771 1.6242607 18
3.9074631 2.6207592 0.90918392 3
8.6756124 5.8187861 1.4614346 21
13.625396 9.1386366 1.4244001 30
13.691767 9.1831512 0.84813672 37
13.69875 9.1878357 0.55669332 32
13.72528 7.8224115 0.43934351 31
10.653045 8.3260651 0.29644039 0
12.313055 8.258441 0.23756586 0
13.733357 7.8270154 0.16002022 30
10.409685 8.1358633 0.055803318 0
12.135231 8.1391735 -0.024227602 0
10.362805 5.9060454 -0.089934155 0
10.260726 8.0194426 -0.17502473 0
11.790876 7.9082127 -0.27458602 1
12.100328 6.8963079 -0.35157099 0
10.206283 7.976891 -0.40324 0
9.607254 6.443644 -0.42883131 1
9.4890175 5.4080505 -0.46922231 1
10.117235 7.9072948 -0.62689209 0
8.7834768 5.8911319 -0.57926351 1
9.053689 5.1599445 -0.63189054 7
10.172972 7.9508562 -0.85916162 0
8.6278477 5.7867498 -0.752877 0
9.0114241 5.1358571 -0.81266791 4
11.952709 9.3418398 -1.2778831 2
8.5857496 5.7585149 -0.93210566 26
9.0045576 5.1319432 -0.9954136 3
10.337289 8.0792809 -1.3375393 1
8.6270151 5.7861915 -1.1204004 5
9.3411598 6.265173 -1.4125329 2
8.3986015 5.6329932 -1.4489787 3
7.6186914 5.1099029 -1.4784114 4
6.9980288 4.6936207 -1.5070223 4
6.4539037 4.3286729 -1.5284361 3
5.979897 4.0107536 -1.5437567 3
5.5787778 3.7417202 -1.5593532 5
5.234097 3.510541 -1.5742747 7
3.9611917 2.6567955 -1.6408339 6
2.9989018 2.0113819 -1.683207 11
5.1308284 3.3895857 1.6232398 17
3.9125566 2.5847573 0.9061482 4
8.68297 5.7362413 1.4558926 28
13.612389 8.9927692 1.4164425 27
13.685548 9.0411015 0.84382105 35
13.695848 9.047905 0.55399483 25
13.737703 7.7029347 0.43800914 32
10.666559 8.2173223 0.29521289 0
13.681866 9.0386686 0.26275155 27
13.721377 7.6937809 0.15925089 26
10.726064 8.2631636 0.057188686 0
12.341942 8.1534729 -0.024526052 0
10.354939 5.806169 -0.089511931 0
10.478053 8.0721006 -0.1777662 0
10.24745 6.7697854 -0.23753624 2
12.04703 6.7549496 -0.34864375 0
10.347238 7.9713225 -0.40660036 0
9.5819654 6.3301463 -0.42571953 1
9.5300274 5.3436284 -0.469394 1
10.251316 7.8974266 -0.63176835 0
8.8110609 5.8208623 -0.57838845 1
9.1173515 5.1122351 -0.63382739 4
10.313598 7.9454069 -0.86633235 0
8.6746931 5.7307739 -0.75345522 0
9.1201029 5.1137781 -0.81922925 2
10.609368 8.1732635 -1.1281364 0
8.6024733 5.683063 -0.9295913 18
9.0853138 5.0942707 -1.0003849 3
10.399746 8.0117741 -1.3383507 1
8.6406536 5.7082858 -1.1169689 4
9.3846703 6.1998067 -1.4125329 2
8.4212027 5.5633097 -1.446142 2
7.6574745 5.0587668 -1.4790479 3
7.0043426 4.6272874 -1.5013885 4
6.4839664 4.2835107 -1.5284361 3
6.0044875 3.9667523 -1.5429182 3
5.5982614 3.6983867 -1.5575442 5
5.2584777 3.4739146 -1.5742747 8
3.9796429 2.6290765 -1.6408339 7
3.0279956 2.0003886 -1.6916568 9
5.1478834 3.3494651 1.6211979 17
3.8975875 2.5359614 0.89855903 18
8.6995611 5.6603608 1.4520133 21
13.638096 8.8736134 1.4126368 29
13.684715 8.9039459 0.83991635 56
13.698365 8.9128275 0.55156624 27
13.721121 7.5682173 0.43578517 32
10.774625 8.1813498 0.29661575 0
13.677587 8.8993073 0.26146984 29
11.154995 6.1528082 0.12896365 1
10.678363 8.1082563 0.056631159 0
13.679322 8.9004374 -0.027059572 24
10.395222 5.7337365 -0.089511931 0
10.604229 8.0519657 -0.1789488 0
10.177136 6.6217432 -0.23482905 0
10.175118 5.6123338 -0.29332912 0
10.47587 7.9545002 -0.40946284 0
9.5622654 6.2216783 -0.42290413 1
9.5671005 5.2769661 -0.469394 1
10.404839 7.9005647 -0.63781494 0
8.8347445 5.7483172 -0.57729471 1
9.2472143 5.1005259 -0.64036417 2
10.467354 7.9480338 -0.87456542 0
8.6542978 5.6309104 -0.74825102 3
9.2114506 5.0807996 -0.82422841 4
8.6757851 6.5876665 -0.91761804 2
8.6085472 5.6011424 -0.9259994 27
9.2391968 5.0961032 -1.0133868 3
8.7218332 6.6226315 -1.1164417 0
8.6502934 5.6283045 -1.1131084 3
9.4177446 6.127646 -1.4110377 2
8.4764318 5.5151815 -1.4489787 2
7.7025342 5.0116458 -1.4809572 3
7.06288 4.5954556 -1.5070223 4
6.5038433 4.231719 -1.5261203 3
6.0385914 3.9290032 -1.5445954 4
5.6272106 3.6613388 -1.5584487 5
5.2923603 3.4434688 -1.5771828 8
3.9979002 2.6012297 -1.6408339 6
3.0388482 1.9772235 -1.6899669 11
5.1613722 3.3071854 1.6181352 16
3.9614911 2.538353 0.90918392 13
8.7021761 5.5759802 1.445917 24
13.635962 8.7373381 1.4060632 27
13.692726 8.7737103 0.8366282 40
13.6963 8.776 0.54900271 31
13.717389 7.4417357 0.43400601 46
10.943541 8.1897936 0.29968449 0
13.705706 8.7820263 0.26082897 27
11.081657 6.0118418 0.12762746 1
10.811568 8.0910301 0.057036635 0
13.693974 8.7745094 -0.026966721 30
10.427965 5.6572108 -0.089451611 0
10.743442 8.0400457 -0.18034643 0
10.236586 6.5591636 -0.23513845 0
10.256229 5.5640435 -0.29454038 0
10.636779 7.9602232 -0.41356993 0
9.5819082 6.1396747 -0.42186686 1
9.6282959 5.2233872 -0.47059581 1
10.571695 7.9115167 -0.6446417 0
8.8578453 5.6757259 -0.5762009 1
9.3808622 5.0891538 -0.64714307 2
8.835393 6.612124 -0.73433751 1
8.6766024 5.5595932 -0.74680537 38
9.4114408 5.1057425 -0.83891326 3
8.6098719 6.4433513 -0.90586662 3
8.6340227 5.5323105 -0.92456263 34
9.4005432 5.0998306 -1.0271536 3
8.6436014 6.4685931 -1.10062 2
8.6525412 5.5441766 -1.10839 9
9.4870272 6.0788789 -1.415025 2
8.4847231 5.4366455 -1.4438726 2
7.7240343 4.9492288 -1.4784114 3
7.0848432 4.5396628 -1.5049096 5
6.533227 4.1862111 -1.5261203 4
6.0691662 3.8888607 -1.5454339 5
5.649353 3.6198626 -1.5575442 5
5.3293409 3.4148126 -1.5810603 8
4.0127773 2.5712152 -1.6395326 6
3.0525775 1.9559604 -1.6899669 10
5.1733823 3.2666862 1.6150725 17
5.5954361 3.5331883 1.278777 16
8.6887226 5.4864168 1.437604 22
13.63633 8.6105394 1.4001815 32
13.703326 8.6528435 0.83375108 32
13.686597 8.6422796 0.54630423 28
13.713535 7.3223448 0.43233803 84
11.087707 8.183527 0.30213949 0
13.692634 8.6460915 0.25948319 28
11.145984 5.9514003 0.1279109 1
10.964759 8.092782 0.057560369 0
10.501612 6.6311493 -0.020593129 0
10.415857 5.5615492 -0.089029387 0
10.870543 8.0232449 -0.18158278 0
10.117549 6.3886361 -0.23142573 0
11.019547 5.8838892 -0.31533384 0
10.808359 7.9773483 -0.41817483 0
9.612278 6.0695877 -0.42142233 1
9.71208 5.1857672 -0.47299942 1
8.9941807 6.6383538 -0.54575109 0
8.8817854 5.6083241 -0.57532591 1
9.4989376 5.07196 -0.65295357 2
8.827672 6.5154581 -0.73008817 5
8.7234039 5.508316 -0.7476728 15
9.5330391 5.090168 -0.84672439 2
8.5850697 6.3364005 -0.89881581 3
8.6671562 5.4727988 -0.92420346 49
9.5851908 5.1180143 -1.0435972 5
8.5966635 6.3449574 -1.0892609 6
8.6891222 5.4866686 -1.10839 29
9.5405579 6.0243006 -1.4170188 3
8.5406809 5.3929372 -1.4472766 3
7.7566891 4.8978925 -1.4784114 3
7.1214547 4.4967794 -1.506318 5
6.5741224 4.1511707 -1.5292081 4
6.0948248 3.8485229 -1.5454339 4
5.6765318 3.5843954 -1.5584487 4
5.3321838 3.36696 -1.5752439 7
4.0297422 2.5445449 -1.6395326 6
3.0685484 1.9376075 -1.6916568 11
5.2059155 3.2366164 1.6181352 17
5.6833363 3.533438 1.2931964 16
8.6998987 5.4088922 1.4331703 21
13.638577 8.4793615 1.3942999 26
13.678587 8.5042372 0.82861334 29
13.699066 8.5169697 0.5444153 28
13.711217 7.1985497 0.43067005 65
11.25776 8.1882515 0.30520824 0
13.688125 8.5101671 0.25826555 23
11.190802 5.8753023 0.12795138 1
11.147147 8.1077976 0.058219265 0
10.527267 6.5450015 -0.020553336 0
10.443807 5.4831209 -0.088938907 0
11.020093 8.0153856 -0.18314166 0
10.097371 6.2777276 -0.22995612 0
11.039112 5.7956638 -0.3147282 0
10.941387 7.9581394 -0.4211618 0
9.6476269 5.9981132 -0.42112598 1
9.8117361 5.1512766 -0.47608981 2
8.9756861 6.5284009 -0.54185009 1
8.9003696 5.5335288 -0.57401335 1
9.6649122 5.0741925 -0.66191137 1
8.6534595 6.2940321 -0.7120285 2
8.7989149 5.4704523 -0.75085312 1
9.8084335 5.1495428 -0.86797059 2
8.5485115 6.2176981 -0.89042193 4
8.691618 5.4037437 -0.92276669 72
9.7687521 5.1287098 -1.0596585 4
8.660059 6.2988315 -1.091695 1
8.720459 5.4216747 -1.107532 27
9.5722713 5.9512625 -1.4155234 2
8.5747595 5.3310905 -1.4467093 3
7.7940469 4.8457069 -1.4790479 3
7.1392984 4.4386373 -1.5035012 5
6.5796099 4.0906682 -1.5238045 4
6.1149006 3.8017497 -1.5437567 5
5.6981072 3.5426214 -1.5575442 4
5.3654466 3.3357999 -1.5781522 7
4.0506206 2.5183475 -1.6408339 6
3.0820003 1.9161381 -1.6916568 10
5.2229023 3.1943321 1.6160934 16
5.7693925 3.5285661 1.306857 22
8.7055197 5.3243046 1.4276283 20
13.635774 8.339653 1.3877262 29
13.703074 8.3808136 0.82635272 47
13.703155 8.3808632 0.54212159 25
13.724526 7.0776892 0.42944688 70
11.444278 8.1963205 0.30862769 0
13.695549 8.3762112 0.25724018 23
11.240679 5.7967782 0.12803237 1
11.398146 8.1632805 0.059216052 0
10.54425 6.448874 -0.020493645 0
10.494384 5.4119163 -0.089029387 0
11.182606 8.008913 -0.18486181 0
11.023349 6.7418909 -0.24991195 0
10.21413 5.2673907 -0.29009905 3
11.113193 7.959199 -0.42551777 0
9.6708765 5.9147177 -0.42023689 1
9.9593401 5.1359959 -0.48141211 3
8.9323521 6.3972945 -0.5363887 1
8.9475079 5.4723048 -0.57445091 1
9.8544388 5.0818987 -0.67232186 1
8.6734056 6.2118387 -0.70990384 0
8.9102526 5.4495192 -0.75692469 41
9.8919945 5.1012664 -0.87203234 4
8.5355291 6.1130929 -0.88437831 5
8.7072067 5.325336 -0.92025232 125
10.004259 5.1591611 -1.0810734 2
8.715704 6.2421327 -1.0929121 1
8.7497892 5.3513799 -1.1062453 12
9.6291819 5.8892174 -1.4175172 1
8.6136074 5.2680912 -1.4467093 3
7.8125134 4.778141 -1.4758657 3
7.1783614 4.3902931 -1.5049096 5
6.6194639 4.048471 -1.5261203 3
6.1292582 3.7486606 -1.5404027 5
5.7239232 3.5007572 -1.5575442 4
5.3698907 3.2842307 -1.5723358 7
4.0689721 2.4885874 -1.6408339 6
3.0866849 1.8878196 -1.686587 10
5.2417617 3.1557975 1.6150725 16
5.8409901 3.5165625 1.3174819 23
8.7221146 5.2511406 1.4243031 20
11.22532 6.7581935 1.1375825 16
13.703066 8.249918 0.82285905 58
13.716804 8.2581882 0.5403676 29
13.723671 6.9563937 0.42789012 59
11.625381 8.2038431 0.31195948 0
13.698867 8.2473898 0.2562148 26
11.312982 5.7344394 0.12839678 0
11.732652 8.279542 0.060652107 0
10.527329 6.3379688 -0.020374266 0
10.535478 5.3403301 -0.089059547 2
11.342819 8.0044432 -0.18658195 0
11.032458 6.6420808 -0.24906112 0
10.289886 5.2158422 -0.2912094 2
11.295885 7.971323 -0.43037158 0
9.6913853 5.8346891 -0.41934782 1
10.098324 5.118741 -0.48639107 2
8.9408884 6.3094401 -0.53424317 1
8.9820709 5.4076476 -0.5742321 2
10.046372 5.0924072 -0.6829744 3
8.7785196 6.1948586 -0.71494997 3
8.8831377 5.3480849 -0.75143135 21
10.119439 5.1294441 -0.88890439 2
8.5421762 6.0280752 -0.88068503 26
8.7475834 5.2664742 -0.9206115 135
10.246017 5.1936054 -1.1032532 1
8.7428131 6.1696615 -1.0908836 2
8.7835274 5.2881141 -1.1058162 17
9.6768608 5.8259449 -1.418514 2
8.6467829 5.2057872 -1.446142 2
7.8456798 4.723484 -1.4758657 3
7.1885958 4.3278875 -1.5006843 5
6.6442032 4.0001364 -1.5253483 3
6.1653309 3.7118316 -1.5429182 5
5.7415471 3.4566929 -1.5557352 4
5.3993368 3.2506657 -1.5742747 7
4.0830054 2.4581695 -1.6395326 7
3.115319 1.8755748 -1.6950368 11
5.2769747 3.1270132 1.6191561 18
5.9329715 3.5157416 1.3326602 21
8.7176657 5.1658869 1.4176526 23
13.634323 8.0793848 1.3759629 30
13.705342 8.1214685 0.81957096 51
13.715656 8.1275806 0.5380739 33
13.739691 6.8443699 0.42688933 42
11.820273 8.2183638 0.31564194 0
13.711383 8.1250477 0.2553817 28
13.726398 6.8377476 0.15524228 38
11.685074 8.124362 0.060111474 0
10.519704 6.2337327 -0.020274783 0
10.833861 5.3968434 -0.091261148 0
11.493656 7.9912744 -0.18814084 0
10.108326 5.9899597 -0.22724894 0
10.50859 5.2348104 -0.2963573 0
11.456304 7.9653039 -0.43435422 0
9.7009335 5.748549 -0.4180142 1
10.280473 5.1211748 -0.49343026 1
8.9322338 6.2103763 -0.53112233 0
9.0402212 5.3570261 -0.57554466 1
10.231778 5.0969181 -0.69314277 2
8.788784 6.1106391 -0.7122941 3
8.9854708 5.3245821 -0.75692469 255
10.304918 5.1333523 -0.90202701 1
8.5644159 5.9546409 -0.87867051 22
8.7909927 5.2093387 -0.92132986 104
10.4923 5.226696 -1.1258154 1
8.7137928 6.0584989 -1.0819585 1
8.8373384 5.2368026 -1.1079611 17
9.7036409 5.7501531 -1.4165204 2
8.6931353 5.1513505 -1.4478439 3
7.8716702 4.6645694 -1.4745929 3
7.2321854 4.2856255 -1.5035012 5
6.671968 3.9536538 -1.5253483 3
6.1776357 3.6607239 -1.539564 5
5.7621875 3.4145389 -1.5548307 4
5.4218998 3.2128923 -1.5742747 8
4.1098294 2.4353898 -1.6434363 7
3.1283371 1.8537803 -1.6950368 12
5.2953358 3.0881481 1.6181352 18
6.0116525 3.5058918 1.3448029 23
8.7124538 5.0809522 1.4110022 20
13.631874 7.9498734 1.3700812 30
13.703042 7.9913774 0.81607729 59
13.716808 7.9994054 0.53591514 30
13.736859 6.7236738 0.42533255 38
12.062119 8.2621975 0.32055193 0
13.702128 7.9908442 0.25416407 27
13.745059 6.7276874 0.15491836 40
11.843807 8.1126604 0.060635213 0
10.483494 6.1137919 -0.020122239 0
11.08324 5.4248271 -0.093040533 0
11.658057 7.9854274 -0.18991473 0
12.208896 7.1200166 -0.27334845 0
10.900446 5.3353567 -0.30635026 0
9.8788929 6.7667513 -0.37274811 0
9.7511883 5.6867242 -0.41845873 1
10.438014 5.1090136 -0.49926764 1
8.9457073 6.1275473 -0.52936685 1
9.049799 5.2776861 -0.5737946 1
10.428488 5.1043506 -0.70403743 1
8.7785454 6.0130458 -0.70804477 2
8.9638367 5.2275543 -0.75200963 3
10.508847 5.1436834 -0.91671193 1
8.5564518 5.860918 -0.87363416 23
8.8477945 5.1598806 -0.92348504 18
10.710922 5.2425919 -1.1453184 1
8.5982904 5.8895764 -1.0624858 1
8.8908596 5.1849952 -1.1101058 6
9.7435474 5.6822686 -1.4165204 2
8.7220449 5.0865459 -1.4467093 3
7.9108658 4.6134801 -1.4758657 3
7.2619281 4.2350307 -1.5035012 5
6.6892352 3.9010463 -1.5230325 3
6.1996627 3.615536 -1.5387255 5
5.7892509 3.3761909 -1.5557352 4
5.4609594 3.184737 -1.5791215 8
4.1201968 2.4028275 -1.6408339 6
3.134939 1.8282422 -1.6916568 11
5.3134112 3.0491803 1.6171143 17
6.1177335 3.5107522 1.363017 22
8.7339697 5.0121183 1.4087853 20
13.666305 7.8426123 1.3680054 26
13.699598 7.8617182 0.81258363 50
13.72031 7.8736043 0.53389132 29
13.729412 6.6016178 0.42366457 64
12.252104 8.2672596 0.32405907 0
13.712485 7.8691134 0.25333095 24
13.741225 6.6072984 0.15435147 36
12.062627 8.1394072 0.061463054 0
10.466942 6.0066104 -0.020009492 0
11.14968 5.3611856 -0.093281806 0
11.859403 8.0022793 -0.19227993 0
11.120579 6.3817096 -0.24797824 0
11.056353 5.3163104 -0.30968127 0
9.9557199 6.7177463 -0.3738682 0
9.7594481 5.6006045 -0.41712514 1
10.61389 5.1035576 -0.50596344 1
8.9485254 6.0381289 -0.5270263 1
9.0898867 5.2163668 -0.57401335 1
10.640185 5.1162014 -0.71590048 1
8.7111311 5.877944 -0.69928056 1
9.0243349 5.1787486 -0.75403351 5
10.760135 5.1738777 -0.9354586 1
8.5608158 5.7765164 -0.86994088 12
8.925065 5.1217813 -0.92779535 5
10.951801 5.2660384 -1.1671157 0
8.6853781 5.8605671 -1.0681653 1
8.975131 5.1505127 -1.1161109 3
9.7692099 5.6062069 -1.4145266 1
8.733304 5.0117364 -1.4427379 4
7.9394555 4.5561748 -1.4752294 3
7.2708259 4.1724715 -1.4992759 5
6.7333274 3.8640201 -1.5268922 5
6.2247524 3.5721669 -1.5387255 5
5.8194385 3.3395712 -1.5575442 4
5.4695964 3.1388092 -1.5752439 7
4.1368713 2.3740051 -1.6408339 7
3.1413372 1.8027031 -1.688277 11
5.334569 3.0120113 1.6171143 16
6.2002316 3.5007827 1.3759185 23
7.4199748 4.1894755 1.1920917 1
13.644381 7.703908 1.3603938 28
13.695014 7.7324963 0.80908996 66
13.715764 7.7442126 0.53159761 29
13.728163 6.4834118 0.42221901 38
13.718323 9.1178827 0.36114702 40
13.704399 7.7377954 0.25217742 26
13.736383 6.4872942 0.1537846 36
12.222425 8.1236353 0.061986793 0
10.484239 5.9196243 -0.019963067 0
11.392995 5.3805799 -0.095000871 0
12.04822 8.0078487 -0.19443011 0
11.126554 6.282289 -0.24712741 0
11.234212 5.3055916 -0.31361789 0
9.9757385 6.6303744 -0.37287256 0
9.7983103 5.5323343 -0.41712514 0
10.82994 5.1146655 -0.51454782 1
8.9538603 5.9511828 -0.52488071 1
9.1434717 5.1625991 -0.57510716 5
10.856158 5.1270475 -0.72800571 1
8.7153912 5.7926846 -0.6963591 1
9.0776396 5.1254282 -0.7554791 2
10.958257 5.1752658 -0.94951856 1
8.5843363 5.7055788 -0.86826211 14
9.0161095 5.0906873 -0.93354243 3
8.6840677 4.1012325 -0.92237324 0
8.7360229 5.8063974 -1.0693824 1
9.0939837 5.1346564 -1.1264056 3
9.3795681 5.2959037 -1.352722 2
8.7853184 4.9603777 -1.4455746 5
7.9676313 4.4986939 -1.4745929 3
7.299778 4.1216102 -1.4992759 4
6.7533035 3.8130591 -1.5253483 4
6.2529454 3.5305459 -1.539564 5
5.8324323 3.2931154 -1.5548307 4
5.501514 3.106272 -1.5781522 7
4.1467566 2.341347 -1.6382314 6
3.1506886 1.7789459 -1.686587 12
5.3453236 2.9690623 1.6140516 16
6.3069186 3.5031807 1.3941326 22
8.7199841 4.8435187 1.3954844 14
13.656027 7.5852456 1.3562421 38
13.703264 7.6114836 0.80641836 52
13.717072 7.619153 0.52957374 30
13.725935 6.3655443 0.42077345 57
13.714725 8.9780836 0.35939345 62
13.712631 7.6166868 0.25134429 28
13.741424 6.3727274 0.15333921 25
12.446173 8.1476498 0.062831528 0
10.528806 5.8482294 -0.019969698 0
8.7305574 4.0488863 -0.072562568 9
10.24994 6.7099276 -0.16465011 0
12.163041 6.7559662 -0.26909429 0
8.7062597 4.0376177 -0.24225391 14
9.8010101 6.4160442 -0.36465842 0
9.8646488 5.4793234 -0.41831055 0
8.7263851 4.0469513 -0.41325215 10
8.975132 5.8753991 -0.52371043 1
9.2456293 5.1354885 -0.57926351 4
8.7256651 4.0466175 -0.58322769 9
8.7589579 5.7338848 -0.6966247 1
9.1864405 5.102612 -0.76155066 3
8.7077475 4.0383081 -0.75205374 2
8.5939455 5.6258626 -0.86524028 14
9.1245651 5.0682435 -0.94108552 3
8.7016506 4.0354805 -0.92122602 6
8.7830057 5.7496271 -1.0701938 4
9.2443361 5.1347704 -1.1405607 3
9.3156939 5.1744061 -1.3382678 3
8.8128119 4.8950796 -1.4444399 5
8.0022955 4.4448786 -1.4752294 3
7.3318162 4.0724602 -1.4999801 5
6.7626033 3.7562909 -1.5214887 4
6.2911162 3.4944031 -1.5429182 5
5.8620925 3.2561018 -1.5566397 4
5.5094948 3.0602512 -1.5742747 7
4.166307 2.314177 -1.6395326 6
3.1757088 1.7639487 -1.6933469 10
5.3591332 2.9279637 1.6120098 17
6.4277239 3.5117886 1.4153823 25
8.7292509 4.7692285 1.391605 18
13.659689 7.462975 1.3513983 29
13.692966 7.4811559 0.80271918 54
13.713797 7.4925365 0.52741498 31
8.7154455 3.9681845 0.26631933 61
13.713207 8.8409472 0.35772756 54
13.726864 7.4996758 0.25063935 27
8.7220078 3.9711723 0.097016305 38
13.719744 8.8451605 0.06894742 33
10.551826 5.7649932 -0.019936537 0
8.7258482 3.9729207 -0.072291136 33
10.279725 6.6273708 -0.16438133 0
10.184869 5.5645056 -0.2244644 0
8.6978416 3.9601693 -0.24124452 33
9.8858862 6.3734612 -0.3661519 0
9.9166918 5.4179873 -0.41890329 0
8.7180548 3.9693723 -0.41153526 15
8.9924259 5.7974448 -0.52234507 1
9.344347 5.1052866 -0.58320111 6
8.7319002 3.9756763 -0.58177507 31
8.7014942 5.60988 -0.68892276 1
9.270854 5.065134 -0.76559842 2
8.7320986 3.9757667 -0.75174129 41
8.622961 5.5592499 -0.86423302 16
9.2855844 5.0731812 -0.95401645 3
8.7187405 3.9696846 -0.92007881 44
8.7326279 5.629952 -1.0592403 2
9.2834482 5.0720143 -1.1409897 3
9.3620405 5.114953 -1.339763 2
8.8502445 4.8353333 -1.4450073 3
8.0262003 4.3851166 -1.4739565 3
7.3600683 4.0211754 -1.4999801 5
6.8024397 3.7165146 -1.5245764 5
6.3016295 3.4428971 -1.539564 5
5.8915205 3.2188337 -1.5584487 4
5.5443478 3.029156 -1.5781522 8
4.1790423 2.283221 -1.6382314 6
3.1752195 1.734782 -1.686587 11
5.3726292 2.8868179 1.6099679 18
6.5212746 3.5040073 1.4305606 24
8.7518644 4.7025466 1.3899424 22
13.658801 7.339139 1.3462086 31
13.709671 7.3664722 0.80066407 54
13.716468 7.3701243 0.52552605 30
8.7283344 3.9007165 0.26587453 38
13.713824 8.7064171 0.35614935 59
13.71547 7.3695884 0.24948581 28
8.723958 3.898761 0.096732862 44
13.720373 8.7105742 0.068643317 41
10.588292 5.6892948 -0.019929904 0
8.727809 3.9004819 -0.072080024 40
10.302106 6.5404387 -0.16400506 0
10.198808 5.4800172 -0.22392295 0
8.7179756 3.8960874 -0.24104264 38
9.8592577 6.2592907 -0.3635383 0
9.9754019 5.3599768 -0.41979235 0
8.7419052 3.9067814 -0.41136357 51
9.0023241 5.7152534 -0.52058959 1
9.4888277 5.0985312 -0.58998251 3
8.7266369 3.8999579 -0.57959616 45
8.7134905 5.5318832 -0.6867981 11
9.6328239 5.1759028 -0.79248685 2
8.7305164 3.9016917 -0.74924171 48
8.6581964 5.4967794 -0.86389726 25
9.4049978 5.0534878 -0.96263707 3
8.7389717 3.9054704 -0.91931397 44
8.6507759 5.4920683 -1.0446357 22
9.4552574 5.080493 -1.1577184 8
9.4919157 5.1001906 -1.3532205 2
8.8768101 4.7696824 -1.4438726 3
8.0740118 4.3383231 -1.4771386 3
7.3914304 3.971559 -1.5006843 5
6.8178473 3.6633618 -1.5222607 5
6.3324022 3.4025226 -1.5412412 5
5.8966866 3.1684041 -1.5539262 5
5.5551043 2.9848652 -1.5752439 8
4.2048759 2.2593615 -1.642135 7
3.2000277 1.719437 -1.6933469 11
5.3960719 2.8510466 1.6109889 18
6.6393347 3.5079317 1.4510515 23
8.7494555 4.6228266 1.3844004 22
13.670948 7.2231259 1.3424028 29
13.711316 7.2444553 0.79778695 60
13.721636 7.2499075 0.52377206 30
8.7223969 3.8252335 0.26487377 38
13.740361 8.5892658 0.35527256 41
13.720613 7.2493677 0.24865268 29
8.7216597 3.8249097 0.096408941 40
13.729974 8.5827723 0.0683899 36
10.606532 5.6040239 -0.019890111 1
8.721858 3.8249972 -0.071808591 39
10.208464 6.3814335 -0.16180111 0
10.236816 5.4086828 -0.22392295 0
8.7193279 3.8238876 -0.24033608 36
9.8484735 6.1563997 -0.36154699 0
10.005509 5.2864704 -0.419496 0
8.7396879 3.8328161 -0.40999007 47
9.0420046 5.652266 -0.52058959 1
9.64779 5.0974669 -0.59763891 1
8.7390242 3.832525 -0.57862771 43
8.7518978 5.4709167 -0.6867981 24
9.8697872 5.2147608 -0.80896688 1
8.7246733 3.8262315 -0.74642974 42
8.669322 5.4192977 -0.86121124 27
9.5739002 5.0584269 -0.97628641 13
8.7222662 3.825176 -0.91472507 40
8.6889067 5.4315405 -1.0446357 11
9.6487293 5.0979629 -1.1770209 5
9.6606369 5.1042547 -1.3721606 2
8.8958883 4.7001953 -1.4416033 3
8.0831528 4.2707815 -1.47332 3
7.4154954 3.9180207 -1.4999801 5
6.8467264 3.6175084 -1.5230325 4
6.3560019 3.3582313 -1.5412412 5
5.9255528 3.1308007 -1.5557352 4
5.5723753 2.9441977 -1.5742747 7
4.2138581 2.2264168 -1.6395326 6
3.1927202 1.6868926 -1.683207 11
5.407999 2.8116283 1.608947 17
6.7495675 3.5091121 1.4700243 24
8.7623482 4.5555606 1.3816293 20
13.66198 7.1028876 1.3368671 27
13.70944 7.1275625 0.79490983 47
13.716211 7.1310825 0.52174819 29
8.7218685 3.7562299 0.26409537 37
13.728925 8.4560041 0.35351899 38
13.718711 7.1323824 0.24775548 26
8.7211189 3.7559073 0.096125498 39
10.626031 6.5448503 0.05271158 1
10.618623 5.5206409 -0.019843686 3
8.7213192 3.7559934 -0.071597479 37
10.202885 6.2842236 -0.16104855 0
10.272463 5.3406715 -0.22392295 0
8.7151165 3.7533221 -0.23952857 36
10.433753 6.4264216 -0.38146007 0
10.029711 5.2144647 -0.41905147 2
8.7392225 3.7637036 -0.40878826 44
9.0622835 5.5816979 -0.51961434 1
9.8231325 5.1070642 -0.60638911 1
8.7385807 3.7634273 -0.57693303 43
8.7845907 5.4106593 -0.68653256 7
9.8298216 5.1105418 -0.80289531 3
8.7315454 3.7603974 -0.7448675 41
8.7016783 5.3595915 -0.86087549 33
9.7804365 5.0848665 -0.99388689 4
8.7181873 3.7546446 -0.9116658 39
8.7653971 5.3988376 -1.0495039 2
9.8128834 5.1017356 -1.1928918 3
9.9795055 5.1883631 -1.4125329 2
8.9374046 4.6465726 -1.4433053 3
8.1183062 4.2207217 -1.4745929 2
7.4413171 3.8687539 -1.4999801 5
6.8775325 3.5756414 -1.5245764 4
6.3781343 3.3160033 -1.5412412 5
5.9392719 3.0878382 -1.5539262 4
5.6055527 2.9143367 -1.5781522 7
4.2251754 2.1966763 -1.6382314 6
3.2231381 1.6757152 -1.6933469 11
5.4137211 2.7667646 1.6048634 16
6.8473411 3.499438 1.4859617 22
8.7480822 4.4708409 1.3744247 20
13.65801 6.980134 1.3316774 30
13.709067 7.006228 0.79203272 32
13.722945 7.0133204 0.52012914 30
8.7147293 3.6812463 0.2630946 36
13.729492 8.3247051 0.35202846 32
13.704067 7.0036726 0.24660194 25
8.7213364 3.6840374 0.095842063 38
10.668043 6.4684339 0.052694686 1
10.649782 5.4427338 -0.019830421 1
8.7215347 3.6841211 -0.071386367 36
11.019442 6.6815 -0.17319708 0
10.309498 5.268826 -0.22392295 1
8.7079544 3.6783848 -0.2386201 36
9.8493195 5.9720106 -0.35856003 0
10.144176 5.1843362 -0.4223114 2
8.7395153 3.6917164 -0.40758643 42
9.080533 5.5058665 -0.51844406 1
9.9865808 5.1037946 -0.61426431 1
8.7241831 3.6852398 -0.57426983 40
8.8119116 5.3429918 -0.68573576 20
10.018018 5.1198606 -0.81532758 2
8.7318697 3.6884868 -0.74268037 41
8.7422915 5.3007789 -0.86121124 38
9.978879 5.0998583 -1.0104097 4
8.7221794 3.6843936 -0.90937132 35
8.8437071 5.3622708 -1.0543721 3
11.268309 5.758841 -1.3648982 3
9.9978151 5.1095357 -1.4100409 1
8.9696264 4.5840645 -1.4433053 3
8.1335096 4.156754 -1.4720472 2
7.4716516 3.8185015 -1.5006843 5
6.8883486 3.5203955 -1.5214887 4
6.3906813 3.2660551 -1.5387255 5
5.9676242 3.0498452 -1.5557352 4
5.6119394 2.8680673 -1.5742747 6
4.2404084 2.1671255 -1.6382314 6
3.2283018 1.6498728 -1.6899669 10
5.4501843 2.7375827 1.6099679 15
6.9874177 3.5097225 1.511006 22
8.7578411 4.3989916 1.3710995 20
13.667234 6.8649387 1.3278717 28
13.7041 6.8834562 0.78895003 30
13.725131 6.8940201 0.5183751 31
8.72544 3.6141956 0.2626498 36
13.72203 8.1897135 0.35036257 32
13.713313 6.8880839 0.245897 25
8.7320614 3.6169381 0.095680103 38
10.644246 6.3528013 0.052356791 1
10.755433 5.4023652 -0.019956434 0
8.7285652 3.61549 -0.071235575 38
10.186598 6.0796628 -0.15943591 0
10.603339 5.3259702 -0.22949202 0
8.711256 3.6083205 -0.23801447 38
9.8942051 5.9051542 -0.35868448 0
10.305141 5.1761875 -0.42749768 1
8.7355375 3.6183784 -0.40621293 44
9.122179 5.444387 -0.51863909 1
10.1683 5.1074533 -0.62323326 1
8.7386312 3.6196597 -0.57354355 46
8.8935518 5.3079348 -0.68918836 5
10.21038 5.1285896 -0.82804906 1
8.7426701 3.6213326 -0.74143058 39
8.7825069 5.2416601 -0.86154699 27
10.202918 5.1248417 -1.029447 2
8.7219391 3.6127455 -0.90669441 37
8.8740931 5.2963219 -1.0535607 7
11.311792 5.6818199 -1.3653271 2
10.008416 5.0271449 -1.4065518 3
8.9943333 4.5177794 -1.4421706 3
8.1799746 4.1087341 -1.4752294 3
7.4910893 3.7627125 -1.4992759 5
6.9338007 3.4827909 -1.5261203 4
6.416822 3.2231166 -1.539564 5
5.9992156 3.0133564 -1.5584487 4
5.6248894 2.8253355 -1.5723358 6
4.255434 2.1374695 -1.6382314 6
3.2397411 1.6272953 -1.6899669 11
5.4701052 2.6975572 1.6099679 16
7.1080604 3.5053072 1.5314968 23
8.7614288 4.3206582 1.3666658 19
13.667152 6.7398934 1.323028 29
13.714779 6.7633801 0.78668946 31
13.728686 6.7702384 0.51662111 28
8.7220583 3.5381138 0.26176021 35
13.712717 8.0484209 0.348609 57
13.72398 6.7679172 0.24519205 25
8.7249832 3.5393004 0.09531568 43
10.642233 6.2462583 0.052120265 1
11.085333 5.4666805 -0.020493645 0
8.7288885 3.5408845 -0.071024463 37
11.100136 6.5150156 -0.17298205 0
11.108382 5.4780478 -0.2395473 0
8.7152405 3.5353482 -0.23740883 42
9.9751539 5.8547287 -0.36005351 0
10.457528 5.1570821 -0.43223944 1
8.7322025 3.5422289 -0.40483943 47
9.1618433 5.3773713 -0.51863909 1
10.370243 5.114038 -0.63329601 1
8.7353315 3.5434983 -0.5716067 45
8.9459896 5.25068 -0.69025069 6
10.401558 5.1294804 -0.84048134 1
8.732029 3.5421586 -0.73830616 20
8.824132 5.1791582 -0.86188275 10
10.422434 5.1397753 -1.0477659 1
8.6928425 3.5262625 -0.9009583 8
8.8543358 5.1968856 -1.0466641 17
11.370972 5.607542 -1.3674718 2
10.059236 4.9606657 -1.4085455 4
9.0165548 4.4464726 -1.4404685 3
8.2027893 4.0451679 -1.4739565 3
7.5325956 3.7146649 -1.5020927 5
6.9521041 3.4283981 -1.5245764 4
6.4613223 3.1863713 -1.5445954 5
6.028132 2.9727457 -1.5602577 4
5.6663322 2.7943258 -1.5781522 6
4.2743802 2.1078911 -1.6395326 7
3.2678406 1.6115205 -1.6984167 12
5.5096874 2.6694214 1.6160934 12
7.2242517 3.5001211 1.5512286 23
8.7842474 4.2559328 1.3655574 19
13.66725 6.6217279 1.3185302 28
13.714927 6.6448269 0.7840178 34
13.725247 6.649828 0.51473218 30
8.7205362 3.4667976 0.26098183 38
13.72009 7.9244905 0.3473815 52
13.720503 6.6475286 0.24429485 28
8.7308941 3.4709153 0.095113225 41
10.626698 6.1377997 0.051833052 1
11.159224 5.406599 -0.020559968 0
8.7422447 3.4754276 -0.070933983 36
11.114178 6.4193597 -0.17249827 0
10.782847 5.2242465 -0.23173513 0
8.7434244 3.4758966 -0.23750977 27
11.095952 6.4088326 -0.39888403 0
