# .PCD v0.7 - Point Cloud Data file format
VERSION 0.7
FIELDS x y z intensity
SIZE 4 4 4 4
TYPE F F F F
COUNT 1 1 1 1
WIDTH 1373
HEIGHT 1
VIEWPOINT 0 0 0 1 0 0 0
POINTS 1373
DATA ascii
-7.9541059 2.6691275 -0.60802621 0
-10.291996 4.3094563 -0.87421948 9
-7.752552 1.9890759 -0.67419577 0
-7.7274666 2.593075 -0.73490876 0
-18.359894 7.6876402 -1.9116683 37
-7.6281099 1.9571478 -0.80284816 0
-7.5821104 2.5442984 -0.86260533 6
-7.5515995 2.53406 -1.0003365 33
-7.5640039 2.5382226 -1.1431841 33
-7.5214529 2.5239439 -1.2785745 49
-7.4584413 2.5027993 -1.4070235 2
-7.4306359 2.4934688 -1.5415591 2
-8.9546309 3.0048695 -2.0250802 2
-7.7868719 2.6130095 -1.9066801 3
-7.5054469 2.5185728 -1.977537 6
-5.3286867 1.7881261 -1.9336075 5
-1.5088917 0.50633276 -0.7418955 12
-2.0338004 0.69830918 0.56762344 17
-3.7850676 1.2996101 0.77333754 7
-5.5826149 1.9168013 0.82576323 20
-6.271667 2.1533887 0.57571089 5
-11.134394 3.823015 0.60563576 21
-11.20327 3.846664 0.39977759 36
-10.498737 4.4824233 0.31747043 3
-13.996883 3.6955254 0.31739551 27
-11.189297 3.841866 0.18956563 25
-15.247586 6.5099382 0.16783497 19
-16.127213 4.2579856 0.070451051 1
-11.198284 3.8449519 -0.019631455 36
-18.422596 7.8655052 -0.15103631 37
-18.3843 4.8539124 -0.25554901 33
-11.154597 3.8299522 -0.22809976 51
-18.420929 7.8647938 -0.50560409 38
-18.37706 4.8520007 -0.59166759 38
-11.171709 3.8358276 -0.43787026 55
-18.373064 7.8443575 -0.85826647 44
-8.8923292 2.3477962 -0.44900611 1
-11.162653 3.8327179 -0.64642131 51
-18.378326 7.8466043 -1.2117288 52
-7.8259258 2.0662391 -0.53860271 0
-7.9352779 2.7245927 -0.60802621 0
-10.052612 4.2919507 -0.85641015 8
-7.7615995 2.0492554 -0.67621028 0
-7.7468534 2.6598969 -0.73850065 0
-18.364367 7.8406444 -1.9177868 38
-7.6142612 2.0103543 -0.80284816 0
-7.5980148 2.6087928 -0.86646587 8
-7.5675077 2.5983181 -1.0048223 34
-7.5760584 2.601254 -1.1477227 33
-7.518589 2.5815217 -1.2811202 40
-7.4891996 2.5714309 -1.4161783 2
-7.4501677 2.5580292 -1.5492784 1
-8.3822613 2.8780653 -1.9001373 2
-7.7905512 2.6749005 -1.9121071 3
-7.5060329 2.5772107 -1.982384 5
-5.3124957 1.8240554 -1.9323063 5
-1.4847461 0.50979042 -0.73175567 16
-2.0434721 0.71761656 0.57170707 17
-3.7759025 1.3260032 0.77333754 6
-5.5952606 1.9649166 0.82964265 20
-6.2414412 2.1918392 0.57432699 5
-11.145123 3.9138901 0.60769087 20
-11.198773 3.9327309 0.40058714 35
-10.533181 4.584331 0.31947201 24
-14.009336 3.8036304 0.31827229 32
-11.192391 3.9304898 0.19007832 26
-15.249445 6.6369791 0.16836135 17
-18.397781 4.9951234 0.080520317 42
-11.193813 3.930989 -0.019671248 37
-18.425917 8.0194674 -0.15151885 37
-18.376986 4.9894767 -0.2559253 34
-11.135135 3.9103827 -0.22825445 79
-18.424238 8.0187368 -0.50721914 36
-18.389038 4.9927492 -0.59316105 35
-11.171059 3.9229982 -0.4389075 53
-18.37648 7.997951 -0.86101347 42
-8.8834333 2.4119129 -0.44939619 1
-11.162003 3.9198179 -0.64795262 53
-18.367031 7.9938388 -1.2146341 53
-7.8190131 2.1229155 -0.53913385 0
-7.9687624 2.7984314 -0.61207396 0
-9.8286104 4.2776823 -0.8398506 7
-7.7855706 2.1138356 -0.67956787 0
-7.750648 2.7218351 -0.74065584 0
-18.363945 7.9924951 -1.9235229 35
-7.59236 2.0613775 -0.80203676 0
-7.5908747 2.6657267 -0.86775267 4
-7.5791411 2.6616061 -1.0088097 36
-7.5838661 2.6632652 -1.1516941 34
-7.5264654 2.6431077 -1.2855752 37
-7.4896412 2.6301758 -1.4196994 5
-7.4654565 2.6216829 -1.5562259 1
-8.306612 2.9170759 -1.8875592 2
-7.7790399 2.7318056 -1.9139161 4
-7.4695506 2.6231205 -1.977537 5
-5.3067698 1.8636057 -1.9349087 5
-1.4879924 0.52254599 -0.73513561 14
-2.0311322 0.72925144 0.56966525 18
-3.7665532 1.3523316 0.77333754 6
-5.5851345 2.0052695 0.83019686 18
-6.2559924 2.2461321 0.57709479 6
-11.140085 3.999702 0.60892391 20
-11.193621 4.0189228 0.40139666 35
-10.954144 4.8587856 0.33326057 23
-13.997849 3.9056337 0.31862301 29
-11.187263 4.0166407 0.19046283 27
-15.26124 6.7692266 0.16900919 15
-18.404844 5.1352587 0.080706157 43
-11.19245 4.0185027 -0.019717673 33
-18.417013 8.168992 -0.15191092 34
-18.387936 5.1305413 -0.25657034 31
-11.156496 4.0055938 -0.22925998 70
-18.43726 8.1779718 -0.50913697 34
-18.376841 5.1274457 -0.59390783 35
-11.165971 4.0089955 -0.4397966 55
-18.367687 8.1471128 -0.86324543 44
-8.8086548 2.4577618 -0.44647044 0
-11.168196 4.0097947 -0.64992142 54
-18.372822 8.1493902 -1.2187498 49
-7.8001585 2.1763744 -0.53886831 0
-7.8814435 2.8297293 -0.60686976 0
-9.6089535 4.2621164 -0.82360351 4
-7.7744637 2.1692052 -0.67990363 0
-7.7914491 2.7974179 -0.74640292 0
-18.376852 8.1511784 -1.9307888 35
-7.608448 2.122884 -0.80528224 0
-7.6357102 2.7415018 -0.8750447 4
-7.5939927 2.7265236 -1.0132955 36
-7.5949011 2.7268498 -1.1562327 33
-7.5487137 2.7102668 -1.2925758 32
-7.471096 2.6823993 -1.4196994 36
-7.4765229 2.6843476 -1.5624014 2
-8.2860451 2.9749959 -1.8875592 3
-7.7781138 2.7926302 -1.9184386 4
-7.4364457 2.6699586 -1.9736595 6
-5.28651 1.8980522 -1.9323063 6
-1.4843081 0.53292137 -0.73513561 14
-2.0368843 0.74740952 0.57272798 16
-3.7496471 1.3758867 0.77181971 7
-5.5598435 2.0401158 0.82853425 22
-6.2588654 2.2966132 0.5788247 6
-11.149396 4.0911326 0.61097902 20
-11.195316 4.1079831 0.40247604 33
-10.963681 4.9549017 0.33459494 26
-13.993308 4.0098715 0.31914908 27
-11.196498 4.1084166 0.1911037 27
-15.250057 6.8920774 0.1694141 15
-18.399307 5.2724385 0.080841318 37
-11.205431 4.1116943 -0.019790627 31
-18.436079 8.3319607 -0.15254425 36
-12.015287 3.4430571 -0.16798289 6
-11.14328 4.0888886 -0.22956938 86
-18.430733 8.3295441 -0.51055014 35
-11.999025 3.4383969 -0.3885541 14
-11.160229 4.095108 -0.44068566 56
-18.364986 8.2998314 -0.86582071 46
-9.1868706 2.6325562 -0.46656063 2
-11.162429 4.0959153 -0.65123391 51
-18.377333 8.3054113 -1.2228656 46
-7.8039584 2.236274 -0.54019618 0
-11.161155 4.0954475 -0.86158735 43
-9.3645639 4.2322001 -0.80516928 1
-7.7782884 2.2289181 -0.68158239 0
-7.8203516 2.8695812 -0.75107241 0
-18.370296 8.3022318 -1.9361426 35
-7.6010933 2.1781416 -0.80609363 0
-7.6649213 2.8125482 -0.88062096 16
-7.6120334 2.7931414 -1.0182798 35
-7.6165695 2.794806 -1.1624734 31
-7.5555611 2.7724197 -1.2970308 27
-7.4558854 2.7358449 -1.4204037 34
-7.4833937 2.7459388 -1.5678049 3
-7.9419622 2.9142048 -1.8137674 2
-7.7840352 2.8562555 -1.92477 4
-7.4139824 2.7204692 -1.9726901 6
-5.2731314 1.9349103 -1.9323063 5
-1.4941659 0.5482657 -0.7418955 15
-2.035238 0.76296902 0.57374889 16
-3.7546601 1.4075451 0.77485538 8
-5.5640121 2.085834 0.83130527 20
-6.2352166 2.3374548 0.57813275 7
-11.157967 4.1828928 0.61303413 20
-11.196311 4.1972671 0.40355545 33
-13.463988 6.1984415 0.41221118 2
-11.862555 3.489089 0.27110136 17
-11.197504 4.1977143 0.19161637 24
-15.266969 7.0284824 0.17014295 15
-11.826924 3.4786093 0.052069582 19
-11.20267 4.1996512 -0.019837053 32
-18.421061 8.4805374 -0.15290616 35
-11.730035 3.4501114 -0.16432758 14
-11.148165 4.1792183 -0.23026551 63
-18.422981 8.4814224 -0.51196331 35
-11.683223 3.436343 -0.37909541 14
-11.153824 4.1813397 -0.44157472 52
-18.361048 8.4529095 -0.86839604 46
-9.2564249 2.722558 -0.47104681 1
-11.163482 4.1849604 -0.65298396 49
-18.37693 8.4602213 -1.2267392 46
-7.784327 2.2895753 -0.53993064 0
-11.162176 4.1844711 -0.8639003 49
-18.394279 8.4682083 -1.5865928 42
-7.7778339 2.2876654 -0.6829254 0
-7.8337002 2.9366934 -0.75430518 0
-18.384224 8.4635792 -1.9437908 34
-7.5704312 2.2266629 -0.8044709 0
-7.6860623 2.8813472 -0.88533938 11
-7.6183624 2.8559678 -1.0217687 32
-7.6339483 2.8618107 -1.1681468 28
-7.558208 2.8334172 -1.3008493 22
-7.4808474 2.8044162 -1.4288542 30
-7.4934411 2.8091373 -1.5739805 3
-7.9214239 2.9695792 -1.8137674 2
-7.7784991 2.9159999 -1.928388 4
-7.3948092 2.7721624 -1.9726901 5
-5.2630363 1.9730045 -1.9336075 5
-1.4665385 0.54977524 -0.7300657 16
-2.0406976 0.78130758 0.57681161 17
-3.7410741 1.4323188 0.77409649 9
-5.5308166 2.1175449 0.82853425 19
-6.2075815 2.3766532 0.57709479 8
-11.150877 4.269258 0.61426717 20
-11.19287 4.2853355 0.40449989 35
-12.330685 5.7813611 0.37874058 0
-11.577564 3.493268 0.26513925 17
-11.194071 4.2857952 0.19206497 29
-15.271855 7.1603575 0.17075031 14
-11.530459 3.4790552 0.050870053 20
-11.195492 4.2863398 -0.019876847 35
-18.412113 8.6326981 -0.15332839 37
-11.456768 3.4568205 -0.16083354 13
-11.16727 4.2755342 -0.23127104 50
-18.424877 8.6386814 -0.51367927 35
-11.391013 3.4369805 -0.37038341 13
-11.169158 4.276257 -0.44335288 53
-18.37034 8.6131124 -0.87165809 41
-9.0650702 2.7351797 -0.46226951 1
-11.163833 4.2742186 -0.65473402 49
-18.37888 8.617115 -1.230855 50
-7.7910786 2.3507817 -0.54152411 0
-11.166224 4.2751336 -0.8665024 50
-18.374434 8.6150312 -1.5900296 39
-7.776937 2.3465147 -0.68426841 0
-11.135395 4.2633305 -1.0750644 31
-18.353535 8.6052322 -1.9468501 34
-7.5699401 2.2840581 -0.80609363 0
-7.7586102 2.9704847 -0.89606291 57
-7.6501284 2.928951 -1.0287466 31
-7.6544595 2.9306092 -1.1743876 28
-7.5566831 2.8931744 -1.3040315 29
-7.5015364 2.8720605 -1.4366007 29
-7.4736471 2.861383 -1.5739805 0
-7.929719 3.035996 -1.8204758 2
-7.7761459 2.9771986 -1.9329106 4
-7.3535309 2.8153946 -1.9668739 5
-5.2385368 2.0056419 -1.9297038 5
-1.4626646 0.56000018 -0.7300657 13
-2.0351934 0.79553533 0.57681161 15
-3.7273257 1.4569718 0.77333754 7
-5.5158987 2.1561058 0.82853425 19
-6.1871262 2.4184816 0.57674885 8
-11.180329 4.3702712 0.61755532 23
-11.873845 4.6413589 0.43027025 2
-12.196206 5.8225169 0.37584943 5
-11.300748 3.4960051 0.25935248 17
-14.684019 5.7398262 0.252626 2
-15.272027 7.2909255 0.17131719 17
-11.246043 3.4790816 0.049721211 18
-18.437452 7.2070031 -0.032822996 30
-18.430809 8.7989407 -0.15399188 36
-11.199277 3.4646139 -0.15755451 26
-11.163223 4.3635845 -0.23181248 45
-18.429071 8.798111 -0.51549613 37
-11.187226 3.4608858 -0.36453396 43
-11.168815 4.3657703 -0.44453833 25
-18.367464 8.7686987 -0.87440509 41
-8.8472824 2.7369995 -0.45212689 1
-11.163481 4.3636851 -0.65648407 4
-18.379526 8.7744579 -1.2349707 49
-7.8011684 2.4133732 -0.54338318 0
-11.143538 4.3558893 -0.86708069 9
-18.385815 8.7774601 -1.5962785 44
-7.7946367 2.4113526 -0.68729025 0
-11.127624 4.349669 -1.0772196 50
-18.375654 8.7726097 -1.9556454 39
-7.5918264 2.3486111 -0.81015044 0
-7.7413874 3.0260255 -0.89649189 2
-7.6960301 3.0082958 -1.0377183 24
-7.6780663 3.0012741 -1.1811956 24
-7.5877934 2.9659872 -1.3129413 23
-7.5473142 2.9501643 -1.4492766 255
-7.4936991 2.9292068 -1.5824717 0
-8.7170134 3.4073875 -2.0066323 3
-7.7878327 3.0441806 -1.941051 4
-7.3373103 2.8680763 -1.9678433 5
-5.2279301 2.0435419 -1.9310051 5
-1.472226 0.57547742 -0.73682559 6
-2.0439584 0.81545681 0.58089525 14
-3.7462454 1.4946004 0.77940887 7
-5.522788 2.2033691 0.83185947 20
-6.2145066 2.479337 0.58090061 8
-11.824826 4.7176275 0.65495801 25
-11.061396 4.4130497 0.40193635 17
-12.043777 5.8533387 0.37240228 3
-11.165516 3.539767 0.2568098 41
-12.667336 5.0537548 0.21853238 3
-15.274716 7.4235926 0.17192455 13
-11.175725 3.5430036 0.049518473 48
-18.420124 7.3488851 -0.032882687 43
-18.422894 8.9536238 -0.15444426 39
-11.171003 3.5415068 -0.15750076 35
-18.364702 7.3267741 -0.38240936 44
-18.428341 8.9562702 -0.51721209 34
-11.170414 3.5413198 -0.36478287 43
-18.381519 7.3334827 -0.73363644 45
-18.37409 8.9299049 -0.87766719 45
-8.656579 2.7443669 -0.44334963 0
-18.374035 7.3304977 -1.0834939 40
-18.378868 8.9322262 -1.2390865 49
-7.8069563 2.4750137 -0.54497671 0
-10.868291 4.336009 -0.84799856 7
-18.367128 8.9265213 -1.6000279 38
-7.7548151 2.4584837 -0.68527567 0
-18.338333 7.3162537 -1.7801602 43
-18.385586 8.9354916 -1.9632937 37
-7.5866246 2.4051628 -0.81136751 0
-18.332401 7.3138876 -2.1288464 41
-18.331884 7.3136811 -2.4786613 5
-7.5999131 3.032058 -1.3186692 19
-7.6033349 3.0334232 -1.4640651 2
-7.5496202 3.0119932 -1.5986824 0
-8.7039108 3.4725084 -2.0091479 5
-7.7844849 3.105695 -1.9455734 4
-7.320713 2.9206686 -1.9688126 4
-5.2100229 2.0785885 -1.9297038 5
-1.4378663 0.57365054 -0.72161585 5
-2.0525444 0.83553922 0.58497882 15
-3.7284451 1.5177563 0.77789104 5
-5.5256166 2.2493398 0.83463049 18
-6.2044287 2.525667 0.58159256 8
-11.828603 4.8151269 0.65701312 24
-11.415398 4.6469216 0.41596839 12
-12.239159 6.054285 0.37974134 3
-11.178567 3.6299818 0.25768659 39
-14.146813 5.7588129 0.24474345 9
-15.276296 7.5566506 0.17253192 12
-11.184958 3.6320572 0.049670529 48
-18.423944 7.4999251 -0.032982171 31
-18.435226 9.1192636 -0.15507761 36
-11.172635 3.6280556 -0.15787703 35
-18.357553 7.4728994 -0.38333756 38
-18.419127 9.1113005 -0.51872623 38
-11.172037 3.6278615 -0.36565405 45
-18.370596 7.4782085 -0.73526639 40
-18.372194 9.0880842 -0.88058585 47
-11.129953 3.6141956 -0.57130271 66
-18.377899 7.4811816 -1.0867753 41
-18.380478 9.0921812 -1.2434443 45
-7.8084674 2.5356197 -0.54630464 0
-10.612352 4.3200226 -0.83036202 5
-18.386572 9.0951967 -1.6072141 39
-7.7791634 2.526104 -0.68896902 0
-18.353226 7.4711375 -1.7866256 43
-18.37986 9.0918751 -1.9694122 27
-7.5847874 2.4629848 -0.81299025 0
-18.336147 7.4641848 -2.1352806 52
-16.637239 6.7726026 -2.2558658 1
-13.932246 5.6714673 -2.1553133 1
-12.117649 4.9327908 -2.1084704 2
-10.678218 4.3468347 -2.0619445 4
-9.5713663 3.8962629 -2.0325112 4
-8.6794558 3.5331886 -2.0091479 4
-7.7806582 3.1673107 -1.950096 3
-7.3037391 2.9731686 -1.969782 5
-5.2023907 2.1177626 -1.9323063 5
-1.3633105 0.55496943 -0.68612659 3
-2.0395174 0.84688199 0.58293706 11
-3.7250123 1.5467609 0.77940887 5
-5.5170956 2.2908993 0.8357389 20
-6.1940055 2.5719769 0.58228451 9
-11.809456 4.9037166 0.65783513 18
-11.157461 4.6329851 0.40773806 9
-12.093021 6.0874467 0.37651661 16
-11.179517 3.7167659 0.25830033 39
-13.884643 5.7654099 0.24089831 4
-15.269611 7.6864944 0.1730583 11
-11.178308 3.7163639 0.049755 44
-18.441324 7.6575103 -0.033108182 29
-18.428276 9.2765188 -0.15556015 36
-11.173603 3.7147999 -0.15825331 34
-18.352953 7.6208148 -0.38434306 44
-18.433647 9.2792234 -0.52094686 35
-11.169201 3.7133362 -0.36640081 43
-18.365934 7.6262059 -0.73719275 45
-18.368982 9.2466717 -0.88350457 43
-11.138572 3.7031531 -0.57305819 60
-18.38793 7.6353393 -1.0904942 42
-18.377184 9.2507992 -1.2475601 43
-7.8208747 2.6001446 -0.54842931 0
-10.371918 4.3067985 -0.81388199 0
-18.390305 9.2574053 -1.6131505 38
-7.7802505 2.5866387 -0.69064778 0
-18.330053 7.6113067 -1.7894992 59
-8.2475061 4.1516714 -0.88680911 4
-7.6013942 2.5271757 -0.81664139 0
-18.335011 7.6133652 -2.1412859 47
-16.61521 6.899241 -2.2593548 1
-13.884998 5.7655578 -2.1541784 1
-12.090212 5.0202966 -2.1097434 2
-10.633066 4.4152369 -2.0591276 5
-9.5511818 3.9659991 -2.0340552 4
-8.6581907 3.5951962 -2.0099864 4
-7.7763491 3.2290237 -1.9546185 3
-7.2720523 3.0196214 -1.9668739 5
-5.1700134 2.1467781 -1.9258002 6
-1.2656509 0.5255444 -0.63880748 0
-2.1795723 0.92293018 0.62479419 7
-3.7177393 1.5742601 0.78016782 8
-5.5082636 2.3324494 0.83684731 19
-6.197916 2.6244798 0.58436042 8
-11.815396 5.0031767 0.66009575 13
-10.996 4.6562071 0.40301573 12
-12.028875 6.1607871 0.37584943 25
-11.164657 3.7985818 0.25856337 39
-15.265658 6.4641747 0.2656354 1
-12.029349 6.1610298 0.1368189 27
-11.182386 3.8046141 0.049890161 45
-18.42425 7.8016663 -0.033174504 37
-12.001143 6.1465836 -0.10166601 25
-11.166331 3.7991517 -0.15852208 34
-18.369272 7.7783861 -0.3858127 46
-11.983425 6.1375093 -0.33986205 20
-11.177073 3.8028061 -0.3675209 41
-18.382181 7.7838521 -0.74000812 48
-12.072233 6.1829939 -0.58270782 6
-11.127578 3.7859666 -0.57383835 60
-18.389347 7.7868867 -1.0937755 39
-12.050554 6.1718907 -0.82097346 24
-7.8554311 2.6726749 -0.55214745 0
-18.379755 7.782825 -1.4464837 41
-12.010957 6.1516099 -1.0573119 25
-7.8035116 2.6550102 -0.69434106 0
-18.331497 7.7623906 -1.7948871 60
-8.1049166 4.1510668 -0.87457198 8
-7.6174726 2.5917137 -0.82029253 0
-18.336344 7.7644424 -2.1477201 46
-16.51182 6.9918561 -2.2518785 1
-13.83347 5.8577213 -2.1524765 1
-12.029413 5.093801 -2.1052885 2
-10.598356 4.4878268 -2.0584233 5
-9.5268745 4.0341125 -2.034827 4
-8.618474 3.6494544 -2.0066323 5
-7.7894969 3.2984276 -1.9636635 3
-7.2615147 3.0748558 -1.969782 4
-5.1514168 2.1813443 -1.924499 5
-1.2319046 0.52164447 -0.6235978 0
-2.14467 0.92586094 0.61662692 5
-5.285955 2.2819636 1.112574 19
-5.5209413 2.3834081 0.84128094 20
-6.1940775 2.6740031 0.58574432 10
-11.816856 5.1013746 0.66215086 23
-10.801732 4.6631422 0.39707911 12
-11.868553 6.1836462 0.3721799 22
-11.168079 3.8869493 0.2592648 39
-15.249534 6.5832725 0.26614809 1
-11.829967 6.1635423 0.1350373 21
-11.178219 3.8904784 0.049991526 46
-18.428093 7.9554667 -0.033280618 38
-11.805406 6.1507459 -0.10036917 23
-11.165977 3.8862176 -0.15889837 35
-18.365925 7.9286289 -0.38689557 46
-11.773611 6.1341805 -0.33511791 23
-11.172907 3.8886294 -0.36826766 44
-18.371431 7.931006 -0.7417863 44
-11.869287 6.1840291 -0.57498187 25
-11.134835 3.8753788 -0.57559383 51
-18.385874 7.9372401 -1.096838 40
-11.851374 6.1746955 -0.81032091 31
-7.9119687 2.7536893 -0.55745912 1
-18.387243 7.9378314 -1.4513988 36
-11.801499 6.1487107 -1.042627 23
-7.8412523 2.7290773 -0.69937742 0
-18.35367 7.9233379 -1.8024302 52
-7.9521489 4.143157 -0.86118764 10
-7.6555667 2.6644511 -0.82637781 0
-18.33646 7.9159083 -2.1541543 53
-16.426167 7.091229 -2.2468944 1
-13.766792 5.9431682 -2.1485052 1
-12.004436 5.182353 -2.1071978 2
-10.563152 4.5601468 -2.0577192 4
-9.4948769 4.0989685 -2.0340552 4
-8.5963774 3.7110837 -2.0074708 4
-7.809207 3.3712597 -1.9745173 4
-7.2220569 3.1177852 -1.9649351 4
-5.1395354 2.2187541 -1.9258002 6
-1.2348899 0.53310591 -0.62697774 0
-2.0815144 0.91588783 0.60029244 7
-5.2663012 2.3172266 1.111815 32
-5.5222988 2.4298682 0.84405196 22
-6.2007928 2.7284126 0.58816618 10
-11.813864 5.1982222 0.66400039 24
-10.582299 4.6563206 0.39019805 9
-11.673173 6.1858478 0.36739838 22
-11.163277 3.9728673 0.25979087 40
-15.32035 6.7411118 0.26819885 1
-11.63821 6.1673207 0.13333668 22
-11.173396 3.9764686 0.050092895 46
-18.434351 8.1113043 -0.033393368 40
-11.610202 6.1524782 -0.099072337 23
-11.180023 3.9788272 -0.15948968 36
-18.37602 8.085638 -0.38828781 47
-11.589169 6.1413321 -0.33108035 21
-11.171852 3.9759192 -0.36913884 43
-18.385134 8.0896482 -0.74460167 47
-11.666924 6.1825366 -0.56725591 26
-11.133856 3.9623969 -0.57695919 49
-18.384853 8.0895243 -1.1001194 43
-11.652748 6.1750245 -0.79966837 31
-7.9188728 2.8182256 -0.55931818 0
-18.378853 8.0868845 -1.4551574 37
-11.617341 6.1562614 -1.0301292 25
-7.8482943 2.7931075 -0.70172769 0
-18.323435 8.0625 -1.8049445 58
-7.7998929 4.1333194 -0.84780329 10
-7.6705203 2.72984 -0.83002895 0
-18.346275 8.0725498 -2.1618752 51
-16.339937 7.1897407 -2.24191 1
-13.706848 6.0311542 -2.1456685 1
-11.939049 5.2533045 -2.1021063 2
-10.523853 4.6306043 -2.0563107 3
-9.4552536 4.160409 -2.0317392 4
-8.5595207 3.7662776 -2.0049551 5
-7.8104472 3.4366772 -1.9808489 8
-7.2072206 3.1712513 -1.9668739 4
-5.1239219 2.2545784 -1.9258002 5
-1.2410936 0.546094 -0.63204765 0
-2.043628 0.91544318 0.59110427 14
-5.2902427 2.3697641 1.1201631 28
-5.5349841 2.4793961 0.84848559 20
-6.215292 2.7841399 0.59127998 11
-11.826522 5.2976904 0.66667205 24
-9.9929781 4.4763546 0.36955479 5
-11.469947 6.1759272 0.36228326 21
-11.174268 4.0604758 0.26066765 38
-15.286253 6.847477 0.2683911 1
-11.442098 6.1609321 0.13155508 22
-11.184372 4.0641475 0.050261844 46
-18.434904 8.2579155 -0.033492852 29
-11.42475 6.1515908 -0.097835816 24
-11.183462 4.063817 -0.15991971 35
-18.376736 8.2318592 -0.38944805 46
-11.379187 6.1270576 -0.32623526 21
-11.1753 4.0608506 -0.3701345 43
-18.382149 8.2342834 -0.74667621 46
-11.491957 6.187778 -0.56073183 25
-11.133616 4.0457044 -0.57832456 51
-18.385471 8.2357721 -1.1034007 45
-11.463891 6.1726665 -0.7895 24
-11.133534 4.0456743 -0.78825092 48
-18.408556 8.2461128 -1.4618073 37
-11.428791 6.1537666 -1.0170066 23
-7.8857913 2.8655179 -0.70676398 0
-18.335003 8.2131643 -1.81141 61
-7.6706419 4.1302133 -0.83671337 11
-7.7008681 2.798321 -0.83530283 2
-18.339516 8.2151861 -2.1674514 50
-16.241186 7.275239 -2.2349322 1
-13.612342 6.0976486 -2.1371584 1
-11.925569 5.3420582 -2.1059248 2
-10.453382 4.6825924 -2.0485644 3
-9.420289 4.2198186 -2.0301955 4
-8.5379238 3.8245628 -2.0057938 5
-7.7910385 3.4899957 -1.9817533 7
-7.1966538 3.2237411 -1.969782 5
-5.1088557 2.288512 -1.9258002 6
-1.2341357 0.55283111 -0.63035768 0
-2.0266318 0.92487103 0.58804154 14
-5.2878613 2.4131615 1.1231987 30
-5.5139356 2.5163324 0.84793139 19
-6.1957035 2.8274632 0.59127998 11
-11.811053 5.3900766 0.66790509 24
-9.666894 4.4115715 0.35862601 5
-11.293277 6.1828861 0.35805774 23
-11.175639 4.1495237 0.26136908 39
-15.278099 6.9722934 0.26909605 2
-11.254964 6.1619105 0.12989494 21
-11.185724 4.1532683 0.050397001 44
-18.438667 8.4146461 -0.033605602 39
-11.227153 6.1466842 -0.096508816 15
-11.177316 4.150146 -0.16024223 34
-18.380671 8.3881788 -0.39076295 46
-11.206359 6.1353002 -0.32250053 16
-11.172914 4.1485114 -0.37100571 40
-18.378761 8.3873072 -0.74889892 50
-11.297749 6.1853342 -0.55334926 22
-11.131319 4.1330676 -0.57968986 61
-18.396563 8.3954315 -1.1075571 42
-11.273428 6.1720195 -0.77933162 26
-11.146175 4.1385837 -0.79117233 49
-18.39772 8.3959599 -1.4655658 35
-11.235143 6.1510587 -1.0035715 20
-11.127666 4.1317115 -0.99987799 29
-18.327957 8.3641224 -1.8164387 60
-7.5123973 4.112916 -0.82256418 11
-7.7333713 2.8714068 -0.84098244 2
-18.328749 8.3644838 -2.1730278 53
-16.189999 7.3884468 -2.2349322 1
-13.562236 6.1892443 -2.1360238 1
-11.87002 5.4169869 -2.1027427 2
-10.44193 4.7652655 -2.0527897 3
-9.376317 4.278964 -2.0271077 4
-8.489666 3.8743329 -2.0007625 4
-7.7558494 3.5394492 -1.9790399 6
-7.1598506 3.2674601 -1.9659045 5
-5.0961952 2.3256931 -1.9271015 5
-1.2236496 0.55842316 -0.62697774 0
-2.0411687 0.94877827 0.59416699 15
-5.310061 2.4682283 1.1315469 28
-5.4136109 2.5163605 0.83518469 1
-6.1866541 2.8756874 0.59231794 12
-9.4837141 4.4082303 0.53802323 0
-9.4654751 4.3997521 0.35228461 3
-11.103101 6.1799049 0.35338742 23
-11.176311 4.2387881 0.26207051 39
-15.287081 7.1057577 0.27012143 2
-11.071875 6.1625247 0.12827531 24
-11.178897 4.239769 0.05049837 45
-18.444763 8.5735149 -0.033724982 36
-11.054652 6.1529388 -0.095392935 17
-11.174248 4.2380056 -0.16061851 34
-18.368809 8.5382099 -0.39176849 46
-11.02 6.1336517 -0.31836203 16
-11.188538 4.2434254 -0.37249917 42
-18.385006 8.5457382 -0.75156611 45
-11.10414 6.1804838 -0.54596668 19
-11.150756 4.2290964 -0.58222556 41
-18.391832 8.548912 -1.1108384 40
-11.08354 6.1690178 -0.76916331 22
-11.158061 4.2318668 -0.79409373 46
-18.392925 8.5494194 -1.4699026 35
-11.042097 6.1459508 -0.99013638 17
-11.154452 4.2304978 -1.0049143 38
-9.1327534 4.2450962 -0.90803975 3
-7.37217 4.1032963 -0.81032711 10
-7.7242985 2.9295595 -0.8421995 0
-18.32761 8.5190601 -2.1798909 44
-16.116428 7.4912562 -2.2319415 1
-13.500744 6.2754307 -2.1331871 1
-11.796103 5.483077 -2.0963786 2
-10.36913 4.8197904 -2.0450432 3
-9.3319798 4.3377008 -2.02402 4
-8.4517717 3.9285617 -1.9982468 5
-7.7415509 3.5984361 -1.9817533 4
-7.1157503 3.3075509 -1.9600883 5
-5.0832648 2.3628087 -1.9284027 6
-1.2262967 0.57000852 -0.63035768 0
-2.027504 0.95969594 0.59212518 16
-5.3104491 2.5136406 1.1353415 24
-5.3457837 2.5303659 0.82742584 2
-6.1772332 2.923923 0.59335589 19
-9.2685642 4.3871694 0.52754229 2
-9.333353 4.4178367 0.34850675 4
-10.937883 6.1883564 0.34949547 20
-11.17255 4.3268199 0.26268426 37
-15.345551 7.2636423 0.27204397 3
-10.903257 6.168766 0.12681764 23
-11.171405 4.3263764 0.050599739 43
-18.449537 8.7328787 -0.033844363 30
-10.861731 6.1452708 -0.094096102 17
-11.192875 4.334691 -0.16131732 22
-18.377432 8.6987486 -0.3932381 45
-10.834218 6.129705 -0.31422353 17
-11.184737 4.3315396 -0.37337038 9
-18.389931 8.7046652 -0.75423336 41
-10.935507 6.1870112 -0.53978592 19
-11.143313 4.3154974 -0.58339584 41
-18.389462 8.704443 -1.1143385 43
-10.915101 6.1754665 -0.76044756 22
-11.150576 4.3183098 -0.79568726 44
-18.386879 8.7032204 -1.4742396 36
-10.867031 6.1482697 -0.9782635 16
-11.154382 4.3197837 -1.0076004 36
-8.9768648 4.2490969 -0.895468 6
-7.242846 4.0978045 -0.79923719 10
-11.151009 4.3184776 -1.2190797 27
-18.339581 8.6808319 -2.1884696 49
-16.013517 7.5798163 -2.2249637 1
-13.445868 6.3644485 -2.131485 1
-11.73969 5.5568485 -2.0931964 1
-10.338789 4.8937483 -2.0457475 2
-9.2943745 4.3993864 -2.022476 3
-8.3887882 3.9707377 -1.9898614 4
-7.6951094 3.6423926 -1.9763263 5
-7.1100245 3.3654492 -1.9649351 7
-5.0529704 2.3917661 -1.9231977 5
-1.1862414 0.56149387 -0.61176801 0
-2.0346906 0.98054326 0.59620881 15
-5.3069224 2.5574734 1.1383772 16
-5.2566147 2.5332294 0.81634176 3
-6.1817985 2.9790871 0.59577775 17
-9.1045599 4.3876028 0.51993841 3
-9.1402225 4.4047894 0.34243521 8
-10.748832 6.1808524 0.34482515 21
-12.358178 4.885468 0.29135507 23
-15.294466 7.3705974 0.27204397 3
-10.72123 6.1649804 0.12519799 22
-18.413223 7.2791643 0.083628953 46
-18.452982 8.8927259 -0.03396374 35
-10.707604 6.157146 -0.093131013 24
-18.393126 7.2712197 -0.26581612 33
-18.370296 8.8528795 -0.39439833 44
-10.680233 6.1414065 -0.31099346 25
-18.40447 7.2757049 -0.61606115 38
-18.389927 8.86234 -0.75675243 40
-10.753471 6.1835203 -0.53291839 21
-18.332035 7.2470694 -0.96237886 40
-18.400204 8.8672924 -1.1187136 38
-10.726351 6.1679254 -0.75027919 22
-18.350487 7.2543631 -1.3130432 44
-18.393957 8.8642817 -1.4797329 38
-10.695934 6.150435 -0.96670306 31
-18.370646 7.2623324 -1.6640011 37
-8.810605 4.2459426 -0.88181865 11
-7.1208649 4.0946789 -0.78891212 10
-18.373949 7.263639 -2.0142198 35
-18.339434 8.838006 -2.1957617 42
-15.924456 7.6741972 -2.2199795 1
-13.411808 6.4633203 -2.1331871 1
-11.689936 5.6335287 -2.0912871 2
-10.283089 4.9555507 -2.0415223 2
-9.2386847 4.4522395 -2.0170724 3
-8.3890486 4.042789 -1.9965698 3
-7.6624732 3.6926429 -1.9745173 4
-7.0758672 3.4099503 -1.962027 8
-5.032742 2.4253423 -1.9218966 5
-1.1561644 0.55717027 -0.5982483 0
-2.045157 1.0032406 0.60131335 15
-5.327724 2.6134861 1.1467253 6
-5.164114 2.5332279 0.80470347 3
-6.1894722 3.0362117 0.59854561 17
-9.4753885 4.6481004 0.54295546 2
-9.1200171 4.4737744 0.34283999 8
-10.58459 6.1851363 0.34093323 22
-12.479535 5.0344567 0.29503754 11
-15.285726 7.4983296 0.27281302 3
-10.557059 6.1690483 0.12378082 24
-18.42502 7.4329667 0.083916157 53
-18.4515 9.0512829 -0.03407649 37
-10.536579 6.1570811 -0.092015125 24
-18.412394 7.4278727 -0.26683745 36
-18.358311 9.0055695 -0.3954812 43
-10.505903 6.1391549 -0.30715778 24
-18.419973 7.4309301 -0.61830133 35
-18.374262 9.0133944 -0.75867873 45
-10.599627 6.193923 -0.5274244 28
-18.340279 7.3987808 -0.96549964 42
-18.398809 9.0254364 -1.1224324 42
-10.576164 6.1802125 -0.74277401 22
-18.343813 7.4002066 -1.3162303 45
-18.396097 9.0241051 -1.4849371 36
-10.535672 6.1565509 -0.9560799 25
-18.360161 7.4068012 -1.6676944 40
-8.6412582 4.2389221 -0.86781013 12
-6.9855342 4.0820174 -0.77705741 10
-18.36339 7.4081044 -2.0186825 36
-18.334415 8.9938469 -2.2026248 38
-15.841986 7.7711997 -2.215992 1
-13.355695 6.5515633 -2.131485 1
-11.625504 5.7028279 -2.086832 3
-10.258847 5.0324216 -2.0436349 2
-9.2144241 4.5200858 -2.0186164 3
-8.3746662 4.1081471 -1.9999239 4
-7.6435032 3.7494788 -1.9763263 4
-7.0484052 3.457557 -1.9610575 8
-5.0292711 2.4670815 -1.9271015 5
-1.1229521 0.55085808 -0.58303857 0
-2.062325 1.0295866 0.60845965 14
-3.2959425 1.6454525 0.71186519 5
-5.0683289 2.5302911 0.79251105 3
-6.1930819 3.0918083 0.60096747 15
-9.1246147 4.5553346 0.52466512 2
-9.4569683 4.7212572 0.35673708 22
-10.413943 6.1833491 0.3368189 21
-12.543933 5.1625514 0.29740486 10
-14.581748 7.2797303 0.26114941 16
-10.389921 6.169086 0.12232314 25
-18.424465 7.5827298 0.084152684 53
-18.445122 9.2084646 -0.034182604 32
-10.376401 6.1610579 -0.090989724 24
-18.404472 7.5745015 -0.26748252 37
-18.370134 9.1710291 -0.39710552 42
-10.342446 6.1408973 -0.3036249 25
-18.38983 7.5684748 -0.61904806 38
-18.38957 9.1807318 -0.76193869 41
-10.428987 6.1922812 -0.52107197 29
-18.336208 7.5464072 -0.96803528 44
-18.396101 9.1839924 -1.1261512 40
-10.412601 6.1825523 -0.73430037 22
-18.347065 7.5508752 -1.320214 50
-18.404037 9.1879539 -1.4907196 34
-10.386139 6.1668401 -0.94639415 26
-18.381723 7.5651388 -1.6744095 43
-8.4653168 4.2261891 -0.85308325 13
-6.8575807 4.0717349 -0.76596749 11
-18.381144 7.5649004 -2.0263903 35
-18.349459 9.1607065 -2.2120616 41
-15.751837 7.8638811 -2.2110078 1
-13.341514 6.6605616 -2.136591 1
-11.567741 5.7750311 -2.0836501 2
-10.198804 5.091608 -2.0387053 2
-9.1721087 4.5790453 -2.0163007 3
-8.3282852 4.1577783 -1.9957312 4
-7.6171408 3.8027494 -1.9763263 3
-7.0206232 3.5049465 -1.9600883 6
-5.0017724 2.4970639 -1.9231977 5
-1.1580034 0.57811683 -0.60331821 0
-2.0516393 1.0422065 0.60743874 13
-3.2983816 1.6755358 0.71490085 5
-4.9728408 2.5261397 0.78031856 4
-6.2068768 3.1530142 0.60442728 15
-10.709529 5.4403043 0.61796635 2
-9.4986277 4.8251815 0.35957047 18
-10.240419 6.1774182 0.33259338 24
-12.540772 5.2639284 0.29819396 12
-12.080878 6.1369324 0.2171225 15
-10.230153 6.171226 0.12094645 24
-18.415337 7.7297487 0.084355421 49
-12.082413 6.1377115 -0.022470055 20
-10.220112 6.1651683 -0.089994475 26
-18.395399 7.7213802 -0.26812756 34
-18.380543 9.337081 -0.39872983 44
-10.206876 6.1571836 -0.30089957 17
-18.402899 7.7245283 -0.6212883 34
-18.385616 9.3396587 -0.76445776 46
-10.269156 6.1947541 -0.51523459 29
-18.353071 7.7036133 -0.97174126 43
-12.07503 6.1339617 -0.74179852 2
-10.246109 6.180851 -0.72558463 27
-18.352785 7.7034931 -1.3244634 47
-12.061496 6.1270862 -0.98041701 12
-10.219908 6.1650453 -0.93514615 24
-18.361538 7.7071671 -1.6774313 38
-8.3041897 4.2184224 -0.83979309 12
-6.7403436 4.0660372 -0.75602484 10
-18.357237 7.7053614 -2.0296359 40
-18.348885 9.3209991 -2.2197826 41
-15.693018 7.9718533 -2.2105093 1
-12.030884 6.111536 -1.9334844 1
-11.509541 5.8466997 -2.0804679 2
-10.159501 5.1608968 -2.0380011 2
-9.1189251 4.6322975 -2.0116689 3
-8.2920837 4.2122726 -1.9940541 3
-7.5695653 3.8452427 -1.9708995 4
-7.0029044 3.5573862 -1.962027 6
-4.974102 2.5267804 -1.9192941 5
-3.6169701 1.8373747 -1.891073 0
-2.0546207 1.0618312 0.61050147 12
-3.2970705 1.7039313 0.71717763 7
-4.8987761 2.5316951 0.77145129 4
-6.2201147 3.2145653 0.60788703 15
-11.452026 5.9184251 0.66317838 6
-9.4931221 4.9060607 0.36064985 20
-5.7343454 3.5140133 0.18703513 22
-12.540483 5.3670859 0.29907075 12
-11.881406 6.1403294 0.21430273 18
-5.736268 3.5151916 0.068105765 25
-18.423439 7.8848791 0.084642634 48
-11.85804 6.1282539 -0.022131812 18
-5.7329884 3.5131819 -0.050697289 24
-18.418262 7.8826637 -0.26925641 32
-11.96953 6.1858721 -0.26058599 24
-5.690412 3.4870911 -0.16846742 26
-18.41836 7.8827052 -0.62365299 34
-11.945796 6.1736064 -0.49847564 29
-5.7483125 3.5225725 -0.28963703 17
-18.350266 7.8535619 -0.97447199 43
-11.914823 6.157599 -0.73457962 21
-5.7192364 3.5047545 -0.40673414 26
-18.346258 7.8518467 -1.3279159 46
-11.86957 6.1342125 -0.96827382 35
-5.7122345 3.500464 -0.52490664 28
-9.9708004 4.2673116 -0.913589 2
-8.1223536 4.1976452 -0.82434779 11
-5.7170763 3.5034308 -0.64397866 25
-18.372505 7.8630805 -2.0373437 33
-11.962796 6.1823921 -1.4524026 31
-11.917249 6.1588531 -1.6846722 21
-11.882397 6.1408415 -1.9164643 23
-11.521067 5.9541054 -2.0900142 2
-10.11273 5.2262745 -2.0358884 2
-9.0793896 4.6922426 -2.0101252 3
-8.2589998 4.2682638 -1.9932156 4
-7.5356131 3.8944168 -1.9690905 6
-6.9710031 3.6026254 -1.9600883 5
-4.9563403 2.5614445 -1.9192941 5
-3.610496 1.8659101 -1.8944529 1
-2.0368876 1.0707506 0.60743874 12
-3.3024759 1.7360448 0.72097218 9
-4.8178658 2.5326545 0.76147562 4
-6.2116303 3.2653284 0.60927099 13
-9.5081005 4.9982162 0.55261439 2
-9.5046415 4.9963975 0.36240384 16
-5.6621504 3.5243766 0.18547836 24
-12.543026 5.4720941 0.30003521 11
-11.686023 6.1431055 0.21154705 18
-5.6470709 3.5149903 0.06733644 28
-18.41927 8.0356989 0.08487916 47
-11.666263 6.1327181 -0.021853257 18
-5.6336164 3.5066159 -0.050033789 27
-18.410439 8.031846 -0.26995522 36
-11.763216 6.1836843 -0.25702798 29
-5.6150084 3.4950335 -0.16695333 21
-18.417847 8.035078 -0.62551987 35
-11.753801 6.1787357 -0.49225211 28
-5.6591201 3.5224903 -0.28637499 29
-18.346256 8.0038462 -0.97720265 47
-11.70892 6.1551418 -0.72451687 26
-5.6370068 3.5087259 -0.40261838 25
-18.349524 8.005271 -1.3321652 46
-11.67814 6.1389613 -0.95613062 25
-5.6233344 3.5002158 -0.51897019 25
-9.7836714 4.2682819 -0.89915156 6
-7.9659038 4.1875143 -0.81141686 12
-5.6214929 3.4990697 -0.63594806 27
-18.375521 8.0166121 -2.0438347 44
-11.764455 6.1843357 -1.4335291 29
-11.722901 6.1624923 -1.6632401 25
-11.68853 6.1444235 -1.8920689 25
-11.482713 6.0362296 -2.0906508 3
-10.069026 5.2930832 -2.0344801 2
-9.0533581 4.7591672 -2.0116689 2
-8.2151527 4.3185396 -1.9898614 4
-7.5185881 3.9523695 -1.9718039 6
-6.9388118 3.647593 -1.9581494 6
-4.9383373 2.595984 -1.9192941 6
-3.5717089 1.8775752 -1.8809332 2
-2.0464163 1.0940617 0.61254328 12
-3.2833488 1.7553546 0.71945435 10
-4.7406778 2.5344768 0.75205415 3
-6.1992264 3.3142507 0.61030889 15
-8.9762526 4.7989135 0.52363759 0
-11.510801 6.1539421 0.4405244 28
-5.5664334 3.5189521 0.1831432 24
-12.544714 5.5773988 0.30099967 8
-11.491188 6.1434565 0.20879136 19
-5.5649195 3.5179949 0.066648096 25
-18.410236 8.1852188 0.085098788 50
-11.475009 6.1348066 -0.021574702 19
-5.5515227 3.5095258 -0.049521089 23
-18.408739 8.1845531 -0.27076152 33
-11.575158 6.1883492 -0.25385669 26
-5.5262523 3.4935508 -0.16503549 26
-18.412449 8.186202 -0.62726223 35
-11.562325 6.1814885 -0.48602858 28
-5.5600758 3.5149329 -0.28259784 30
-18.355646 8.1609478 -0.98071361 43
-11.521252 6.1595292 -0.71554792 26
-5.5550013 3.5117249 -0.39850262 22
-18.369776 8.1672306 -1.3377426 50
-11.497784 6.1469827 -0.94485486 22
-5.534718 3.4989026 -0.51303375 25
-9.5569601 4.2490387 -0.88102078 7
-7.799458 4.1697721 -0.79740834 10
-5.5363483 3.499933 -0.62906468 28
-18.370014 8.1673355 -2.0495143 36
-11.566678 6.1838155 -1.4146556 31
-11.536094 6.1674643 -1.6428047 25
-11.495199 6.1456013 -1.8676733 22
-11.412433 6.1013517 -2.0855594 3
-10.014466 5.3539667 -2.0309589 2
-8.9922228 4.8074517 -2.0054934 3
-8.184804 4.3757868 -1.9898614 4
-7.4770675 3.9974144 -1.9681859 5
-6.920023 3.6996052 -1.9600883 6
-4.9234295 2.63218 -1.9205954 6
-3.5776975 1.9127204 -1.891073 3
-2.0387285 1.1083218 0.61254328 12
-3.2813654 1.7838614 0.72173113 11
-4.7994366 2.6091363 0.76424664 0
-6.1864405 3.3631585 0.61134684 17
-8.8828678 4.8290277 0.52014393 1
-11.33058 6.1596866 0.43526241 20
-5.4912596 3.5253251 0.18147522 24
-12.534613 5.6780419 0.3017011 9
-11.307465 6.147121 0.20622793 18
-5.4729056 3.5135422 0.065838277 27
-18.421873 8.3449068 0.085419789 46
-11.273759 6.1287971 -0.02127625 15
-5.4662991 3.5093007 -0.048978224 26
-18.413088 8.3409271 -0.27167535 33
-11.380588 6.186873 -0.25053072 25
-5.4512534 3.4996417 -0.16352139 22
-18.402193 8.3359919 -0.6288802 33
-11.357344 6.1742368 -0.47921231 24
-5.4782314 3.5169611 -0.27967915 21
-18.349174 8.3119745 -0.98344427 46
-11.3341 6.1616006 -0.70657897 21
-5.4631524 3.5072806 -0.39366055 27
-18.359573 8.3166857 -1.3411951 46
-11.289851 6.1375456 -0.93126607 20
-5.4531083 3.5008323 -0.5077222 24
-9.3636808 4.2416449 -0.86591184 8
-7.6511555 4.1594272 -0.78519577 8
-5.4414158 3.4933259 -0.62103409 27
-18.377794 8.3249397 -2.0568166 33
-11.376477 6.184638 -1.3966399 26
-11.34282 6.1663413 -1.6213725 24
-11.312865 6.1500568 -1.8449799 20
-11.314047 6.1506991 -2.0753765 5
-9.9699259 5.4199896 -2.0295506 2
-8.9653378 4.8738613 -2.0070374 3
-8.1334381 4.4216127 -1.9848301 4
-7.4558244 4.0532389 -1.9699949 4
-6.8769784 3.7385585 -1.9552413 5
-4.9082565 2.6682947 -1.9218966 6
-3.5610719 1.9359193 -1.889383 4
-2.0377109 1.1262696 0.6145851 10
-3.2825806 1.8143253 0.72476679 12
-4.8053737 2.6559932 0.76812607 0
-6.1872244 3.4197602 0.6137687 18
-8.8629227 4.8986535 0.52096599 2
-11.150845 6.163218 0.43000039 26
-5.4028721 3.5220878 0.17936246 23
-12.534609 5.783843 0.30266556 8
-11.120758 6.1465888 0.20360041 17
-5.4046841 3.5232689 0.065311894 26
-18.406748 8.4934235 0.085622527 45
-11.073158 6.1202798 -0.020977801 13
-5.3880534 3.5124278 -0.04849568 25
-18.416145 8.4977589 -0.27258918 36
-11.190109 6.1849203 -0.2472821 18
-5.3663921 3.4983065 -0.1617045 23
-18.408892 8.4944124 -0.63112038 31
-11.153034 6.1644282 -0.47239605 18
-5.3832412 3.5092907 -0.27607372 34
-18.341484 8.4633083 -0.986175 43
-11.133505 6.1536345 -0.69673496 19
-5.3816729 3.5082684 -0.38954479 26
-18.359047 8.4714127 -1.3454444 47
-11.110552 6.1409478 -0.91999024 16
-5.3684034 3.4996181 -0.5020982 24
-9.178215 4.2351027 -0.85147434 7
-7.4998951 4.1452909 -0.77262402 6
-5.3735328 3.5029619 -0.61606276 26
-18.373425 8.4780464 -2.062902 36
-11.172913 6.1754155 -1.3769085 22
-11.132762 6.153224 -1.5974481 17
-11.131035 6.1522694 -1.8222864 20
-11.194793 6.1875091 -2.0613751 11
-9.921505 5.4837461 -2.0274379 3
-8.9070482 4.9230423 -2.0016336 2
-8.1126394 4.4839625 -1.9873458 4
-7.4171147 4.0995369 -1.9672815 4
-6.8439174 3.7827232 -1.9533025 5
-4.8729563 2.693347 -1.9153905 5
-3.5220854 1.9467028 -1.8758633 5
-2.050029 1.1518348 0.62071055 9
-3.2869539 1.8468168 0.7285614 12
-4.7936215 2.6933572 0.76923448 0
-6.1979408 3.4823918 0.61722851 18
-8.8842297 4.9917173 0.52425414 2
-10.968135 6.1625862 0.42460346 19
-5.3148007 3.5177903 0.1772497 22
-12.548215 5.8967218 0.30398074 8
-10.934616 6.1437531 0.2009729 16
-5.3165832 3.5189703 0.064542562 27
-18.426649 8.6591454 0.085994214 48
-10.901133 6.1249394 -0.020732407 13
-5.3167048 3.5190506 -0.048073456 26
-18.41791 8.6550398 -0.27350301 31
-11.01068 6.1864905 -0.24426553 18
-5.291821 3.5025804 -0.1601904 25
-18.399801 8.6465292 -0.63286281 32
-10.966846 6.1618619 -0.46632069 21
-5.3186207 3.5203187 -0.27401346 33
-18.357887 8.626833 -0.99027103 43
-10.961438 6.158823 -0.68864107 18
-5.2904606 3.5016801 -0.38470271 20
-18.360867 8.628233 -1.3499594 43
-10.931762 6.1421494 -0.90871441 15
-5.2906351 3.5017953 -0.49709907 24
-8.9752693 4.2177048 -0.83535814 9
-7.3526855 4.1311998 -0.76041144 4
-5.2825418 3.4964385 -0.60841453 28
-18.371414 8.6331892 -2.0693929 32
-10.997775 6.1792397 -1.3606087 23
-10.954591 6.1549759 -1.5780096 18
-10.946281 6.1503072 -1.7990255 20
-11.030825 6.1978087 -2.0391004 17
-9.8692484 5.5451627 -2.024621 3
-8.8690395 4.9831824 -2.0008619 3
-8.0538597 4.5251637 -1.9806374 4
-7.3917112 4.1531267 -1.9681859 4
-6.8173423 3.8304105 -1.9533025 6
-4.8540344 2.7273009 -1.9153905 6
-3.530534 1.9836754 -1.887693 6
-2.0318625 1.1603647 0.61764783 10
-3.2842119 1.8755618 0.73083812 13
-4.7747016 2.7267573 0.76923448 0
-6.1873202 3.5334816 0.61861241 19
-8.9289494 5.0991826 0.52898085 2
-10.7964 6.1656542 0.4196113 20
-5.24365 3.523587 0.17569292 25
-12.539211 5.9997101 0.30476984 9
-10.749064 6.1386223 0.19834538 17
-5.2420888 3.5225379 0.063935198 28
-18.423483 8.8151913 0.086264528 47
-10.743482 6.1354342 -0.020513542 22
-5.2322483 3.5159254 -0.047530591 26
-18.421984 8.8144741 -0.2744706 33
-10.831782 6.1858606 -0.24124895 19
-5.20086 3.4948332 -0.15817162 26
-18.403908 8.8058252 -0.63510299 33
-10.802074 6.1688948 -0.46113443 21
-5.2474771 3.5261588 -0.27160984 27
-18.351276 8.7806425 -0.99319679 41
-10.78638 6.1599321 -0.68032837 18
-5.2062345 3.4984448 -0.38034484 26
-18.364992 8.7872057 -1.3547398 48
-10.753504 6.1411576 -0.89743865 19
-5.2097907 3.5008345 -0.49178752 25
-8.787405 4.2045612 -0.82058489 6
-7.2268009 4.1271124 -0.75035405 1
-5.2150402 3.5043621 -0.60344321 27
-18.371723 8.7904263 -2.0762894 32
-10.816231 6.17698 -1.343451 23
-10.770051 6.1506071 -1.5575743 17
-10.765543 6.1480327 -1.776332 19
-10.856976 6.2002487 -2.0149164 17
-9.8302956 5.6139278 -2.024621 3
-8.8408508 5.0488715 -2.0024056 3
-8.0254698 4.5832195 -1.9814759 4
-7.3591533 4.2026968 -1.9672815 4
-6.7836957 3.8740621 -1.9513638 6
-4.8315916 2.7592461 -1.9140893 7
-3.5165997 2.0082748 -1.887693 5
-2.0605073 1.1958754 0.62887776 9
-3.2846255 1.9063282 0.73387378 13
-4.7212887 2.7401373 0.76369244 0
-6.193522 3.5945909 0.62172627 20
-7.6147904 4.4194655 0.4529424 4
-10.621707 6.1646171 0.41448423 22
-5.1627698 3.5218039 0.17380255 26
-12.525782 6.1011133 0.30547127 9
-10.595258 6.1492667 0.19629464 16
-5.1678052 3.5252388 0.063327834 26
-18.419031 8.9716225 0.086534843 45
-10.572387 6.1359925 -0.02026815 18
-5.161315 3.5208113 -0.047108367 27
-18.424721 8.9743948 -0.27543819 32
-10.670732 6.1930704 -0.23861912 29
-5.1333909 3.5017629 -0.15685941 24
-18.399492 8.9621067 -0.63709432 33
-10.651573 6.181951 -0.45654085 32
-5.1633077 3.5221708 -0.26851946 28
-18.339813 8.9330378 -0.99592751 44
-10.618758 6.1629057 -0.67245317 27
-5.1388054 3.5054564 -0.37719747 26
-18.360609 8.9431667 -1.3589891 44
-10.596505 6.1499906 -0.88789755 25
-5.12922 3.4989178 -0.48647597 27
-8.614502 4.1959896 -0.80715472 5
-7.118566 4.1314673 -0.74209261 0
-5.1378198 3.5047841 -0.59732461 29
-18.381458 8.9533224 -2.084403 32
-10.6559 6.1844621 -1.328867 33
-10.617009 6.1618905 -1.5416247 26
-10.588803 6.1455207 -1.7542059 22
-10.680224 6.1985793 -1.9900959 16
-9.773839 5.6725321 -2.0211 3
-8.7714443 5.0907636 -1.9946864 3
-7.9865131 4.6352057 -1.9797989 4
-7.3195257 4.2480998 -1.9645679 4
-6.7631989 3.9252193 -1.9533025 6
-4.8220263 2.7986033 -1.9179929 6
-3.50563 2.0345945 -1.889383 7
-2.0421145 1.2043375 0.62581509 8
-3.2881515 1.9391881 0.7376684 12
-4.6576848 2.7468708 0.75648779 1
-6.1751413 3.6417913 0.62241822 21
-7.5459008 4.4501972 0.45068181 4
-10.444115 6.1594191 0.40922222 20
-5.088748 3.5236175 0.17213458 26
-12.547375 6.2203827 0.30704948 9
-10.42116 6.1458812 0.19385938 18
-5.0838771 3.5202451 0.062598996 28
-18.41687 9.1301956 0.086822055 49
-10.422482 6.1466618 -0.020062551 21
-5.0741277 3.5134943 -0.046535347 30
-18.426123 9.1347818 -0.27640575 33
-10.499779 6.1922474 -0.23575723 26
-5.0627937 3.505646 -0.15544626 25
-18.415281 9.1294079 -0.63983238 32
-10.487648 6.1850934 -0.45135459 30
-5.0925946 3.5262814 -0.26611584 30
-18.362911 9.1034451 -1.0006087 42
-10.448183 6.1618185 -0.66435921 26
-5.0682516 3.5094254 -0.37380803 25
-18.358515 9.1012659 -1.3635041 46
-10.4296 6.1508594 -0.87748909 26
-5.0587687 3.5028589 -0.48210174 27
-8.4064417 4.1675081 -0.79036695 3
-10.507357 6.1967163 -1.0998487 27
-5.0608501 3.5043004 -0.59120607 30
-18.379114 9.1114779 -2.0912998 36
-10.485718 6.1839547 -1.312996 30
-10.454082 6.1652975 -1.5241798 26
-10.419448 6.1448722 -1.7332145 20
-10.514235 6.2007723 -1.9671845 19
-9.717041 5.7306271 -2.0175788 4
-8.7390718 5.1538696 -1.9954582 3
-7.9472213 4.6868758 -1.9781218 4
-7.2829781 4.2951379 -1.9627589 3
-6.7256026 3.9664259 -1.9503944 5
-4.7795644 2.8187494 -1.9088844 6
-3.4944632 2.0608606 -1.891073 6
-2.0402918 1.2225405 0.62785685 8
-3.2947462 1.974208 0.74222189 13
-4.6451902 2.7833927 0.75759619 2
-6.1974225 3.7134886 0.62726194 16
-7.4838085 4.4842896 0.44883221 2
-10.291123 6.166429 0.40490466 24
-5.0084133 3.5199699 0.17024422 24
-12.532207 6.3222384 0.30775091 8
-10.271646 6.1547585 0.19187272 19
-5.0166378 3.5257504 0.062072616 27
-18.420534 9.292778 0.087143056 47
-10.262656 6.1493721 -0.019837053 21
-5.0102077 3.5212309 -0.046173438 27
-18.426178 9.2956247 -0.27737334 33
-10.325932 6.1872864 -0.23281799 32
-4.9891248 3.5064137 -0.15393218 26
-18.40464 9.2847595 -0.64169925 27
-10.324203 6.1862507 -0.4461683 32
-5.0220804 3.5295753 -0.2637122 11
-18.352415 9.2584133 -1.0035344 43
-10.291851 6.1668649 -0.65714031 27
-4.9848309 3.503396 -0.36945018 5
-18.362234 9.2633667 -1.3685502 51
-10.266626 6.151751 -0.86736977 26
-4.9787283 3.4991071 -0.47679019 25
-8.2525873 4.1632595 -0.77861553 0
-10.344234 6.1982527 -1.0872771 28
-4.9971728 3.5120702 -0.58661717 28
-18.375454 9.2700357 -2.0981963 34
-10.322891 6.1854644 -1.2979829 30
-10.295033 6.1687722 -1.5072334 27
-10.264211 6.1503034 -1.7144923 22
-10.355514 6.2050118 -1.9455462 21
-9.6801739 5.8003492 -2.0182831 3
-8.6961441 5.2107196 -1.9939144 2
-7.9143066 4.7422433 -1.9781218 4
-7.2427874 4.33987 -1.9600455 4
-6.7010765 4.0152774 -1.9513638 6
-4.7727475 2.8598247 -1.9140893 6
-3.4675505 2.0777524 -1.8843131 7
-2.0416179 1.2427876 0.63091958 6
-3.2808831 1.9971616 0.74222189 12
-4.6256456 2.8157544 0.75759619 3
-5.7288342 3.4872949 0.58228451 23
-5.7564397 3.5040991 0.34669411 2
-5.7710161 3.5129724 0.2280203 16
-4.9446545 3.5269868 0.16890985 25
-12.0466 6.1831403 0.29687878 22
-5.7530632 3.502044 0.10792039 13
-4.9430566 3.525847 0.061465252 27
-12.020919 6.1699591 0.057070423 27
-5.7435436 3.4962492 -0.011148809 20
-4.9366565 3.521282 -0.045721054 29
-11.973682 6.1457143 -0.18088397 16
-10.176585 6.1947603 -0.2304202 29
-4.9156923 3.5063281 -0.15241809 27
-11.944069 6.1305141 -0.41792592 22
-5.7396092 3.493854 -0.24908964 1
-4.9485149 3.5297403 -0.26113689 4
-12.028052 6.1736207 -0.66005069 16
-5.7520142 3.5014052 -0.36882108 12
-4.9147439 3.5056517 -0.36606073 5
-12.022906 6.1709795 -0.89926469 27
-5.7387519 3.4933321 -0.48688358 26
-4.9152203 3.5059917 -0.47304085 28
-11.982149 6.1500597 -1.1345158 21
-10.181606 6.1978168 -1.0747052 29
-4.910943 3.5029404 -0.57935137 31
-11.955502 6.1363821 -1.369994 24
-10.167355 6.1891413 -1.2838279 27
-10.156794 6.1827126 -1.4932775 17
-5.7396016 3.4938495 -0.96277082 11
-10.190506 6.2032342 -1.922635 24
-9.6394444 5.8677883 -2.0182831 3
-8.626029 5.2508955 -1.986195 2
-5.7395377 3.4938107 -1.440616 5
-7.2123127 4.3903284 -1.9600455 4
-6.6563067 4.0518723 -1.9465169 5
-4.7462039 2.8891418 -1.9114869 6
-3.4498639 2.1000247 -1.8826232 7
-2.0390306 1.2617903 0.63296139 6
-3.2795136 2.0294244 0.74525756 13
-4.6351986 2.8683476 0.76258403 4
-5.6488986 3.4956441 0.57674885 22
-5.6728511 3.5104663 0.34320047 21
-5.6771207 3.5131085 0.22532183 20
-4.8668585 3.5256064 0.16713068 28
-11.845003 6.1897869 0.29302093 20
-5.6660199 3.5062392 0.10676685 14
-4.8652511 3.5244422 0.060817398 27
-11.815838 6.1745458 0.056310158 25
-5.6565351 3.50037 -0.011029428 21
-4.8524055 3.5151367 -0.04517819 18
-11.761704 6.1462579 -0.17835751 16
-5.692894 3.5228693 -0.12948084 32
-4.8380446 3.5047336 -0.15080306 27
-11.739354 6.1345782 -0.41232535 22
-5.6832519 3.5169027 -0.24775602 32
-4.8674898 3.5260639 -0.2582182 4
-11.840838 6.1876101 -0.65224862 25
-5.6718516 3.5098481 -0.36532101 28
-4.8565803 3.5181611 -0.36363968 6
-11.814631 6.1739159 -0.88704783 27
-5.6519251 3.4975171 -0.48167935 28
-4.8441758 3.5091753 -0.46866661 33
-11.770712 6.1509647 -1.1187352 22
-5.6912808 3.5218711 -0.60344416 27
-4.8432145 3.5084786 -0.57438004 30
-11.76207 6.1464486 -1.3529553 23
-5.6712704 3.5094883 -0.71933824 32
-5.6664562 3.5065091 -0.8368535 29
-5.663331 3.5045753 -0.95426077 28
-5.691946 3.5222826 -1.0787376 27
-5.6786838 3.514076 -1.1943504 29
-5.6670218 3.5068593 -1.3107498 25
-5.6539078 3.498744 -1.4255223 24
-5.6856351 3.5183773 -1.5521172 25
-5.6727223 3.5103869 -1.6663657 28
-4.7216816 2.921865 -1.9101856 6
-3.4220457 2.117626 -1.8758633 7
-2.046993 1.2855706 0.63806593 5
-3.2792852 2.0594854 0.74829328 12
-4.6227822 2.9032402 0.76369244 6
-5.564846 3.4948835 0.57052118 21
-5.588552 3.5097713 0.33950129 18
-5.6029139 3.5187912 0.22329798 21
-4.801476 3.5270345 0.1656851 28
-11.651817 6.1875596 0.28925079 24
-5.578289 3.5033262 0.10554922 15
-4.8063097 3.5305851 0.060371999 28
-11.622719 6.1721072 0.055583686 24
-5.5789976 3.5037708 -0.010923312 20
-4.7903013 3.518826 -0.044816282 16
-11.582916 6.1509705 -0.17626108 16
-5.6016693 3.5180094 -0.12793387 25
-4.7695761 3.5036016 -0.14938992 27
-11.553636 6.1354218 -0.40722263 23
-5.5954862 3.5141263 -0.24494062 32
-4.7989058 3.5251465 -0.25581458 4
-11.644282 6.1835585 -0.64366645 24
-5.5808029 3.5049047 -0.36094591 24
-4.7913084 3.5195656 -0.36049235 4
-11.618325 6.1697745 -0.87536216 24
-5.5644121 3.494611 -0.47618601 27
-4.7725873 3.5058136 -0.46397996 28
-11.578284 6.1485109 -1.1042978 21
-5.610445 3.5235209 -0.59733784 29
-4.7749133 3.5075223 -0.56902629 30
-11.56992 6.1440692 -1.335511 21
-5.6040878 3.5195284 -0.71376199 34
-5.5825782 3.5060196 -0.82788187 28
-5.5762539 3.502048 -0.94348139 29
-5.6149526 3.5263517 -1.0685548 28
-5.5985665 3.5160611 -1.1823786 29
-5.5971069 3.5151441 -1.2999426 29
-5.570961 3.4987237 -1.4104285 25
-5.6126804 3.524925 -1.5385498 22
