# .PCD v0.7 - Point Cloud Data file format
VERSION 0.7
FIELDS x y z intensity
SIZE 4 4 4 4
TYPE F F F F
COUNT 1 1 1 1
WIDTH 1356
HEIGHT 1
VIEWPOINT 0 0 0 1 0 0 0
POINTS 1356
DATA ascii
-4.3418684 3.5097067 0.48471814 22
-4.367979 3.530813 0.28894603 21
-4.3681574 3.5309572 0.18956716 23
-3.7766254 3.5365765 0.14389028 27
-5.0806665 3.5298412 0.13563836 24
-4.3545322 3.5199432 0.089720041 15
-3.783731 3.5432305 0.052476265 43
-5.0719872 3.5238111 0.026085474 27
-4.3457527 3.5128465 -0.0092652505 24
-3.7692192 3.5296409 -0.038935278 40
-5.055151 3.5121138 -0.082728215 20
-4.3760481 3.5373356 -0.10882888 31
-3.768126 3.5286174 -0.13031241 30
-5.0367427 3.4993246 -0.19091672 24
-4.3676448 3.5305426 -0.20819211 36
-3.7746036 3.5346832 -0.2221638 42
-5.0627179 3.5173712 -0.30096281 25
-4.342361 3.5101049 -0.30581963 30
-3.7740731 3.5341864 -0.31352422 32
-5.0444517 3.5046804 -0.40873253 28
-4.3468022 3.5136948 -0.40506169 32
-3.7665424 3.5271342 -0.40430307 34
-5.0541329 3.5114064 -0.5184055 23
-4.3684783 3.5312166 -0.50646204 34
-3.7549675 3.5162952 -0.4940739 38
-5.0491471 3.5079424 -0.6267814 29
-4.3578134 3.5225959 -0.60438138 38
-4.3458414 3.512918 -0.70178068 36
-4.3480148 3.5146749 -0.80107981 29
-4.3794641 3.5400968 -0.90753973 31
-4.3605595 3.5248151 -1.0028036 31
-4.3586879 3.5233023 -1.1023266 32
-4.3586936 3.5233071 -1.2016314 27
-4.3816767 3.5418854 -1.3079029 28
-4.3640962 3.5276742 -1.4017248 33
-4.2711778 3.4525645 -1.8893661 8
-3.1183746 2.5207076 -1.8691034 9
-1.6807775 1.3781519 0.57374889 11
-3.279923 2.6893694 0.81963158 0
-4.2702622 3.5013974 0.7725597 31
-4.2833633 3.5121391 0.48091236 25
-4.3061543 3.5308268 0.28647992 20
-4.3032126 3.5284147 0.18781316 22
-3.7257485 3.5380759 0.1428895 27
-5.0003405 3.5260465 0.13414784 25
-4.2958317 3.5223627 0.089015096 17
-3.7211971 3.5337536 0.051949881 39
-4.9982285 3.5245571 0.025832053 28
-4.2778187 3.5075929 -0.0091723986 24
-3.7212822 3.5338345 -0.038694005 26
-4.9814782 3.5127456 -0.08192189 20
-4.3048577 3.5297635 -0.10766865 31
-3.7086046 3.5217955 -0.12910116 35
-4.9631791 3.4998417 -0.18904987 26
-4.3119802 3.5356038 -0.20671032 33
-3.7295499 3.5416858 -0.22096199 34
-4.9857969 3.5157909 -0.29784203 4
-4.2930422 3.5200753 -0.30406958 31
-3.7145653 3.5274558 -0.310619 30
-4.9774585 3.5099111 -0.40527993 24
-4.2944002 3.5211892 -0.40245959 27
-3.7100182 3.5231378 -0.40086618 29
-4.9773765 3.5098531 -0.51303345 24
-4.3067517 3.5313168 -0.50215173 35
-3.7043426 3.5177481 -0.49063221 34
-4.9790039 3.5110009 -0.62110186 32
-4.3054371 3.5302386 -0.60052091 38
-4.2905202 3.5180075 -0.69679642 33
-4.2866292 3.5148172 -0.79427177 31
-4.3118901 3.5355299 -0.89862978 32
-4.2962623 3.5227156 -0.99364877 32
-4.3036342 3.5287604 -1.0946072 32
-4.3007216 3.5263722 -1.1924075 27
-4.3056216 3.53039 -1.2925265 28
-4.3063517 3.5309887 -1.3910617 33
-4.23527 3.4727054 -1.8841614 7
-3.1063077 2.5470138 -1.8724834 8
-1.6770624 1.3947984 0.5757907 12
-3.2701261 2.7197359 0.8219083 0
-4.2243943 3.5133924 0.76868027 30
-4.2342291 3.5215719 0.4781445 22
-4.244544 3.5301511 0.28401381 22
-4.2508121 3.5353642 0.18659885 23
-3.6663961 3.5307178 0.14155512 30
-4.9333253 3.5306137 0.13300802 25
-4.2311616 3.519021 0.088181987 17
-3.6733878 3.5374508 0.051625952 34
-4.9312139 3.5291028 0.025612421 30
-4.2347746 3.5220256 -0.009132605 26
-3.6705904 3.5347571 -0.038422573 32
-4.9112978 3.5148492 -0.08116933 20
-4.2462878 3.5316012 -0.10681783 30
-3.6580043 3.5226367 -0.12819269 34
-4.8996096 3.5064845 -0.18755639 24
-4.2564597 3.540061 -0.20522852 32
-3.6817048 3.54546 -0.21958849 46
-4.9091473 3.5133102 -0.29472122 3
-4.2376552 3.5244217 -0.30188203 32
-3.6725929 3.5366855 -0.30916637 40
-4.8976574 3.5050871 -0.40076503 25
-4.2175689 3.5077159 -0.3975445 30
-3.6652246 3.5295897 -0.39867908 38
-4.9041314 3.5097206 -0.5079971 24
-4.2421751 3.5281808 -0.49748221 34
-3.645277 3.5103803 -0.48604327 37
-4.9025946 3.5086207 -0.61461091 31
-4.2378798 3.5246081 -0.59451568 39
-4.2353411 3.5224969 -0.69181216 34
-4.2254553 3.5142751 -0.78746372 30
-4.2537045 3.5377696 -0.8916291 32
-4.2382636 3.5249279 -0.98590243 33
-4.2366481 3.5235841 -1.0838002 31
-4.2399135 3.5263 -1.1823449 30
-4.2598996 3.5429223 -1.286195 28
-4.2457914 3.5311885 -1.379429 32
-4.2138314 3.5046074 -1.8854625 7
-3.0856633 2.5663197 -1.8707933 8
-1.685021 1.4214351 0.58191615 12
-3.2450554 2.7374351 0.82039046 0
-4.1482878 3.4993758 0.75925881 43
-4.1638508 3.5125041 0.47295481 24
-4.1831546 3.5287883 0.2815477 22
-4.1832471 3.5288665 0.18470992 24
-3.618772 3.5338793 0.14066553 31
-4.8664947 3.534416 0.1318682 25
-4.178978 3.5252652 0.087605216 18
-3.6142623 3.5294755 0.051140063 33
-4.8482018 3.5211303 0.025308317 29
-4.1764512 3.5231335 -0.0090596508 25
-3.6315153 3.5463235 -0.038271777 43
-4.8283901 3.506742 -0.080201752 19
-4.1940169 3.5379517 -0.1061217 33
-3.6132965 3.5285323 -0.12748612 45
-4.8264885 3.5053604 -0.18568954 26
-4.2041435 3.5464942 -0.20389491 33
-3.6225533 3.5375719 -0.21752822 40
-4.8457103 3.5193212 -0.2923806 5
-4.1885238 3.5333176 -0.30013201 31
-3.6192474 3.5343435 -0.30674532 35
-4.8407764 3.5157375 -0.3981092 27
-4.1563845 3.5062058 -0.39407501 31
-3.6062572 3.5216582 -0.39492974 39
-4.8408108 3.5157623 -0.50396806 26
-4.1839447 3.5294549 -0.49353111 34
-3.6178327 3.5329618 -0.48566088 46
-4.839345 3.5146978 -0.6097427 31
-4.176692 3.5233369 -0.58936834 40
-4.1772766 3.5238299 -0.68632948 37
-4.1644998 3.5130517 -0.78065568 31
-4.189662 3.5342779 -0.88335562 31
-4.1894741 3.5341194 -0.98026866 33
-4.1759462 3.5227075 -1.0745369 33
-4.1763287 3.5230303 -1.1714439 27
-4.1963449 3.5399151 -1.2744366 27
-4.1824737 3.528214 -1.3668271 32
-4.1719151 3.5193069 -1.8776553 11
-3.0593586 2.5807865 -1.8657235 9
-1.6868119 1.4432205 0.58599973 12
-3.2198982 2.7549148 0.81887263 0
-4.0966678 3.5050707 0.75427097 33
-4.1059217 3.5129881 0.46914902 23
-4.1250305 3.5293374 0.27928707 18
-4.1311722 3.5345924 0.18349563 24
-3.5968535 3.5618703 0.14077674 41
-4.7901936 3.530344 0.13046534 25
-4.1177993 3.5231504 0.086836182 19
-3.6009021 3.5658796 0.051302027 41
-4.7880821 3.5287879 0.025122475 29
-4.1183219 3.5235977 -0.0089866957 25
-3.6066685 3.5715899 -0.038271777 41
-4.7651548 3.5118904 -0.079556696 22
-4.1327515 3.5359437 -0.10519352 34
-3.5942571 3.5592992 -0.12768801 39
-4.7568407 3.5057631 -0.18394715 26
-4.1276498 3.5315788 -0.20137586 34
-3.5920887 3.557152 -0.21718486 57
-4.7695642 3.5151403 -0.28925979 4
-4.130373 3.5339086 -0.29772568 30
-3.5859733 3.5510962 -0.30601901 47
-4.7839851 3.5257683 -0.39545336 25
-4.1045241 3.5117924 -0.39147291 32
-3.5815833 3.5467486 -0.39492974 48
-4.7648101 3.5116363 -0.49859598 26
-4.1259065 3.530087 -0.48957998 35
-3.5902503 3.5553315 -0.48527846 50
-4.7634354 3.5106232 -0.60325176 32
-4.12782 3.531724 -0.58593678 42
-4.1163874 3.5219426 -0.6803484 36
-4.1097879 3.5162961 -0.77498233 32
-4.1378818 3.540333 -0.87762779 32
-4.1228147 3.5274417 -0.97040963 31
-4.1214309 3.5262575 -1.0668175 32
-4.124887 3.5292146 -1.163897 27
-4.136003 3.5387256 -1.2635826 28
-4.1282544 3.5320961 -1.3571333 33
-4.1213794 3.5262136 -1.8659443 15
-3.0440226 2.6044374 -1.8674134 8
-1.6854585 1.4625659 0.58906245 12
-3.1887221 2.7670312 0.81583697 0
-4.0511541 3.5154114 0.75039154 34
-4.051198 3.5154495 0.46568921 23
-4.0701189 3.531868 0.27723199 21
-4.0822401 3.5423863 0.18241623 24
-3.5803635 3.5953939 0.14111033 33
-4.7302022 3.5373549 0.12950088 26
-4.0598745 3.5229783 0.086131237 19
-3.5900311 3.6051023 0.051504482 33
-4.7248898 3.5333824 0.024919737 29
-4.06039 3.5234258 -0.0089137414 25
-3.5957582 3.6108534 -0.038422573 36
-4.7020845 3.5163279 -0.07891164 20
-4.0686979 3.5306351 -0.10418799 32
-3.6003585 3.6154728 -0.12879834 35
-4.6938281 3.510154 -0.18245366 24
-4.0757232 3.536731 -0.20004225 36
-3.5756273 3.5906379 -0.21769992 39
-4.709713 3.5220327 -0.28711423 3
-4.0573359 3.5207753 -0.2942256 25
-3.5779984 3.593019 -0.30747163 39
-4.6985245 3.5136659 -0.39040729 23
-4.0467615 3.5115995 -0.38829255 33
-3.5764322 3.5914462 -0.39711687 38
-4.6986814 3.5137832 -0.49423116 25
-4.0770898 3.5379171 -0.48670644 34
-3.5793898 3.5944161 -0.48719051 39
-4.6910081 3.508045 -0.59716648 34
-4.067019 3.5291781 -0.58078951 39
-4.0617237 3.5245831 -0.6753642 35
-4.0552335 3.5189512 -0.76930892 32
-4.0772729 3.5380762 -0.86999071 32
-4.0653749 3.5277514 -0.96266329 35
-4.0700336 3.5317938 -1.0598701 34
-4.0558381 3.5194757 -1.1513189 28
-4.0729403 3.5343163 -1.2518241 28
-4.0741844 3.5353959 -1.3474395 32
-4.0709496 3.532589 -1.8542333 15
-3.0120747 2.6137443 -1.8589636 8
-1.68682 1.4845173 0.59314609 12
-3.1368966 2.7606843 0.80748886 1
-3.9819067 3.5043511 0.74207848 42
-4.0026245 3.5225844 0.46292138 23
-4.0153747 3.5338054 0.27517691 22
-4.0274 3.5443883 0.181067 24
-3.5859947 3.6516819 0.14233351 31
-4.6576047 3.5340331 0.1281857 29
-4.005157 3.5248129 0.085490383 18
-3.5871975 3.6529067 0.051828407 34
-4.6491232 3.5275974 0.024649421 31
-4.0146737 3.5331886 -0.0088673159 25
-3.5872793 3.6529901 -0.038603529 33
-4.6328135 3.5152223 -0.078159079 22
-4.0199327 3.537817 -0.1035692 32
-3.5946443 3.6604898 -0.1295049 37
-4.6214337 3.5065875 -0.1805868 27
-4.026927 3.5439723 -0.19885682 34
-3.5756752 3.6411734 -0.21924511 40
-4.640451 3.5210176 -0.28438354 4
-3.9996762 3.5199897 -0.2918193 34
-3.5808041 3.6463962 -0.30989268 36
-4.6389055 3.5198448 -0.38748586 24
-3.9981883 3.5186801 -0.38597956 35
-3.5792148 3.6447778 -0.40024129 37
-4.6359324 3.5175891 -0.4902021 25
-4.0164037 3.5347109 -0.48239613 36
-3.5681598 3.6335201 -0.48910257 40
-4.6315317 3.5142498 -0.59270394 29
-4.0094419 3.5285838 -0.57607108 42
-3.9923282 3.5135229 -0.66788781 38
-4.0067887 3.5262492 -0.76477027 31
-4.0228286 3.5403652 -0.86362648 34
-4.0170007 3.5352361 -0.95702952 34
-4.0158148 3.5341926 -1.0521507 34
-4.0047441 3.5244498 -1.143772 30
-4.0306168 3.5472195 -1.2463971 30
-3.9940519 3.5150399 -1.3290212 35
-4.0035968 3.5234401 -1.8347151 17
-3.0046403 2.6442897 -1.8657235 9
-1.6879567 1.5065588 0.59722972 14
-3.1351268 2.7982075 0.81204236 2
-3.9337008 3.510962 0.73764485 30
-3.9392853 3.5159464 0.45842364 23
-3.9637835 3.5378118 0.27332732 23
-3.9608016 3.5351503 0.17917807 23
-3.579885 3.6967347 0.1431119 29
-4.5916247 3.5347505 0.12704588 28
-3.9535966 3.5287197 0.084913611 20
-3.5838678 3.7008476 0.052152336 30
-4.5800085 3.5258081 0.024412895 28
-3.9451463 3.5211773 -0.0087678321 23
-3.589515 3.7066791 -0.038905118 33
-4.5669589 3.5157623 -0.077460267 20
-3.9623158 3.5365016 -0.10271838 31
-3.5884738 3.7056038 -0.13021149 34
-4.5493197 3.502183 -0.17871995 25
-3.9692831 3.5427203 -0.19722684 30
-3.5696285 3.6861436 -0.22044691 40
-4.5714355 3.5192082 -0.28165284 4
-3.9392471 3.5159123 -0.28919423 37
-3.5635929 3.6799109 -0.310619 36
-4.5762682 3.5229287 -0.38429886 20
-3.9497144 3.5252547 -0.38366657 34
-3.570327 3.6868649 -0.40211597 38
-4.5638862 3.5133967 -0.48516577 26
-3.9648793 3.5387897 -0.47916338 36
-3.5676353 3.6840851 -0.49254426 37
-4.5627398 3.5125141 -0.58702439 32
-3.9550395 3.5300076 -0.57178169 45
-3.938092 3.5148814 -0.66290361 38
-3.9495785 3.5251334 -0.75852954 37
-3.9656057 3.539438 -0.85662585 35
-3.9628458 3.5369749 -0.94998741 33
-3.9559059 3.5307808 -1.0428874 34
-3.9508619 3.526279 -1.1353866 31
-3.970871 3.5441377 -1.2355431 31
-3.9549387 3.5299175 -1.3241743 33
-3.9450381 3.521081 -1.8191005 16
-2.9861064 2.6652017 -1.8657235 9
-1.671663 1.5131153 0.5951879 12
-2.1109803 1.9107658 0.5502156 1
-3.8826616 3.5144131 0.73265702 30
-3.8880537 3.519294 0.45530981 21
-3.9093723 3.5385904 0.27127221 22
-3.9063866 3.5358882 0.17782885 23
-3.5760813 3.7447705 0.14400148 32
-4.5321665 3.5396433 0.12608142 27
-3.8932834 3.5240276 0.084144585 18
-3.5910921 3.7604897 0.052638225 30
-4.5237575 3.5330763 0.024243947 28
-3.8937776 3.5244751 -0.0087081417 25
-3.5911741 3.7605755 -0.039206706 29
-4.5139332 3.525403 -0.076976478 21
-3.9049151 3.5345562 -0.10186754 33
-3.5818479 3.7508094 -0.13091806 34
-4.4932489 3.509249 -0.17747539 27
-3.900001 3.5301082 -0.19500415 37
-3.5658872 3.7340958 -0.22182043 37
-4.5089707 3.5215273 -0.27931222 4
-3.8879559 3.5192053 -0.28722546 40
-3.5626326 3.7306876 -0.3127979 39
-4.4949427 3.5105715 -0.37951836 22
-3.8983872 3.5286474 -0.38106447 34
-3.5665336 3.7347727 -0.40461552 36
-4.4984093 3.513279 -0.48080099 25
-3.9046342 3.534302 -0.47485307 37
-3.572077 3.7405775 -0.49675077 34
-4.5004716 3.5148897 -0.58215618 31
-3.897866 3.5281756 -0.56706327 39
-3.8958032 3.5263085 -0.65991306 34
-3.8867099 3.5180776 -0.75115418 31
-3.9144492 3.5431859 -0.85089803 35
-3.9001067 3.5302038 -0.94083256 34
-3.9078815 3.5372412 -1.0367119 36
-3.8942513 3.5249038 -1.1261626 32
-3.920033 3.5482402 -1.2274027 32
-3.8956733 3.5261908 -1.3125417 34
-3.9007306 3.5307686 -1.809992 18
-2.9593635 2.6786847 -1.8606535 9
-1.6753045 1.5378257 0.60029244 12
-2.1033757 1.9307683 0.55173343 3
-3.8200934 3.5066087 0.72545242 38
-3.8281612 3.5140145 0.45115805 23
-3.8463156 3.5306792 0.26860061 20
-3.8580456 3.5414467 0.17674945 24
-3.5772626 3.7987545 0.14511345 29
-4.4571934 3.5314624 0.12467857 25
-3.8420687 3.5267808 0.083567813 17
-3.5866885 3.808764 0.052962154 31
-4.4550896 3.5297954 0.024007421 31
-3.8396099 3.5245237 -0.0086418195 26
-3.5867703 3.8088508 -0.039447978 28
-4.4327826 3.5121217 -0.076008894 20
-3.8506823 3.5346873 -0.10109406 32
-3.5912127 3.8135686 -0.13223027 34
-4.4310365 3.5107381 -0.17598191 26
-3.8605373 3.5437338 -0.19426325 37
-3.5671287 3.7879932 -0.2235373 35
-4.4435668 3.5206659 -0.27677655 4
-3.8456385 3.5300577 -0.2859129 40
-3.5666101 3.7874424 -0.31546107 36
-4.4452987 3.5220382 -0.37739372 21
-3.8413279 3.5261006 -0.37788412 31
-3.5677116 3.7886121 -0.40773997 33
-4.4456553 3.5223205 -0.47777918 25
-3.8446472 3.5291476 -0.47054276 37
-3.5704427 3.7915125 -0.50019246 35
-4.441514 3.5190396 -0.57769364 31
-3.8497016 3.5337875 -0.56363171 41
-3.8418519 3.5265818 -0.6549288 34
-3.829968 3.5156729 -0.74491346 33
-3.8634346 3.5463934 -0.8451702 36
-3.8521605 3.5360441 -0.93519884 32
-3.8541782 3.5378964 -1.0289927 34
-3.8436165 3.5282016 -1.1186157 33
-3.8635914 3.5465372 -1.2174532 31
-3.8509483 3.5349317 -1.3057561 35
-3.839762 3.5246632 -1.7930762 20
-2.9325781 2.6919248 -1.8555837 9
-1.6701893 1.5547543 0.60233426 12
-2.0927193 1.9480814 0.55249238 5
-3.7665238 3.5062008 0.71991038 36
-3.7831173 3.5216475 0.44873619 24
-3.8011055 3.5383923 0.26716202 20
-3.8010402 3.5383317 0.1752653 23
-3.580584 3.8558657 0.14633664 28
-4.3950257 3.5324302 0.12362643 27
-3.7939341 3.5317168 0.083055124 21
-3.5817845 3.8571584 0.053286083 28
-4.3960433 3.5332477 0.023821579 32
-3.8061268 3.5430667 -0.0086219227 33
-3.5954754 3.8719018 -0.039840046 29
-4.3800979 3.520432 -0.075525105 22
-3.8024931 3.5396843 -0.10047527 31
-3.5971534 3.873709 -0.13344154 29
-4.3659072 3.5090268 -0.17436397 28
-3.8093712 3.546087 -0.19292964 36
-3.5732286 3.8479447 -0.22559755 35
-4.3721681 3.5140586 -0.2738508 4
-3.7975125 3.535048 -0.28416288 36
-3.5699673 3.8444328 -0.3181242 31
-4.389493 3.527983 -0.37473789 19
-3.7815757 3.5202124 -0.37441462 35
-3.5791647 3.8543372 -0.4121142 32
-4.3681412 3.5108221 -0.47207135 27
-3.7965875 3.5341866 -0.46766922 37
-3.5736895 3.8484409 -0.504399 34
-4.3672109 3.5100744 -0.57120275 35
-3.7870953 3.5253508 -0.55805546 41
-3.7880883 3.5262749 -0.6499446 35
-3.7763484 3.5153465 -0.73924011 31
-3.8125672 3.549062 -0.83944237 33
-3.7812672 3.5199251 -0.92393142 32
-3.7920389 3.5299525 -1.0189574 36
-3.7959895 3.5336301 -1.1119074 32
-3.815922 3.5521851 -1.2102172 31
-3.7920895 3.5299997 -1.2941235 36
-3.7873759 3.5256119 -1.780064 18
-2.9269817 2.7246835 -1.8640335 9
-1.6767207 1.5817206 0.60845965 3
-2.0854669 1.9673078 0.55401021 7
-3.7248926 3.5138466 0.44458443 26
-3.7455904 3.5333719 0.26490143 21
-3.7542253 3.5415173 0.17418592 26
-3.587348 3.9149039 0.14767101 25
-4.3435998 3.5387664 0.12283733 27
-3.7413347 3.529357 0.082414269 19
-3.5966578 3.9250636 0.053893447 26
-4.3290997 3.5269527 0.023585053 30
-3.7388999 3.5270603 -0.0085224388 35
-3.6021445 3.9310515 -0.040201955 26
-4.322546 3.5216134 -0.074933805 20
-3.7382059 3.5264056 -0.099392399 33
-3.598398 3.9269629 -0.13445093 27
-4.3115439 3.5126503 -0.1731194 26
-3.7566922 3.5438445 -0.19144784 37
-3.5746284 3.9010229 -0.22731443 33
-4.3208909 3.5202651 -0.27209535 27
-3.7449307 3.5327494 -0.28197533 33
-3.5767605 3.9033499 -0.32102945 31
-4.3164911 3.5166807 -0.37048855 32
-3.7320271 3.5205767 -0.37181252 32
-3.5696878 3.8956313 -0.41398886 30
-4.3107705 3.5120199 -0.46837804 25
-3.7469828 3.5346851 -0.46443647 38
-3.5776768 3.9043496 -0.50860548 35
-4.3129854 3.5138245 -0.56714588 33
-3.7289164 3.5176425 -0.55290812 39
-3.7328608 3.5213635 -0.64446193 37
-3.7299085 3.5185783 -0.7347014 33
-3.7544739 3.5417519 -0.83180529 36
-3.7492461 3.5368202 -0.92181873 33
-3.7428493 3.530786 -1.01201 36
-3.7468648 3.534574 -1.1043605 32
-3.7582674 3.5453305 -1.1993634 32
-3.7488337 3.5364313 -1.2873379 34
-3.7418985 3.5298891 -1.7696543 20
-2.9009347 2.7365727 -1.8589636 9
-1.6824055 1.6094286 0.6145851 5
-2.0801954 1.9899639 0.55628699 7
-3.6755054 3.5160751 0.71159732 32
-3.6801133 3.520483 0.44216257 23
-3.6919653 3.531821 0.26284635 20
-3.6976328 3.5372427 0.17270176 26
-3.592097 3.9754541 0.14900538 26
-4.2694664 3.528245 0.12143447 28
-3.6848133 3.5249791 0.081709325 18
-3.6013465 3.9856906 0.054379337 27
-4.2704539 3.5290611 0.023399211 32
-3.6968427 3.5364866 -0.0084826453 27
-3.6094735 3.9946849 -0.040594023 28
-4.2546911 3.5160348 -0.074181244 22
-3.6932664 3.5330656 -0.098850965 37
-3.6137884 3.9994602 -0.13606595 23
-4.2560968 3.5171967 -0.17187484 28
-3.7000871 3.5395904 -0.18981786 44
-3.5767782 3.9585001 -0.22920299 35
-4.2684917 3.5274396 -0.27033991 27
-3.6913152 3.531199 -0.27978778 45
-3.5815442 3.9637749 -0.32393467 31
-4.2641454 3.5238478 -0.36809829 25
-3.6871779 3.5272412 -0.36978865 43
-3.5771599 3.9589226 -0.41805065 30
-4.2554216 3.5166385 -0.46502051 25
-3.7020636 3.541481 -0.46192211 36
-3.5850346 3.9676378 -0.51357681 34
-4.2576742 3.5185001 -0.56308907 34
-3.689899 3.5298443 -0.55076343 41
-3.6881111 3.5281339 -0.64097297 37
-3.685225 3.525373 -0.73073 32
-3.7011204 3.5405788 -0.82544106 36
-3.6931648 3.5329683 -0.91407239 34
-3.69542 3.5351257 -1.0058345 37
-3.6853569 3.5254991 -1.0934595 33
-3.7080848 3.5472412 -1.1912228 32
-3.6960108 3.535691 -1.277644 36
-3.678899 3.5193214 -1.7514372 23
-2.8765194 2.7517462 -1.8555837 8
-1.6788886 1.6297989 0.61764783 11
-2.0768249 2.0160999 0.55932266 8
-3.6297376 3.5236063 0.7077179 53
-3.6427729 3.5362604 0.44077864 33
-3.6344492 3.5281801 0.26058576 24
-3.6429217 3.5364048 0.17135252 25
-6.8651519 7.7106972 0.28711337 28
-4.2128491 3.533747 0.12055769 29
-3.6301794 3.5240352 0.081068464 19
-6.8674536 7.7132831 0.10454762 38
-4.2138243 3.5345645 0.023230264 33
-3.6277704 3.5216966 -0.0083831614 28
-6.8596306 7.7044964 -0.077780075 34
-4.1920304 3.516284 -0.073536187 21
-3.6443143 3.5377567 -0.09823218 35
-6.8390279 7.681356 -0.25961545 35
-4.1842532 3.5097604 -0.17000797 28
-3.6510983 3.5443423 -0.18863243 39
-3.5715818 4.0114751 -0.23074818 3
-4.2057877 3.5278237 -0.26799929 28
-3.6424067 3.5359051 -0.27803773 36
-6.8631797 7.7084823 -0.62583792 35
-4.1892743 3.5139718 -0.36384895 25
-3.638324 3.5319417 -0.36747566 38
-6.8521261 7.6960673 -0.80735636 34
-4.1959367 3.5195606 -0.4613272 28
-3.6474209 3.5407724 -0.45833018 39
-5.681953 6.3817701 -0.82065219 14
-4.1921334 3.5163701 -0.55781519 35
-3.6468058 3.5401752 -0.54818976 42
-3.6365221 3.5301924 -0.63648713 35
-3.6308751 3.5247104 -0.72505665 33
-3.6495674 3.5428562 -0.81971329 36
-3.6417425 3.53526 -0.90773445 35
-3.6496959 3.5429809 -1.0004309 37
-3.6341598 3.5278993 -1.0859126 34
-3.654027 3.5471854 -1.1821779 32
-3.6254432 3.5194373 -1.262134 37
-3.6340065 3.5277505 -1.7423288 24
-2.8588738 2.7752821 -1.8572737 9
-1.6674695 1.64148 0.61764783 12
-2.0738945 2.0415704 0.56235832 9
-3.613519 3.557198 0.70938051 40
-3.6208363 3.5644011 0.44112465 27
-3.6040359 3.5478625 0.26017472 31
-3.6152952 3.5589464 0.17121761 32
-6.771584 7.7133646 0.28544539 27
-4.157618 3.5371587 0.11968091 29
-3.6083388 3.5520985 0.081132554 24
-6.7685771 7.7099395 0.10385927 41
-4.1585798 3.5379772 0.023061316 30
-3.6173487 3.5609679 -0.008416323 38
-6.7581758 7.698092 -0.077237211 34
-4.1430097 3.5247307 -0.073106155 21
-3.6109772 3.5546958 -0.098000132 47
-6.748302 7.6868443 -0.25820231 32
-4.1291971 3.5129795 -0.16876341 27
-3.6091735 3.5529201 -0.18774335 53
-6.7732325 7.7152424 -0.44106552 38
-4.1384549 3.5208554 -0.26526859 30
-3.6062474 3.5500398 -0.2771627 52
-6.7644162 7.7052002 -0.62172216 36
-4.1312013 3.5146844 -0.36092755 27
-3.5993624 3.543262 -0.36603007 51
-6.7561355 7.6957679 -0.80235726 35
-4.1348333 3.5177743 -0.45729813 27
-3.5970616 3.540997 -0.45509747 50
-5.6792908 6.4691572 -0.82677072 14
-4.1371737 3.5197654 -0.55375832 34
-3.5908263 3.5348589 -0.5434714 60
-3.5891612 3.5332198 -0.63249975 52
-3.6005359 3.5444171 -0.72392195 50
-3.6050451 3.548856 -0.81525832 37
-3.5945249 3.5384998 -0.90210068 44
-3.5996995 3.5435939 -0.99348348 46
-3.5927186 3.5367219 -1.0808814 44
-3.6097369 3.5534749 -1.1758463 31
-3.5924881 3.5364947 -1.2592258 38
-3.5877254 3.5318065 -1.7319189 25
-2.8497636 2.8053465 -1.8640335 8
-1.6674984 1.6634287 0.62173146 12
-2.0825522 2.0774696 0.56842965 9
-3.6066747 3.597872 0.71270573 42
-3.6225078 3.6136665 0.44423845 27
-3.5860825 3.5773304 0.26058576 24
-3.6029327 3.5941393 0.1717573 26
-6.6757765 7.7067246 0.28355503 29
-4.0977235 3.5333178 0.11862877 29
-3.6016901 3.5928998 0.081517063 20
-6.6780152 7.7093091 0.1032519 38
-4.0895839 3.5262992 0.022807896 31
-3.5993154 3.5905311 -0.0084295869 27
-6.6729298 7.7034388 -0.076845147 33
-4.0831928 3.5207884 -0.072461098 22
-3.5816593 3.5729179 -0.097845435 43
-6.6500492 7.6770244 -0.25638539 35
-4.0785565 3.5167909 -0.16764329 28
-3.5940201 3.5852485 -0.1881879 45
-6.687902 7.7207227 -0.43883359 39
-4.0908065 3.5273535 -0.26370817 28
-3.5882788 3.5795212 -0.27760023 39
-6.6739559 7.7046227 -0.61809063 37
-4.0685053 3.5081239 -0.35747498 28
-3.5899057 3.5811441 -0.36747566 39
-6.6736188 7.7042336 -0.79860795 37
-4.0872622 3.5242975 -0.45461211 28
-3.570677 3.5619624 -0.45473826 56
-5.6727619 6.5488133 -0.83212447 15
-4.0775738 3.5159435 -0.54889011 35
-3.5673032 3.5585968 -0.5434714 57
-3.5684588 3.5597496 -0.63299817 42
-3.5741458 3.5654225 -0.72335464 38
-3.5758371 3.5671098 -0.81398547 51
-3.5681896 3.5594811 -0.90139651 47
-3.5761182 3.5673904 -0.99348348 49
-3.5691831 3.5604722 -1.0808814 41
-3.5667803 3.5580752 -1.1695149 45
-3.5607114 3.5520213 -1.2563176 54
-3.558867 3.5501812 -1.7293166 32
-2.823395 2.816504 -1.8589636 9
-1.6748774 1.6942825 0.62887776 11
-2.0707591 2.0947509 0.56918859 10
-3.6065335 3.6483188 0.71769357 42
-3.616802 3.6587062 0.44666031 24
-3.5919127 3.6335285 0.26284635 24
-3.5974264 3.6391063 0.17270176 25
-6.582859 7.7075357 0.28188705 27
-4.0368328 3.5302486 0.11757663 28
-3.5933893 3.6350224 0.08190158 18
-6.5798712 7.7040372 0.10256356 38
-4.0407777 3.5336983 0.022672737 34
-3.6022818 3.6440179 -0.0084959092 27
-6.5748262 7.6981306 -0.076332442 36
-4.0253949 3.520246 -0.071869798 23
-3.5763092 3.6177442 -0.098386876 39
-6.5625315 7.6837354 -0.25507319 33
-4.0117707 3.5083318 -0.1659009 28
-3.5913837 3.6329935 -0.18937333 43
-6.5845261 7.7094879 -0.43557152 41
-4.0360069 3.5295262 -0.26175767 27
-3.5828564 3.6243675 -0.2791315 40
-6.5759239 7.6994157 -0.61397487 38
-4.0168753 3.5127954 -0.35508472 29
-3.5928643 3.6344912 -0.3703669 40
-6.5756435 7.6990871 -0.7932964 37
-4.0295539 3.5238829 -0.45091879 28
-3.5597265 3.6009696 -0.45653424 44
-5.6786227 6.6488113 -0.83977264 15
-4.0289645 3.5233676 -0.54564464 35
-3.5619438 3.6032124 -0.54647398 47
-3.5714216 3.6128001 -0.63798243 38
-3.5714366 3.6128154 -0.72789335 40
-3.5619516 3.6032205 -0.81653118 37
-3.5626299 3.6039064 -0.906326 36
-3.5566444 3.5978518 -0.99502736 37
-3.5634868 3.6047733 -1.0867511 37
-3.550071 3.591202 -1.1722283 35
-3.5330985 3.5740328 -1.2553483 40
-3.5366545 3.57763 -1.7306178 26
-2.793468 2.8258331 -1.8522037 8
-1.6819062 1.7253199 0.63602412 10
-2.0697916 2.1232176 0.57298315 10
-3.6224542 3.7159574 0.72600663 27
-3.6162069 3.709549 0.44977415 21
-3.5887661 3.6814001 0.26449043 23
-3.5970485 3.6898961 0.17391607 23
-6.4876814 7.7043686 0.28010789 30
-3.9851615 3.5344634 0.11678752 30
-3.604218 3.6972508 0.082734697 21
-6.4872808 7.7038932 0.1019562 35
-3.9860837 3.5352812 0.02250379 33
-3.6046758 3.6977203 -0.0085622324 26
-6.4848528 7.7010093 -0.075910218 32
-3.970798 3.5217242 -0.071332254 23
-3.5732989 3.6655335 -0.099005662 38
-6.4726691 7.6865406 -0.25366005 37
-3.9602604 3.5123785 -0.1647808 26
-3.5826747 3.6751513 -0.19026241 42
-6.5022278 7.721643 -0.43368295 38
-3.9664326 3.5178525 -0.25883192 26
-3.585346 3.6778917 -0.28131905 38
-6.493722 7.7115417 -0.61131173 35
-3.9623935 3.5142703 -0.35242888 31
-3.5841126 3.6766262 -0.37210163 38
-6.4857721 7.7021012 -0.78892213 38
-3.9660878 3.5175469 -0.44655398 30
-3.5595281 3.6514072 -0.45976695 40
-5.6756659 6.7400694 -0.84627366 14
-3.9685426 3.5197239 -0.54077643 38
-3.556134 3.6479256 -0.54947662 43
-3.5682757 3.6603808 -0.6419698 39
-3.5654747 3.6575077 -0.73186469 36
-3.5560062 3.6477945 -0.82098609 40
-3.5593717 3.6512468 -0.91195971 36
-3.5643163 3.6563189 -1.0042906 38
-3.5628047 3.6547685 -1.094298 35
-3.5521116 3.6437993 -1.1812733 35
-3.5432773 3.634737 -1.2679503 39
-3.5300736 3.6211927 -1.7397263 28
-2.7837949 2.8556507 -1.8589636 8
-1.6751809 1.7425961 0.63806593 10
-2.0603619 2.1432781 0.57450098 11
-3.6211321 3.7668591 0.7309944 32
-3.6095531 3.7548141 0.452196 21
-3.5878937 3.7322831 0.26633999 23
-3.5989056 3.7437382 0.1752653 26
-6.4107504 7.721786 0.27910712 34
-3.9395764 3.5434785 0.11617377 28
-3.5921774 3.7367394 0.083055124 18
-6.4001255 7.7089887 0.10142981 39
-3.928592 3.5335987 0.022317948 33
-3.6037219 3.7487481 -0.0086219227 25
-6.3951616 7.7030091 -0.075487994 34
-3.9223251 3.5279617 -0.070902213 22
-3.5670226 3.710572 -0.099547096 37
-6.3779817 7.6823158 -0.25204501 36
-3.90889 3.5158775 -0.16366069 22
-3.5874023 3.7317719 -0.19189237 42
-6.4047666 7.7145786 -0.43076426 42
-3.9120719 3.5187395 -0.25688142 33
-3.5844939 3.7287467 -0.28328785 34
-6.3912697 7.6983213 -0.60671175 36
-3.916991 3.5231638 -0.35056981 34
-3.5804763 3.7245672 -0.37441462 39
-6.3834453 7.6888971 -0.78298569 36
-3.9147627 3.5211596 -0.4435322 29
-3.5587981 3.7020166 -0.4629997 42
-5.6615372 6.8193541 -0.85124499 10
-3.9142869 3.5207317 -0.53671962 36
-3.5581415 3.7013335 -0.55376601 45
-3.5618882 3.705231 -0.64545876 38
-3.5645504 3.7080004 -0.73697072 33
-3.5523474 3.6953063 -0.82607752 38
-3.5610826 3.7043929 -0.91900188 33
-3.5550232 3.6980898 -1.0089222 36
-3.5615973 3.7049286 -1.1018449 32
-3.5427883 3.6853626 -1.1867003 34
-3.5420206 3.6845639 -1.2766746 37
-3.5282989 3.67029 -1.7514372 24
-2.7663033 2.877629 -1.8606535 9
-1.6736175 1.7654757 0.64214957 10
-2.0615602 2.1747112 0.57905453 11
-3.6165488 3.8150468 0.73542804 33
-3.613409 3.8117347 0.45600179 22
-3.5782394 3.7746348 0.26757306 20
-3.6001849 3.7977848 0.17661454 23
-6.3085675 7.7075639 0.27699435 29
-3.8792896 3.5385535 0.11512163 28
-3.5962696 3.7936547 0.083760068 17
-6.3081498 7.7070541 0.10082245 38
-3.8624561 3.5231986 0.022081422 33
-3.6049817 3.8028448 -0.008688245 24
-6.300693 7.6979437 -0.075005449 37
-3.8562319 3.5175209 -0.070149653 25
-3.5657933 3.7615056 -0.10024323 36
-6.2963333 7.6926169 -0.25093469 35
-3.8517592 3.5134411 -0.16229166 29
-3.588762 3.7857351 -0.19337417 37
-6.3127842 7.7127161 -0.42818895 39
-3.8637991 3.5244236 -0.25532103 34
-3.5831048 3.7797673 -0.28525665 36
-6.3044939 7.7025871 -0.60356438 36
-3.8687112 3.5289042 -0.34844515 35
-3.5708547 3.7668447 -0.37614936 37
-6.2993021 7.6962438 -0.77923638 38
-3.8665283 3.5269129 -0.44084615 28
-3.5520518 3.74701 -0.46551403 42
-6.2820997 7.6752267 -0.95258367 29
-3.8660939 3.5265169 -0.53347415 34
-3.5541029 3.7491734 -0.55719757 44
-3.5523167 3.7472892 -0.6484493 38
-3.5494733 3.7442899 -0.73924011 31
-3.5481975 3.742944 -0.83116889 36
-3.562223 3.7577393 -0.92604405 39
-3.5426199 3.7370603 -1.0127819 35
-3.5571713 3.7524104 -1.1085532 32
-3.5357375 3.7298 -1.1930318 31
-3.5322306 3.7261007 -1.282491 36
-3.5338161 3.7277732 -1.7670518 18
-2.7336752 2.8837159 -1.8522037 8
-1.6823801 1.7997193 0.65031677 10
-2.0677831 2.2120028 0.58512586 11
-3.6276996 3.8807168 0.74318689 22
-3.6275299 3.8805354 0.46119148 21
-3.5954478 3.8462155 0.27086121 20
-3.5981538 3.8491104 0.17782885 23
-6.224474 7.7140775 0.27565998 34
-3.8221991 3.5356784 0.11415717 31
-3.5942779 3.844964 0.08433684 17
-6.22405 7.713552 0.10033656 42
-3.8201473 3.5337803 0.021980053 31
-3.6056604 3.8571405 -0.0087545672 24
-6.2141447 7.7012763 -0.074613377 33
-3.8022201 3.5171969 -0.069612108 20
-3.5667567 3.8155234 -0.10101672 35
-6.1997871 7.6834826 -0.24921872 35
-3.7977874 3.5130966 -0.16104709 29
-3.5840826 3.8340578 -0.1945596 39
-6.2236519 7.7130585 -0.42578533 36
-3.8185699 3.5323212 -0.25395566 34
-3.5839045 3.8338673 -0.2874442 34
-6.220479 7.7091265 -0.60065913 38
-3.8146818 3.5287244 -0.34578931 30
-3.5880609 3.8383136 -0.38077533 34
-6.2153683 7.7027926 -0.77548707 34
-3.8096259 3.5240476 -0.43715283 29
-3.5530112 3.8008194 -0.46910599 37
-6.2033596 7.6879101 -0.94875956 37
-3.800483 3.5155902 -0.52779454 35
-3.5577157 3.8058517 -0.56191599 43
-3.5613024 3.8096888 -0.6549288 36
-3.5638058 3.8123667 -0.74775016 35
-3.5543411 3.802242 -0.83880597 33
-3.5493467 3.7968991 -0.92956513 38
-3.5620074 3.8104429 -1.0259049 34
-3.5549257 3.8028672 -1.1161001 32
-3.5388813 3.7857039 -1.2029812 31
-3.5299826 3.7761846 -1.2912154 38
-3.5283689 3.7744584 -1.7774615 19
-2.7110004 2.9000819 -1.8505138 8
-1.6750182 1.8171072 0.65235859 9
-2.0629387 2.2379344 0.58816153 11
-3.6273701 3.9350739 0.74872893 28
-3.6300621 3.9379942 0.46499726 25
-3.5901704 3.8947186 0.27250528 19
-3.6037107 3.9094074 0.17944792 21
-6.1381097 7.7166643 0.27421439 33
-3.7682567 3.5349166 0.11328039 31
-3.6052997 3.9111314 0.085234039 20
-6.1252284 7.7004704 0.099607721 36
-3.7807975 3.5466809 0.02189558 47
-3.6084688 3.9145691 -0.0088275224 23
-6.1303487 7.7069073 -0.074251473 38
-3.7600706 3.5272374 -0.06928958 18
-3.5671401 3.8697345 -0.1017902 35
-6.1161242 7.6890244 -0.24800745 34
-3.7527575 3.5203772 -0.16017589 28
-3.5816138 3.8854361 -0.19589323 37
-6.1348243 7.712534 -0.42338172 42
-3.7617645 3.5288265 -0.2518101 33
-3.5895383 3.8940327 -0.29006925 32
-6.1267395 7.7023702 -0.59678549 38
-3.7550232 3.5225027 -0.34260231 38
-3.5855148 3.8896682 -0.38337746 34
-6.1217217 7.6960621 -0.77048796 37
-3.7587674 3.526015 -0.43413106 32
-3.5614936 3.8636091 -0.47377548 36
-6.1222715 7.696753 -0.94455302 35
-3.7555313 3.5229793 -0.5249548 34
-3.5634065 3.8656845 -0.56706327 40
-3.5588305 3.8607202 -0.65941465 34
-3.5719934 3.8749995 -0.75512552 31
-3.5518007 3.8530941 -0.8445338 34
-3.5521111 3.8534307 -0.93731153 31
-3.559262 3.8611882 -1.0328523 33
-3.562753 3.8649755 -1.1270012 30
-3.5440583 3.8446949 -1.2138352 29
-3.5350988 3.8349755 -1.302848 34
-3.5275705 3.8268085 -1.7904737 17
-2.6931467 2.9216018 -1.8522037 9
-1.6752986 1.8430662 0.65746313 11
-2.0604727 2.2668126 0.59195614 10
-3.6237905 3.9866841 0.75371677 8
-3.613203 3.9750364 0.46638119 3
-3.5924492 3.952204 0.27476588 19
-3.6085978 3.9699697 0.181067 21
-6.0446124 7.7089839 0.27243522 31
-3.7203069 3.5390873 0.11257897 29
-3.5994282 3.959882 0.085746728 19
-6.0417037 7.7052741 0.099121831 38
-3.7153714 3.5343921 0.021659054 37
-3.6160285 3.9781446 -0.0089137414 23
-6.0393734 7.702302 -0.073799089 34
-3.7121711 3.5313478 -0.068859547 31
-3.5803874 3.9389343 -0.10295042 32
-6.0302196 7.6906276 -0.24669524 34
-3.7020187 3.5216899 -0.15905578 37
-3.5893533 3.9487984 -0.19781956 35
-6.0537066 7.7205815 -0.42149314 41
-3.7138796 3.5329731 -0.25024971 28
-3.5864434 3.9455969 -0.29203805 33
-6.0481815 7.7135353 -0.59436446 40
-3.7043145 3.5238738 -0.34021208 31
-3.5877905 3.9470789 -0.38655782 33
-6.0383167 7.7009544 -0.76673859 35
-3.696517 3.5164561 -0.42976624 27
-3.5639098 3.9208066 -0.47772661 38
-6.029079 7.6891732 -0.93843448 36
-3.7048962 3.5244274 -0.52130365 37
-3.5604069 3.9169531 -0.57092381 39
-3.5664947 3.9236507 -0.66589415 36
-3.5714867 3.9291425 -0.76079887 29
-3.5593457 3.9157856 -0.85280728 31
-3.5595527 3.9160132 -0.94646633 30
-3.5586183 3.9149854 -1.0405717 32
-3.5725136 3.9302723 -1.1387408 28
-3.5380974 3.8924096 -1.2210712 26
-3.5447838 3.8997655 -1.3164192 32
-3.5363867 3.8905275 -1.8086908 15
-2.675123 2.9430151 -1.8538938 8
-1.6830415 1.877757 0.6656304 10
-2.0629463 2.301614 0.59726852 10
-5.3594327 5.9794793 1.1233705 19
-6.8728347 7.6679711 0.89401257 27
-6.8975763 7.6955752 0.53165245 22
-6.9027681 7.7013674 0.34904644 25
-5.9637537 7.7161922 0.27121204 32
-3.6609714 3.5316563 0.11152682 31
-6.8897948 7.6868935 0.1654053 19
-5.9633074 7.7156153 0.098716922 37
-3.6589394 3.5296962 0.02147321 33
-6.888 7.6848907 -0.017111199 25
-5.9609976 7.7126265 -0.073497497 36
-3.6615205 3.532186 -0.068375751 26
-3.5821631 3.996593 -0.10380125 31
-5.9397063 7.6850786 -0.24518116 35
-3.660078 3.5307946 -0.15830904 30
-3.5857093 4.0005498 -0.19915317 24
-5.9605613 7.7120619 -0.41874614 40
-3.6632457 3.5338502 -0.24849425 35
-3.5908 4.0062294 -0.2946631 6
-5.955121 7.7050233 -0.59049082 37
-3.6623881 3.5330229 -0.33861858 39
-6.8886318 7.685596 -0.74796188 33
-5.9453921 7.6924357 -0.76173949 35
-3.6575341 3.5283403 -0.42808747 33
-3.5603812 3.9722912 -0.48095936 37
-5.9509063 7.6995702 -0.93461037 35
-3.6630168 3.5336294 -0.51886952 34
-3.5674815 3.9802132 -0.57650006 38
-3.5708034 3.9839191 -0.67187524 31
-3.567754 3.9805169 -0.7659049 10
-3.5688224 3.981709 -0.86171722 31
-3.5689199 3.9818177 -0.95632535 30
-3.5652544 3.9777281 -1.0506068 31
-3.5763133 3.9900665 -1.1488032 27
-3.5446451 3.9547346 -1.2328297 28
-3.5485539 3.9590957 -1.3280518 31
-3.5394342 3.9489207 -1.8243053 14
-2.6424129 2.9481206 -1.8454438 9
-1.6878196 1.9097466 0.6727767 11
-2.05463 2.3247881 0.5995453 11
-5.3569083 6.0612741 1.1316836 21
-6.7795506 7.6709762 0.88882291 29
-6.8092933 7.7046294 0.52898085 26
-6.8038282 7.6984463 0.34675276 26
-5.8830857 7.7226515 0.26998886 35
-3.6190746 3.5403497 0.11100075 37
-6.8015313 7.6958475 0.16457219 22
-5.8680916 7.7029691 0.098028578 39
-3.6227713 3.5439658 0.021405632 48
-6.7944489 7.6878333 -0.017011715 27
-5.8730736 7.7095094 -0.073075272 36
-3.6167583 3.5380838 -0.067999475 36
-6.8249683 7.7223659 -0.19932625 40
-5.8616772 7.6945491 -0.24417175 36
-3.6124759 3.5338945 -0.15731339 43
-6.821559 7.7185082 -0.38185841 39
-5.8775148 7.7153392 -0.41668588 41
-3.615638 3.5369878 -0.24693385 34
-6.8107395 7.7062659 -0.56329435 38
-5.8697309 7.7051215 -0.58734345 38
-3.6148098 3.5361776 -0.33649391 47
-6.7898955 7.6826816 -0.74304682 37
-5.7997155 7.6132126 -0.7498666 35
-3.60432 3.5259161 -0.42472991 44
-5.6510453 6.3940868 -0.7693913 1
-5.8656411 7.6997528 -0.92963904 35
-3.6098123 3.5312889 -0.51481271 51
-6.8184862 7.7150311 -1.1105347 44
-6.8045826 7.6992993 -1.2904191 38
-6.7860775 7.6783614 -1.468268 35
-6.8308201 7.7289872 -1.6623378 33
-6.8134937 7.7093825 -1.8401164 25
-6.5081887 7.3639336 -1.9329313 4
-5.9001374 6.6759315 -1.9101999 3
-3.5375919 4.0027409 -1.2400657 6
-5.0165377 5.6761494 -1.8922316 5
-3.5718958 4.0415554 -1.8555346 7
-2.6289694 2.9746459 -1.8505138 8
-1.694773 1.9448096 0.68094397 10
-2.056411 2.3598015 0.60485774 12
-5.3717184 6.1642294 1.1438761 21
-6.6760879 7.6610374 0.8822493 28
-6.7133474 7.703794 0.5256927 25
-6.7131467 7.7035637 0.34486383 27
-5.790616 7.7123747 0.2682097 32
-3.5971093 3.5683458 0.11108843 40
-6.7055969 7.6949 0.16354682 23
-5.7877545 7.7085638 0.097583175 39
-3.5951018 3.5663543 0.021388737 40
-6.7038207 7.6928616 -0.016918864 27
-5.7878871 7.7087402 -0.072683208 39
-3.5891302 3.5604305 -0.067945719 29
-6.7209687 7.7125397 -0.19785662 41
-5.7838078 7.7033072 -0.24316236 35
-3.5962315 3.5674751 -0.15768676 33
-6.7228632 7.7147136 -0.37933937 40
-5.7995138 7.7242255 -0.414969 40
-3.590857 3.5621436 -0.24693385 47
-6.7095408 7.6994262 -0.55935681 40
-5.7918234 7.7139831 -0.58492243 39
-3.5815337 3.5528948 -0.33569714 54
-6.7046423 7.6938043 -0.73957729 40
-5.6817765 7.5674138 -0.74143058 22
-3.5767868 3.5481858 -0.42439416 40
-5.6664662 6.5024624 -0.77765268 7
-5.7782745 7.6959376 -0.92428529 37
-3.5963717 3.5676141 -0.51643544 41
-6.7174282 7.7084765 -1.1028137 41
-6.7193761 7.710712 -1.284438 39
-6.7010908 7.6897292 -1.46146 33
-6.7351837 7.7288518 -1.652155 33
-6.7207022 7.712234 -1.8295531 26
-6.433413 7.3825598 -1.9259839 7
-5.8174129 6.6756787 -1.8984603 4
-5.3603368 6.1511683 -1.8940171 5
-4.9716887 5.7051816 -1.8902928 5
-3.546078 4.0692449 -1.8568357 6
-2.6033745 2.9874606 -1.8471339 8
-1.6987977 1.9771278 0.68809032 8
-2.0552433 2.3919733 0.60941124 12
-5.3621149 6.2406411 1.1510807 22
-6.5886798 7.6681652 0.87775153 21
-6.6203513 7.7050261 0.52261007 24
-6.6175179 7.7017283 0.34270504 28
-5.7128491 7.7204719 0.26709771 33
-3.5805674 3.6018794 0.11135147 32
-6.6152225 7.6990571 0.16264962 22
-5.7123857 7.7198458 0.097218759 37
-3.5870361 3.6083865 0.021490106 37
-6.6134562 7.6970015 -0.016826013 26
-5.7101364 7.7168059 -0.072381616 35
-3.5867443 3.608093 -0.068375751 28
-6.6304727 7.7168055 -0.19677375 37
-5.6942096 7.6952815 -0.24164829 33
-3.5966058 3.6180134 -0.15880688 31
-6.6323705 7.7190146 -0.37726486 38
-5.7169223 7.7259765 -0.41290876 42
-3.5715344 3.5927927 -0.24732395 36
-6.6191854 7.7036691 -0.5562942 38
-5.7045794 7.7092962 -0.58153296 40
-3.5819666 3.603287 -0.33808741 40
-6.601366 7.68293 -0.73408395 39
-5.6406679 7.6229243 -0.74299282 15
-3.5828393 3.6041648 -0.42808747 35
-5.6391068 6.563015 -0.78016704 13
-5.6983538 7.7008824 -0.92007881 37
-3.5854046 3.6067455 -0.51846385 41
-6.6323485 7.7189884 -1.0976664 45
-6.6265845 7.7122803 -1.2769617 37
-6.6162777 7.7002854 -1.454652 35
-6.637311 7.7247643 -1.6413358 37
-6.6307721 7.717154 -1.8196942 26
-6.4124098 7.4630156 -1.9352472 3
-5.7655687 6.7101965 -1.8967832 4
-5.3147235 6.1854849 -1.8931127 5
-4.9266801 5.7338648 -1.8883541 6
-3.5175831 4.0939021 -1.8568357 5
-2.5777292 3.0000632 -1.8437539 9
-2.1024418 2.4817479 0.85858154 3
-2.0613415 2.4332328 0.61624151 11
-5.3696289 6.3383756 1.1621648 22
-6.496347 7.6683674 0.87256181 29
-6.5302482 7.708385 0.51973289 21
-6.5222425 7.698935 0.34054628 28
-5.6376071 7.7310901 0.26609695 30
-3.5749309 3.6467791 0.11196522 30
-6.5173626 7.6931748 0.16156016 21
-5.6465678 7.7433782 0.097016305 26
-3.5869584 3.6590486 0.021642158 35
-6.5233612 7.7002554 -0.016733162 28
-5.6561236 7.7564821 -0.072381616 27
-3.5922663 3.664463 -0.068967052 26
-6.5273209 7.7049294 -0.19530414 41
-5.6662636 7.7703876 -0.24275862 29
-3.5908513 3.6630194 -0.15967807 32
-6.5343957 7.7132807 -0.37474582 43
-5.6275263 7.7172651 -0.41033345 42
-3.5659425 3.6376102 -0.24868931 36
-6.5265164 7.70398 -0.55301291 39
-5.6247425 7.713448 -0.57886982 34
-3.5706935 3.6424565 -0.33941531 38
-6.5166221 7.6923008 -0.73061448 39
-5.6390033 7.7330041 -0.7498666 21
-3.5799122 3.6518605 -0.4307735 35
-5.6472278 6.6660571 -0.78771013 16
-5.6280303 7.7179565 -0.91740191 24
-3.5796375 3.6515803 -0.52130365 40
-6.5320258 7.7104836 -1.0899454 46
-6.5264034 7.7038465 -1.26799 39
-6.5290856 7.7070127 -1.4472766 35
-6.5398254 7.7196898 -1.6305166 34
-6.5334659 7.7121835 -1.8077224 30
-6.3018022 7.4387245 -1.9174926 7
-5.7084699 6.738348 -1.893429 4
-5.2714109 6.2224383 -1.8931127 4
-4.8764963 5.7562757 -1.8844765 6
-3.4913616 4.1212459 -1.858137 6
-2.5684395 3.0318174 -1.8522037 8
-2.1222537 2.5408902 0.87389511 4
-2.0619273 2.4686639 0.62155396 11
-5.3633399 6.4213138 1.1704779 17
-6.4094439 7.6737728 0.86806411 28
-6.4301796 7.6985993 0.51603377 24
-6.435019 7.7043934 0.33879229 26
-5.6394958 7.8481903 0.26876569 25
-3.5799603 3.7032735 0.11292968 28
-6.4250379 7.6924429 0.16059887 22
-5.6530571 7.867063 0.098069064 29
-3.5891292 3.7127581 0.021811105 32
-6.4258533 7.693419 -0.016620412 29
-5.6648564 7.8834829 -0.073195904 25
-3.5888371 3.712456 -0.069397092 25
-6.4451709 7.716547 -0.1944533 41
-5.6608801 7.8779497 -0.24487834 26
-3.5874236 3.7109938 -0.16067372 32
-6.4496384 7.7218962 -0.37296766 41
-5.6201525 7.8212714 -0.41376719 32
-3.5571234 3.6796498 -0.2498596 35
-6.4341683 7.7033744 -0.54973155 39
-5.6290026 7.8335876 -0.58492243 27
-3.5673711 3.6902506 -0.34153998 40
-6.4269567 7.6947403 -0.72656679 43
-5.6337471 7.8401899 -0.75642794 23
-3.5737245 3.6968226 -0.4331238 33
-5.651629 6.7664709 -0.79489398 16
-5.6413927 7.8508301 -0.92849183 25
-3.5761855 3.6993687 -0.52454907 38
-6.4474444 7.7192693 -1.0847981 46
-6.4393868 7.7096224 -1.2615105 36
-6.4370475 7.7068219 -1.4387666 35
-6.4528623 7.7257557 -1.6222432 36
-6.4416041 7.7122769 -1.7971592 30
-6.2799077 7.5186844 -1.9267558 4
-5.6562734 6.7720318 -1.8917519 4
-5.2178507 6.2471251 -1.8894947 4
-4.8312149 5.7842221 -1.8825377 7
-3.4576552 4.1397133 -1.8555346 7
-2.5355902 3.0357616 -1.8437539 9
-2.0847952 2.53176 0.86572784 8
-2.0671113 2.5102844 0.62838417 11
-3.3088784 4.0182772 0.72822338 3
-6.3227835 7.6783409 0.86356634 28
-6.3407264 7.7001309 0.51315665 23
-6.340416 7.6997542 0.3366335 27
-5.6330881 7.9558983 0.27110085 26
-3.5760942 3.7513325 0.11363111 29
-6.3406696 7.7000618 0.15982984 22
-5.6511569 7.9814177 0.099000357 26
-3.5824416 3.7579908 0.021929368 33
-6.3313041 7.6886883 -0.016514298 30
-5.660531 7.994657 -0.073859408 29
-3.5876696 3.7634752 -0.06988088 26
-6.3555508 7.7181334 -0.19337043 43
-5.6658211 8.0021286 -0.24750276 27
-3.586256 3.7619925 -0.16179383 30
-6.3574576 7.7204494 -0.37074497 40
-5.6231451 7.941855 -0.41805938 33
-3.5644281 3.7390947 -0.25220022 32
-6.3472266 7.7080245 -0.54688776 39
-5.6341634 7.957417 -0.5912171 29
-3.5607989 3.7352877 -0.34339905 36
-6.3401117 7.6993847 -0.72280818 40
-5.6410923 7.9672031 -0.76486391 25
-3.5780814 3.753417 -0.43681708 32
-5.6422391 6.8518929 -0.80028188 16
-5.632463 7.9550152 -0.93614 27
-3.5804753 3.7559283 -0.52901161 38
-6.3529487 7.7149734 -1.077935 45
-6.3450403 7.7053699 -1.2535357 39
-6.3402982 7.6996107 -1.4291219 37
-6.363625 7.7279387 -1.6133332 36
-6.3500605 7.7114663 -1.7865961 35
-6.1648927 7.4865994 -1.9074574 7
-5.6113439 6.8143744 -1.8925905 5
-5.1741104 6.283401 -1.8894947 5
-4.7907162 5.8178101 -1.8825377 7
-3.4214573 4.1549921 -1.8516309 6
-2.5235534 3.0645845 -1.8505138 8
-2.0695083 2.5492547 0.86674875 2
-2.0619135 2.5398991 0.63217878 11
-3.3206949 4.090487 0.73709065 4
-6.2288423 7.672791 0.85803068 34
-6.2566051 7.7069898 0.51069051 26
-6.2537556 7.7034793 0.33487952 28
-5.6391764 8.0835733 0.27410319 25
-3.5744691 3.8024306 0.11442021 28
-6.2413883 7.6882453 0.1586763 20
-5.6616635 8.1158075 0.1001746 27
-3.5835152 3.8120537 0.022098316 33
-6.2497439 7.6985378 -0.016441343 29
-5.6663694 8.1225538 -0.074673697 27
-3.5914421 3.8204861 -0.070472181 24
-6.2662282 7.7188435 -0.19228756 44
-5.669302 8.1267576 -0.25012717 23
-3.5927658 3.8218942 -0.16328731 29
-6.2630982 7.7149882 -0.36837408 43
-5.617866 8.0530252 -0.42183653 33
-3.5656023 3.7929981 -0.25415072 31
-6.252986 7.7025318 -0.54338765 40
-5.6287298 8.0685987 -0.59654337 28
-3.5674388 3.7949517 -0.34658605 36
-6.2560358 7.7062883 -0.71933872 41
-5.6355286 8.0783443 -0.77173769 26
-3.581821 3.8102512 -0.44051039 30
-5.6344442 6.9406013 -0.80602896 16
-5.6428542 8.0888453 -0.94722992 28
-3.578697 3.8069279 -0.53266275 36
-6.268858 7.7220831 -1.0727876 45
-6.2610784 7.7124996 -1.2475547 40
-6.2589421 7.7098684 -1.4228811 37
-6.2746768 7.7292509 -1.6044233 35
-6.2613297 7.7128091 -1.776737 33
-6.1100054 7.5264058 -1.9066855 4
-5.556242 6.8442712 -1.8900748 4
-5.1227531 6.3102922 -1.8867812 5
-4.7524319 5.8541245 -1.8835071 7
-3.3971362 4.1846485 -1.8542333 6
-2.4952435 3.0736821 -1.8454438 8
-2.0178289 2.5213659 0.85245609 3
-2.0686707 2.5848949 0.63976794 12
-3.3168094 4.1444988 0.74263269 6
-6.1477346 7.6818643 0.85422486 26
-6.1602154 7.6974597 0.50719684 24
-6.162354 7.7001319 0.33285564 28
-5.6437573 8.2117138 0.27710554 24
-3.5804598 3.8624859 0.11547235 28
-6.1625719 7.7004046 0.15803544 20
-5.6615081 8.2375412 0.10118687 25
-3.5948849 3.8780472 0.022334842 30
-6.1608553 7.6982594 -0.01634849 29
-5.6684341 8.2476187 -0.075457834 27
-3.5945921 3.8777313 -0.071063481 23
-6.1797028 7.7218099 -0.19128203 41
-5.67132 8.2518177 -0.25275159 26
-3.5931761 3.876204 -0.16453189 29
-6.1841087 7.7273154 -0.36689231 42
-5.6248913 8.1842642 -0.42664376 31
-3.5634797 3.8441682 -0.25590616 31
-6.1691132 7.7085776 -0.5407626 42
-5.6310649 8.1932459 -0.6028381 27
-3.567991 3.849035 -0.34924188 32
-6.1572132 7.6937084 -0.71413445 42
-5.6377239 8.2029352 -0.77986127 25
-3.5795202 3.8614724 -0.4435322 31
-5.6281695 7.0326447 -0.81213522 19
-5.644886 8.213356 -0.95717257 25
-3.5817904 3.8639214 -0.53712529 36
-6.1750364 7.7159791 -1.0659245 45
-6.1748443 7.7157393 -1.2410752 37
-6.1629057 7.7008214 -1.4132364 38
-6.1909537 7.7358685 -1.5967861 37
-6.1728873 7.713294 -1.766878 34
-6.0278845 7.5321064 -1.8974222 6
-5.5107689 6.8859477 -1.8909134 6
-5.0688367 6.333734 -1.8831632 4
-4.7017474 5.8750401 -1.8796296 6
-3.3702028 4.2112164 -1.8555346 6
-2.4669285 3.0825355 -1.840374 8
-1.9738275 2.501991 0.8412261 3
-2.0773315 2.6331911 0.64811605 11
-3.3147836 4.2017651 0.74872893 7
-6.0569324 7.6776676 0.8490352 30
-6.0840592 7.7120528 0.50534725 25
-6.0812097 7.7084413 0.33137149 27
-5.6400914 8.3303766 0.27977431 22
-3.5884826 3.9257603 0.11661217 27
-6.0789366 7.7055597 0.15726642 22
-5.6554375 8.3530426 0.10211816 26
-3.5947106 3.9325733 0.02250379 30
-6.0697989 7.6939769 -0.016249007 29
-5.6667795 8.3697948 -0.07621181 26
-3.594418 3.9322534 -0.071601026 24
-6.0860114 7.7145276 -0.19004446 42
-5.6741033 8.3806124 -0.25547695 25
-3.5956995 3.9336553 -0.1659009 27
-6.0879226 7.7169504 -0.36437324 44
-5.6258702 8.3093729 -0.43110764 29
-3.5662065 3.9013901 -0.25805172 29
-6.0805135 7.7075582 -0.5377 40
-5.6386433 8.3282375 -0.60985911 26
-3.5706534 3.9062552 -0.35216331 33
-6.0786405 7.705184 -0.71124321 41
-5.6406832 8.3312511 -0.7882973 25
-3.5793672 3.9157879 -0.44688973 31
-5.6258168 7.1311922 -0.81895989 18
-5.6454477 8.3382883 -0.96711522 23
-3.5869462 3.9240792 -0.5419935 36
-6.0889964 7.7183118 -1.0603483 46
-6.0814972 7.7088056 -1.2331004 40
-6.0771117 7.7032466 -1.405861 36
-6.0903239 7.7199941 -1.5846941 38
-6.089622 7.7191043 -1.7584274 35
-5.9824457 7.5832496 -1.8997381 5
-5.4577165 6.9181113 -1.8892363 4
-5.0317349 6.3781438 -1.8858767 5
-4.6630206 5.910768 -1.880599 7
-3.3313494 4.2227635 -1.8503296 7
-2.4498389 3.1053753 -1.8437539 8
-1.9586865 2.5187631 0.84224701 7
-2.0685415 2.6600304 0.65115172 11
-3.3145511 4.2623301 0.75537938 9
-5.9787221 7.6883073 0.84557539 25
-5.9908347 7.7038836 0.5020591 25
-5.9953437 7.709682 0.3296175 26
-5.6416969 8.4593658 0.28277665 22
-3.5877628 3.9804213 0.11748895 26
-5.9906216 7.7036095 0.15636921 21
-5.6591239 8.4854965 0.1032519 27
-3.5912712 3.9843135 0.022655843 29
-5.9889269 7.7014298 -0.016176052 30
-5.6659112 8.4956732 -0.076995939 27
-3.5990124 3.992902 -0.072246082 12
-6.0025458 7.7189431 -0.18911628 40
-5.6753612 8.5098429 -0.25820231 25
-3.5868874 3.9794502 -0.1667721 4
-6.0020013 7.7182431 -0.3624469 42
-5.6253729 8.4348898 -0.43557152 29
-3.5736563 3.964771 -0.26058736 28
-5.9971352 7.7119856 -0.53507495 42
-5.6401768 8.4570866 -0.61639589 26
-3.5780344 3.9696281 -0.35561588 31
-5.9928627 7.7064915 -0.70748466 41
-5.6465478 8.4666395 -0.79735816 27
-3.5919721 3.9850914 -0.45192605 30
-5.6590438 7.2772188 -0.83117247 30
-5.6489558 8.4702501 -0.97782272 24
-3.5994277 3.9933629 -0.54807878 31
-6.0056682 7.722959 -1.0552009 47
-6.0007319 7.7166109 -1.2276177 37
-5.9867253 7.6985993 -1.397351 33
-6.0168862 7.7373848 -1.5796027 37
-6.0017447 7.7179132 -1.7485683 33
-5.9149032 7.6062398 -1.8951064 5
-5.380475 6.9189949 -1.8791738 4
-4.9727335 6.3946614 -1.8804497 4
-4.6073489 5.9247971 -1.8747827 6
-3.306432 4.2518897 -1.8529321 7
-2.4236486 3.1166787 -1.840374 8
