# .PCD v0.7 - Point Cloud Data file format
VERSION 0.7
FIELDS x y z intensity
SIZE 4 4 4 4
TYPE F F F F
COUNT 1 1 1 1
WIDTH 1419
HEIGHT 1
VIEWPOINT 0 0 0 1 0 0 0
POINTS 1419
DATA ascii
9.9925289 5.1024361 -1.4090439 1
8.9677 4.5791326 -1.4427379 3
8.1455107 4.1593022 -1.4739565 2
7.4799967 3.8194742 -1.5020927 6
6.9035587 3.5251305 -1.5245764 5
6.3953042 3.2656031 -1.539564 5
5.9756284 3.0513058 -1.5575442 4
5.619853 2.869638 -1.5762134 6
4.2445331 2.1673651 -1.6395326 6
3.2191906 1.6437997 -1.6848971 11
5.4476829 2.7339456 1.608947 15
6.9816217 3.5037599 1.5094881 24
8.7664576 4.399488 1.3722079 19
13.662506 6.8565931 1.3271797 31
13.717212 6.8840475 0.78956658 32
13.734682 6.8928151 0.51864499 29
8.7193127 3.6080923 0.26242739 38
13.718019 8.1808252 0.35018721 54
13.726439 6.8886786 0.24608926 27
8.7296276 3.612361 0.095639609 39
10.629288 6.338841 0.052272316 1
10.760894 5.4004054 -0.019963067 0
8.7335234 3.6139729 -0.071265727 37
12.054019 7.188488 -0.18862462 0
10.640941 5.3402066 -0.23026551 0
8.7088203 3.6037507 -0.23791353 39
9.913435 5.9119377 -0.35930675 0
10.296229 5.1672115 -0.42705315 1
8.7294159 3.612273 -0.40586957 46
9.1309433 5.4452939 -0.5190292 1
10.1915 5.1146526 -0.62454581 1
8.7325163 3.6135561 -0.57305932 44
8.8919764 5.3027844 -0.68892276 8
10.219299 5.1286039 -0.82862729 1
8.7439346 3.6182809 -0.74143058 39
8.7911835 5.2426763 -0.8622185 26
10.197585 5.1177063 -1.0287286 2
8.7305584 3.612746 -0.90745926 38
8.8656893 5.2871079 -1.0523436 7
11.317328 5.6796551 -1.365756 2
10.01017 5.0236511 -1.4065518 3
8.9959097 4.5146399 -1.4421706 3
8.1778784 4.1041069 -1.4745929 3
7.4888825 3.7583313 -1.4985716 4
6.9139686 3.4698079 -1.5214887 5
6.4249372 3.2243853 -1.5412412 5
6.0107141 3.0165055 -1.5611622 4
5.6432176 2.8320754 -1.5771828 6
4.2663217 2.1410737 -1.642135 7
3.2435491 1.6277905 -1.6916568 11
5.4596992 2.6924255 1.6069052 16
7.1010156 3.5018332 1.5299789 22
8.7649813 4.3224101 1.36722 20
13.670727 6.7416558 1.3233739 30
13.711197 6.7616134 0.78648394 35
13.732272 6.7720065 0.51675606 33
8.7220583 3.5381138 0.26176021 38
13.729961 8.0585413 0.34904739 63
13.73474 6.7732239 0.24538432 27
8.7212763 3.5377965 0.095275193 41
10.624985 6.2361345 0.05203579 1
11.096094 5.4719877 -0.020513542 0
8.7288885 3.5408845 -0.071024463 41
12.193593 7.1567993 -0.19002225 0
11.097622 5.4727411 -0.23931524 0
8.7078295 3.532342 -0.23720697 38
9.9579134 5.8446097 -0.35943121 0
10.468284 5.1623855 -0.43268397 1
8.7359056 3.543731 -0.40501112 48
9.154953 5.3733273 -0.51824898 1
10.359497 5.1087384 -0.63263977 1
8.7316322 3.5419977 -0.57136464 46
8.9494324 5.2527003 -0.69051629 6
10.41587 5.136538 -0.84163785 1
8.7283335 3.5406594 -0.73799372 21
8.827569 5.1811752 -0.8622185 10
10.422434 5.1397753 -1.0477659 1
8.7112913 3.5337465 -0.90287036 7
8.8612003 5.2009144 -1.0474755 18
11.370972 5.607542 -1.3674718 2
10.052116 4.9571552 -1.4075487 4
9.0307598 4.4534779 -1.4427379 3
8.2027893 4.0451679 -1.4739565 3
7.5361276 3.7164066 -1.502797 4
6.9450641 3.4249263 -1.5230325 5
6.4402757 3.1759923 -1.539564 5
6.0211434 2.9692991 -1.5584487 4
5.6628518 2.7926092 -1.5771828 5
4.2777729 2.1095641 -1.6408339 7
3.258086 1.6067101 -1.6933469 11
5.5062065 2.6677351 1.6150725 12
7.2277861 3.5018337 1.5519875 24
8.7949438 4.2611151 1.36722 18
13.670836 6.6234655 1.3188761 29
13.714927 6.6448269 0.7840178 45
13.728846 6.6515708 0.51486713 30
8.7168198 3.4653203 0.26087064 38
13.723553 7.9264903 0.34746918 53
13.716903 6.6457849 0.24423078 27
8.7234602 3.4679601 0.095032245 42
10.630161 6.1398001 0.05184995 1
11.162823 5.4083433 -0.020566601 0
8.7459612 3.4769051 -0.070964143 36
11.103787 6.4133582 -0.172337 0
10.865626 5.2643523 -0.23351413 0
8.7359924 3.4729421 -0.23730791 27
11.095952 6.4088326 -0.39888403 0
10.651556 5.1606364 -0.43875933 1
8.7232952 3.4678946 -0.40329424 4
9.1957026 5.3112807 -0.51844406 2
10.567439 5.1198821 -0.64313996 1
8.7227545 3.4676793 -0.56918567 13
9.0342693 5.21804 -0.69423443 8
10.638173 5.1541524 -0.85667223 1
8.7157812 3.4649074 -0.7348693 34
8.9083958 5.1453376 -0.86658335 5
10.658833 5.1641622 -1.0678806 1
8.7431488 3.4757869 -0.90363514 14
8.9283066 5.1568375 -1.0511266 3
11.374052 5.5106826 -1.3631824 1
10.104337 4.8955107 -1.4100409 3
9.0651941 4.3920503 -1.4433053 3
8.2414913 3.9929698 -1.4758657 3
7.5477147 3.6568375 -1.4999801 5
6.9652724 3.3746467 -1.5222607 5
6.4728498 3.13607 -1.5420797 6
6.0522451 2.9322886 -1.5611622 4
5.6857018 2.7546999 -1.5781522 5
4.2889915 2.0779994 -1.6395326 7
3.2529097 1.5760217 -1.6848971 11
3.6388967 1.7317683 1.0637835 2
7.3619914 3.5036066 1.575514 23
8.7994385 4.1876945 1.3633406 21
13.677163 6.509027 1.3150704 28
13.721304 6.5300336 0.78175724 43
13.738851 6.538384 0.51351792 28
8.796689 3.4261482 0.26253861 15
13.736833 7.8067794 0.34641704 50
13.723241 6.5309553 0.24352583 28
8.8480902 3.4461679 0.096125498 17
10.620602 6.0357938 0.051596526 1
11.47842 5.4626346 -0.021077285 0
8.8930187 3.4636669 -0.071959391 16
11.120471 6.3198748 -0.17190696 0
11.093506 5.2794523 -0.23761359 0
8.923974 3.4757233 -0.24174923 17
9.979455 5.6714244 -0.35731545 0
10.849747 5.1634459 -0.44542739 1
8.8031511 3.4286652 -0.40586957 8
9.2568712 5.2607722 -0.51980942 1
10.768822 5.1249337 -0.65320271 1
8.8732462 3.4559658 -0.57741719 21
9.0531273 5.1449828 -0.69290656 3
10.861221 5.1689067 -0.87170666 1
8.9181223 3.4734442 -0.7498666 18
9.0168715 5.1243782 -0.87363416 3
10.878087 5.1769333 -1.0861994 1
8.9564219 3.4883614 -0.92313808 16
9.0540409 5.1455021 -1.0616744 3
11.394291 5.4225974 -1.3610377 1
10.145435 4.8282609 -1.4110377 2
9.0813341 4.3218498 -1.4410359 3
8.2584696 3.9302449 -1.4739565 3
7.5801706 3.6074393 -1.5013885 4
6.9922066 3.3276243 -1.5230325 4
6.4875236 3.0874431 -1.5404027 5
6.0655327 2.8866158 -1.5593532 4
5.6977868 2.7116039 -1.5762134 6
4.3136406 2.052882 -1.6434363 7
3.2802014 1.5610635 -1.6933469 11
3.6894388 1.7243351 1.0750135 4
7.4858932 3.4986861 1.5967637 25
8.7853937 4.1060343 1.3566902 18
8.6824675 4.05793 0.83208215 5
13.71951 6.4120951 0.77908558 65
13.729836 6.4169211 0.51149404 32
8.9847708 3.4273574 0.26743132 15
13.728171 7.67556 0.34483883 78
13.728643 6.4163637 0.24282089 28
9.0288916 3.4441881 0.097826123 16
10.63455 5.9458852 0.051461369 1
8.7332363 4.0816579 -0.015983718 1
9.0776815 3.4627998 -0.073256224 17
10.274109 5.7443585 -0.15819956 0
11.238785 5.252677 -0.23993403 0
9.1161461 3.4774725 -0.24629149 16
9.994379 5.5879588 -0.35644427 0
8.7055264 4.068707 -0.35622337 0
9.0060978 3.435493 -0.41411057 20
9.2863998 5.1921201 -0.51941931 1
8.7165604 4.0738635 -0.52698106 10
9.0687571 3.4593952 -0.58855397 19
9.1201792 5.099185 -0.69529676 2
8.7176332 4.0743651 -0.69736534 13
9.0986404 3.4707944 -0.76298928 19
9.1115704 5.0943718 -0.87934202 3
11.130509 5.2020721 -1.107751 1
9.1442451 3.4881909 -0.93996412 17
9.2008905 5.1443114 -1.0746562 2
8.7225208 4.0766492 -1.0384722 1
8.7370939 4.0834608 -1.2111697 13
8.8637733 4.1426663 -1.4018897 9
8.2749739 3.8674791 -1.4720472 3
7.6158724 3.5594344 -1.5035012 5
7.022378 3.2820528 -1.5245764 4
6.5372653 3.0553253 -1.5471109 5
6.0961266 2.8491499 -1.5620667 4
5.7200937 2.6734033 -1.5771828 6
4.327867 2.0227177 -1.6434363 6
3.2811663 1.5335206 -1.688277 10
3.7541132 1.7227316 1.090327 5
7.6207895 3.4971173 1.6202902 28
8.6446247 3.9669471 1.3306426 18
8.674367 3.9805956 0.82862234 34
8.7063913 3.9952912 0.4928112 48
8.7202101 4.0016327 0.32381579 29
9.1732912 3.4261036 0.27232403 15
13.732365 7.5525532 0.34361133 68
8.7167854 4.000061 0.15367761 21
9.2175846 3.4426463 0.099607721 15
10.658276 5.8618593 0.051376898 1
8.6997156 3.9922278 -0.01587097 31
9.2665071 3.4609182 -0.074583225 18
10.268401 5.6474357 -0.15750076 0
8.7271795 4.0048304 -0.18571296 12
9.3162632 3.4795015 -0.25103563 16
10.036649 5.5199761 -0.35656872 0
8.7191868 4.001163 -0.35563067 12
9.1983309 3.4354553 -0.42183653 19
9.3399229 5.1367893 -0.52039456 2
8.7012281 3.9929218 -0.52435595 34
9.2610016 3.4588621 -0.59944862 17
9.2324924 5.0777049 -0.70113963 2
8.7241096 4.0034218 -0.69563061 29
9.2832861 3.467185 -0.77642441 16
9.2796288 5.1036286 -0.89210069 3
8.7369967 4.0093355 -0.86673254 2
9.347415 3.4911363 -0.95831978 17
9.2540131 5.089541 -1.0766847 3
8.7254667 4.0040445 -1.0354695 11
8.7329254 4.0074673 -1.2066839 17
8.7377319 4.0096731 -1.3774942 28
8.3304853 3.8227911 -1.4771386 3
7.6262217 3.4996102 -1.5006843 5
7.048687 3.2345843 -1.5253483 4
6.5442171 3.0030873 -1.5437567 5
6.1158686 2.8065217 -1.5620667 5
5.7421451 2.6350231 -1.5781522 5
4.3281317 1.9861441 -1.6382314 6
3.3016775 1.5151125 -1.6933469 10
3.8365741 1.7282504 1.1107452 4
7.7739267 3.5018981 1.6476113 27
8.661273 3.9016182 1.32898 22
8.6728783 3.906846 0.82585454 36
8.7049341 3.9212863 0.49116713 43
8.704195 3.9209533 0.32219672 32
9.3472023 3.4168913 0.27677196 11
13.731996 7.4279599 0.34229615 49
8.7189732 3.9276106 0.15322901 22
13.76066 5.030241 0.14831832 35
10.660238 5.7663741 0.051191054 1
8.727375 3.9313951 -0.01587097 30
13.768488 5.0331025 -0.11053275 37
10.279434 5.5603881 -0.15707071 0
8.7330475 3.9339504 -0.18524887 35
13.764495 5.0316429 -0.36994192 34
10.064391 5.444066 -0.35619533 0
8.7359743 3.9352689 -0.35518613 36
9.3834867 3.430155 -0.42921907 9
9.445838 5.1094766 -0.52429557 5
8.7361755 3.9353595 -0.52479345 54
13.796136 5.0432091 -0.89069933 41
9.3379269 5.0511045 -0.7064513 2
8.7372961 3.9358642 -0.6944741 48
13.794228 5.0425119 -1.1507328 35
9.4131966 5.0918198 -0.90150183 2
8.7466116 3.9400609 -0.86493659 41
12.991539 4.7490869 -1.3284929 2
9.4608259 5.1175838 -1.0965632 23
8.7532072 3.9430318 -1.0354695 53
8.7606897 3.9464023 -1.2066839 42
8.7546825 3.9436963 -1.3757921 33
8.4181805 3.7921133 -1.4879578 3
7.6504674 3.4462838 -1.5006843 5
7.0746756 3.1869085 -1.5261203 5
6.5685892 2.9589331 -1.5445954 6
6.138865 2.7653568 -1.5629711 5
5.7604012 2.5948713 -1.5781522 6
4.3453407 1.957433 -1.6395326 6
3.3022578 1.4875585 -1.688277 11
5.5570455 2.4567442 1.6038425 15
7.927496 3.5047092 1.6749322 30
8.6701841 3.8330483 1.3262089 23
8.6853628 3.8397589 0.82447058 34
8.7247896 3.8571892 0.49075612 30
8.7021055 3.8471606 0.32111734 33
13.760698 4.9216247 0.40642887 39
13.734088 7.3056197 0.34106866 69
8.716917 3.8537087 0.15271632 25
13.769079 4.9246221 0.14803489 39
10.682578 5.6824198 0.05110658 1
8.714365 3.8525803 -0.015798016 36
13.77316 4.9260817 -0.11029148 38
10.342719 5.5016375 -0.157447 0
8.7273788 3.8583338 -0.18455274 46
13.761635 4.9219599 -0.36893252 36
10.091562 5.3680391 -0.35582197 0
8.7193632 3.8547904 -0.35340798 45
13.798488 4.9351401 -0.62957853 46
9.5765152 5.0940681 -0.52956194 5
8.741518 3.8645849 -0.52348095 48
13.804691 4.9373593 -0.88900459 42
9.7640886 5.1938448 -0.73593104 1
8.7426672 3.8650928 -0.69273937 47
13.802812 4.936687 -1.1485457 44
9.6174259 5.1158299 -0.91761804 3
8.7556877 3.8708491 -0.86314064 48
12.986887 4.6448646 -1.3246688 8
9.6790113 5.1485891 -1.1176587 23
8.7623339 3.8737876 -1.0333248 56
8.7517281 3.8690984 -1.2016996 45
8.7494068 3.8680723 -1.3706862 34
8.4408369 3.7316551 -1.4873214 4
7.6815424 3.3959744 -1.5020927 4
7.1075206 3.1422021 -1.5284361 5
6.6033945 2.9193304 -1.5479496 6
6.1473303 2.7177062 -1.5602577 5
5.7890244 2.5593009 -1.5810603 7
4.3692784 1.9316379 -1.6434363 7
3.3125625 1.4644685 -1.688277 9
5.6272826 2.440975 1.6191561 2
8.0526533 3.4930406 1.696182 30
8.6603899 3.7566614 1.3206669 21
8.6827097 3.7663434 0.82170278 36
8.7185221 3.7818775 0.48890653 31
8.7140808 3.7799511 0.32057765 34
13.760755 4.8135567 0.40542811 35
13.738689 7.1854663 0.33992884 64
8.7179232 3.7816179 0.15226772 25
13.765368 4.8151708 0.14762998 42
10.721989 5.6077027 0.05110658 1
8.7190313 3.7820983 -0.015758222 33
13.765684 4.8152809 -0.10995974 39
10.636057 5.5627594 -0.16131732 0
8.7320881 3.7877622 -0.18408865 49
13.765465 4.8152041 -0.36812502 39
10.093365 5.2789264 -0.35457739 0
8.7350607 3.7890515 -0.35296342 50
13.783566 4.8215361 -0.62734663 60
9.7109728 5.0789318 -0.53502333 3
8.7316427 3.787569 -0.5212934 47
13.797368 4.826364 -0.88634145 41
9.7965746 5.1237025 -0.73566544 2
8.7474766 3.7944374 -0.69100463 45
13.799297 4.8270392 -1.1454213 39
9.7694626 5.1095228 -0.928698 3
8.7532597 3.7969458 -0.8602671 49
13.026514 4.5567164 -1.3254335 4
9.8769255 5.1657267 -1.1363202 3
8.7636251 3.8014421 -1.0303222 59
8.7530375 3.7968497 -1.1982107 44
8.7471371 3.7942903 -1.3661474 34
8.5029125 3.6883514 -1.4936856 4
7.6906142 3.3359969 -1.4992759 5
7.1256833 3.0909438 -1.5276642 5
6.6164379 2.8700459 -1.5462724 5
6.1804519 2.6809258 -1.5638757 5
5.788949 2.511102 -1.5762134 5
4.3687773 1.8950667 -1.6382314 7
3.296097 1.4297647 -1.6747572 2
3.3452303 1.4234127 0.95965117 3
8.1418915 3.4644167 1.7098424 29
8.6645336 3.6868036 1.3173417 26
8.6794577 3.6931539 0.81893492 31
8.7116289 3.7068431 0.48705694 32
8.7145081 3.7080677 0.31963319 34
13.75619 4.7044325 0.40431613 39
13.738727 7.0637784 0.33870137 35
8.7220306 3.7112689 0.15188321 26
13.760803 4.7060103 0.14722507 41
10.771548 5.5382013 0.051157266 1
8.7231379 3.71174 -0.015718428 31
13.772471 4.7100005 -0.10974862 38
10.382957 5.3384061 -0.15690945 0
8.7325583 3.7157485 -0.18354721 46
13.77226 4.7099285 -0.36741844 36
10.183308 5.2357564 -0.35644427 1
8.7392311 3.7185879 -0.35207435 50
13.797984 4.7187257 -0.62648815 46
9.8705521 5.0749531 -0.54185009 1
8.7284708 3.7140093 -0.51954335 47
13.796724 4.7182946 -0.88416255 43
9.846303 5.0624857 -0.73672777 1
8.7480564 3.722343 -0.68898076 45
13.791154 4.7163897 -1.1419843 40
9.9183292 5.0995173 -0.93944216 3
8.7575588 3.7263863 -0.85811192 49
9.2265034 3.1553404 -0.93652242 16
10.164018 5.2258387 -1.1651237 1
8.753356 3.7245979 -1.0260328 51
8.7574205 3.7263272 -1.1952201 48
8.7442656 3.7207301 -1.3616087 35
8.5211868 3.6258085 -1.4924128 4
7.7245855 3.2868507 -1.5013885 4
7.143477 3.0395861 -1.5268922 5
6.6399121 2.8253167 -1.5471109 5
6.1990175 2.6377137 -1.5638757 5
5.8099093 2.4721463 -1.5771828 5
4.3923421 1.8689641 -1.642135 8
1.6646752 0.70832783 -0.84329349 4
3.3729322 1.4074707 0.96475571 4
8.2347431 3.4362268 1.7242619 31
8.6644697 3.6155448 1.3134624 24
8.6829634 3.6232617 0.81685901 32
8.7151766 3.6367037 0.4858239 30
8.7180452 3.6379011 0.31882364 31
13.750776 4.5956092 0.40320414 35
13.7306 6.9388332 0.33729851 32
8.7255812 3.6410456 0.15149871 25
13.770561 4.6022215 0.14698213 41
10.817089 5.466475 0.051191054 1
8.7229977 3.6399677 -0.015672002 31
13.770876 4.6023269 -0.10947719 37
10.487797 5.300065 -0.15793079 0
8.7324514 3.6439123 -0.18300578 46
13.770674 4.6022592 -0.36651 38
10.262431 5.1861753 -0.35793772 8
8.7465343 3.6497889 -0.35133347 48
13.796478 4.6108832 -0.62494296 51
10.044807 5.0761976 -0.54945707 2
8.7320709 3.6437538 -0.5182308 45
13.80282 4.6130028 -0.88246781 39
10.055952 5.08183 -0.74974132 3
8.740694 3.6473517 -0.68637866 46
9.3494654 3.1246595 -0.77236259 8
10.156462 5.1326227 -0.95858014 2
8.7576237 3.6544166 -0.85559756 46
9.1236868 3.0492024 -0.92390287 18
11.752311 5.9390941 -1.3424076 4
8.7607946 3.6557398 -1.0238881 51
8.7575817 3.6543989 -1.1917312 42
8.7590656 3.6550181 -1.3599067 35
8.5207806 3.5555854 -1.4879578 4
7.7509775 3.234359 -1.5020927 4
7.1536565 2.9851065 -1.5245764 5
6.6594748 2.7788925 -1.5471109 5
6.2100892 2.5913708 -1.5620667 5
5.8341894 2.434514 -1.5791215 6
4.4017925 1.8367976 -1.6408339 7
1.6361212 0.68272722 -0.82639384 6
3.4077327 1.3941404 0.97190201 4
8.2912464 3.3920386 1.7310922 29
8.6675014 3.5459685 1.3101372 26
8.6822281 3.5519936 0.81443715 30
8.7144718 3.5651848 0.48438534 28
8.7062302 3.5618129 0.3174744 30
13.755917 4.4908123 0.40242577 34
13.739307 6.8232417 0.33633405 35
8.7248764 3.5694413 0.15105011 23
13.768133 4.4948006 0.14661771 38
10.872901 5.3997211 0.051275529 1
8.7296858 3.571409 -0.015638841 29
13.776052 4.497386 -0.10926608 36
10.850523 5.388608 -0.16282246 0
8.7354689 3.5737751 -0.18254168 43
13.768256 4.4948406 -0.36560154 35
10.348517 5.1393008 -0.35968015 1
8.745904 3.5780439 -0.3502962 49
13.801739 4.5057716 -0.62374115 45
10.208817 5.0699229 -0.55647886 1
8.735117 3.5736308 -0.5169183 43
13.796734 4.5041375 -0.88004678 22
10.255617 5.0931644 -0.76195818 2
8.7327118 3.5726469 -0.6837765 44
9.2459526 3.0184715 -0.76205194 3
10.370541 5.150238 -0.9753679 1
8.7571125 3.5826297 -0.85308325 46
9.0387688 2.9508333 -0.91319543 25
11.821999 5.8710637 -1.3456531 3
8.7603369 3.5839489 -1.0208855 49
8.764514 3.5856576 -1.189239 43
8.7550507 3.5817862 -1.355368 30
8.538085 3.4930229 -1.4866849 5
7.7770133 3.1816602 -1.502797 4
7.1924849 2.9425235 -1.5284361 5
6.6823325 2.7338145 -1.5479496 5
6.2172098 2.5435278 -1.5593532 6
5.8474517 2.3922558 -1.5781522 6
4.4110069 1.8045908 -1.6395326 7
1.62407 0.66442466 -0.81794399 7
3.4604588 1.3875889 0.98415291 4
8.3293056 3.3399191 1.7341279 26
8.681015 3.4809489 1.3084745 23
8.6994171 3.4883275 0.8137452 29
8.7131948 3.4938521 0.48294675 27
8.708621 3.4920182 0.31666487 32
13.767884 4.388597 0.40186977 34
13.750668 6.70962 0.33545727 36
8.7235975 3.4980237 0.15060151 23
13.761068 4.3864241 0.1462128 39
11.090075 5.411387 0.052120265 1
8.7395554 3.5044224 -0.015612312 28
13.776628 4.3913836 -0.10902481 37
11.056822 5.3951612 -0.16534892 0
8.7193737 3.49633 -0.18169086 47
13.765011 4.387681 -0.36469308 35
10.800947 5.2703075 -0.37411711 0
8.7409887 3.5049973 -0.34911075 46
13.794784 4.397171 -0.6220243 48
10.416312 5.0826254 -0.56584132 1
8.7413168 3.5051289 -0.5158245 2
9.4417343 3.0096102 -0.60090125 2
10.44875 5.098453 -0.77364385 1
8.7167072 3.495261 -0.68059617 7
9.2364054 2.9441602 -0.75955236 240
10.585352 5.1651082 -0.99215567 1
8.7375383 3.5036137 -0.84877288 20
8.9908648 2.8658929 -0.90631205 28
11.859121 5.7866426 -1.3452474 3
8.7260838 3.4990208 -1.0140224 4
8.7193432 3.4963176 -1.179769 2
8.7357416 3.5028932 -1.34856 18
8.5695934 3.4362705 -1.4879578 4
7.8026905 3.1287546 -1.5035012 4
7.2092094 2.8907781 -1.5276642 4
6.704885 2.6885521 -1.5487881 5
6.2203498 2.494261 -1.5557352 7
5.8712139 2.3542633 -1.5800909 5
4.4234977 1.7737522 -1.6395326 6
1.645494 0.65981692 -0.82639384 8
3.5204566 1.3831972 0.99844557 4
8.3487644 3.2802527 1.733369 28
8.7567234 3.440541 1.3162334 18
8.8199911 3.465399 0.82274067 14
8.7262192 3.428556 0.48233023 24
8.7699957 3.4457555 0.31801409 15
13.767644 4.2828722 0.40098017 31
13.73587 6.5840731 0.33396673 37
8.7887526 3.4531252 0.15130644 13
13.760803 4.2807441 0.14588886 39
11.293505 5.4133639 0.052897424 0
8.853158 3.4784305 -0.015771486 12
13.772574 4.2844062 -0.10875338 41
11.101431 5.3212962 -0.16545643 0
8.7472916 3.4368353 -0.18176821 41
13.776217 4.2855392 -0.3641884 37
10.949242 5.2483468 -0.37797529 0
8.7801266 3.4497361 -0.34970349 29
13.786985 4.2888889 -0.62030745 42
10.617268 5.08922 -0.5748136 1
8.7990303 3.4571633 -0.5177933 6
9.3900785 2.9210885 -0.59630132 8
10.656843 5.1081901 -0.78639179 2
8.8485794 3.4766316 -0.68898076 20
9.0625372 2.819196 -0.74361771 3
10.81884 5.1858406 -1.0106221 1
8.7358303 3.4323318 -0.84625858 34
8.9460201 2.7829497 -0.89981103 34
11.909996 5.708869 -1.3464644 3
8.7502995 3.4380167 -1.0140224 8
8.8432741 3.4745471 -1.1932265 9
8.8631725 3.4823649 -1.3644454 14
8.5823469 3.3720281 -1.4860486 4
7.8170128 3.071326 -1.5020927 4
7.2292147 2.8403785 -1.5276642 5
6.719851 2.6402481 -1.5479496 5
6.2593703 2.4593239 -1.5611622 8
5.8658347 2.3047028 -1.5742747 6
4.4463344 1.7469771 -1.6434363 7
1.6433116 0.64566165 -0.8230139 7
3.5877786 1.3808125 1.01478 5
8.3934526 3.230351 1.7379224 28
8.8248949 3.3963981 1.3228837 19
9.0187674 3.4710128 0.83900177 14
8.8953409 3.4235103 0.49034509 15
8.9542675 3.4461894 0.32381579 12
13.755119 4.1738801 0.399757 36
13.730846 6.4641733 0.33273923 46
9.0030079 3.4649479 0.15457481 14
13.767387 4.1776028 0.14564593 39
11.533685 5.4297986 0.053843528 0
9.041481 3.4797549 -0.016063305 13
13.775357 4.1800208 -0.10854226 40
12.086405 5.6900072 -0.17954011 0
8.9054384 3.4273965 -0.18455274 18
13.706312 4.1590695 -0.36156398 40
11.144774 5.2467089 -0.38345137 1
8.9644079 3.4500921 -0.3560752 21
9.9006796 3.0042813 -0.44449928 7
10.797126 5.0830436 -0.58261567 1
8.9981432 3.4630754 -0.5280748 21
9.3529329 2.8380721 -0.59266973 11
10.890852 5.1271677 -0.80099887 1
9.040185 3.4792559 -0.70199132 20
9.0362062 2.7419636 -0.7398684 23
8.6225176 4.0592871 -0.80278993 0
8.9380426 3.439945 -0.86349982 20
8.9195089 2.706553 -0.89522213 35
8.7056465 4.0984221 -0.98094332 5
8.9967804 3.4625511 -1.039759 21
9.0228834 3.4725971 -1.2141603 19
9.0868149 3.4972024 -1.3950816 11
8.5909376 3.3063562 -1.4835029 3
7.8272405 3.0124354 -1.4999801 5
7.2561941 2.7926593 -1.5292081 5
6.7490697 2.5974846 -1.5504651 5
6.2727504 2.4141657 -1.5602577 7
5.9035125 2.2720587 -1.5800909 6
4.4654827 1.7186105 -1.6460387 7
1.6477791 0.63417345 -0.8230139 8
3.6805689 1.387102 1.0382609 6
4.7040281 1.7728148 0.97141516 23
4.7522569 1.7909907 0.71048892 18
9.2143126 3.4726126 0.85491687 14
9.0722847 3.4190865 0.49877098 16
9.1464491 3.4470367 0.32988733 15
13.676565 4.0459909 0.39664346 42
13.746601 6.354732 0.33203781 41
9.184164 3.4612508 0.15726642 12
13.696494 4.0518866 0.14459316 43
8.7429295 4.0416522 0.040682528 4
9.2265034 3.4772072 -0.01634849 13
13.700643 4.0531139 -0.10772797 46
8.7240658 4.0329313 -0.12917212 15
9.0938101 3.4271989 -0.18795606 19
10.237991 3.0287445 -0.2695075 2
8.7278872 4.034698 -0.29931858 45
9.1528549 3.4494512 -0.36259508 21
12.236025 3.6198304 -0.54819864 0
8.7253542 4.0335274 -0.46929133 13
9.1902838 3.463557 -0.53791881 20
9.3686895 2.7715755 -0.59242761 12
8.7092237 4.0260706 -0.63846201 2
9.2434483 3.4835932 -0.71586919 20
9.0321836 2.6720259 -0.73799372 23
8.7085352 4.0257521 -0.80816197 3
9.1258669 3.4392803 -0.87930429 20
8.9152775 2.6374409 -0.89292765 28
8.7015381 4.0225172 -0.97729218 24
9.1807556 3.4599659 -1.0582036 22
9.2140293 3.472506 -1.2365893 18
9.2666254 3.4923282 -1.4189098 10
8.5731621 3.2309813 -1.4765022 3
7.8480802 2.9577186 -1.4999801 5
7.290204 2.7474709 -1.5322958 5
6.778019 2.5544429 -1.5529808 5
6.3186202 2.3813086 -1.5674937 12
5.9192305 2.2307899 -1.5800909 6
4.4702926 1.6847265 -1.6434363 7
1.669129 0.62904733 -0.83146369 8
3.7845032 1.3961769 1.0648044 4
4.8010359 1.7711955 0.98887026 21
4.8241096 1.7797079 0.71935618 22
13.717295 5.0605769 1.2694011 31
9.2795763 3.4234164 0.50884092 16
9.3540716 3.4508989 0.33649859 14
13.685269 3.944875 0.39608747 42
8.7324867 3.9630697 0.21025261 41
9.361949 3.453805 0.15989393 6
13.697545 3.9484136 0.14430973 45
8.7235804 3.9590278 0.040462896 40
13.761373 5.076838 -0.024320453 30
13.701701 3.9496117 -0.10751686 41
8.733798 3.9636645 -0.12890334 40
9.2938614 3.4286864 -0.19159143 21
10.270413 2.9605188 -0.26981029 0
8.7085133 3.9521897 -0.29770064 40
9.3642225 3.4546442 -0.37000406 22
9.9378204 2.8646467 -0.44432759 0
8.7205572 3.9576557 -0.46753588 21
9.3866091 3.4629028 -0.5479815 12
9.3494463 2.6950436 -0.59000659 16
8.7189465 3.9569247 -0.63713408 44
13.792768 5.0884209 -1.0654192 43
9.0276279 2.602277 -0.73611903 21
8.7219086 3.9582691 -0.80681896 36
9.3253231 3.4402931 -0.89618635 20
8.9334736 2.5751364 -0.89292765 12
8.7366552 3.9649611 -0.97810352 50
9.3837805 3.4618595 -1.0787928 20
9.4056053 3.4699109 -1.2590184 7
9.4319439 3.4796278 -1.4404685 10
8.5918045 3.1696839 -1.4758657 3
7.8833141 2.908308 -1.502797 5
7.2981606 2.6924334 -1.5299799 5
6.8030252 2.5097685 -1.5546578 5
6.3095016 2.327698 -1.5611622 10
5.9455824 2.1934412 -1.582999 6
4.4819455 1.6534768 -1.6434363 7
1.6530715 0.60985029 -0.82132393 8
5.7257957 2.0670598 1.6069052 19
4.8871636 1.7643067 1.0040487 19
4.9146633 1.7742343 0.7309944 18
13.711059 4.9498057 1.2655952 32
13.748218 4.9632206 0.75195837 31
13.758565 4.9669561 0.49368417 33
13.685528 3.8416748 0.39530909 53
8.7380247 3.8922462 0.20972654 40
13.753347 4.9650722 0.23429748 32
13.686266 3.841882 0.14390482 46
8.7327385 3.8898916 0.040378422 43
13.755093 4.9657025 -0.024247499 30
13.705834 3.8473749 -0.1073359 42
8.7210674 3.8846929 -0.12831205 32
13.782633 4.9756446 -0.28340369 45
10.263882 2.8811817 -0.26910374 0
8.7103281 3.879909 -0.29682946 40
13.809586 4.9853749 -0.54426306 52
9.9383392 2.7897985 -0.44346917 0
8.740675 3.8934271 -0.4671458 43
13.787121 4.9772649 -0.80283123 44
9.3411245 2.622154 -0.58831185 19
8.7171926 3.8829668 -0.63500941 46
13.79043 4.9784598 -1.062528 46
9.0148592 2.5305679 -0.73361951 24
8.7202024 3.8843076 -0.80413294 40
13.613357 4.9145346 -1.304948 6
8.9397326 2.509479 -0.89178044 6
8.738677 3.8925369 -0.97526377 48
11.839138 4.2740269 -1.3576062 3
10.508442 3.7936347 -1.4030628 6
9.4597301 3.415041 -1.4410359 6
8.6137228 3.1096253 -1.4758657 3
7.9145355 2.857213 -1.5049096 5
7.3167787 2.6414177 -1.5299799 5
6.805666 2.4569018 -1.5513036 5
6.3365927 2.2875624 -1.5638757 9
5.9571004 2.1505625 -1.5820297 6
4.4969373 1.6234317 -1.6447375 6
1.670929 0.60321921 -0.82808381 8
4.0807858 1.4410756 1.1423932 2
5.0178652 1.7719927 1.028334 16
5.0875502 1.7966011 0.75482517 14
13.696431 4.8367138 1.2610976 29
13.744865 4.8538175 0.74990326 28
13.74767 4.8548079 0.4920651 33
13.688871 3.7397156 0.39464188 59
8.7393341 3.8199377 0.20911279 36
13.757504 4.8582807 0.23378479 27
13.697321 3.7420237 0.14374284 44
8.73036 3.8160155 0.040243264 40
13.770566 4.8628936 -0.024214337 28
10.703446 2.9241157 -0.083661079 6
8.7186556 3.810899 -0.127882 31
13.790637 4.8699808 -0.28286228 42
11.24423 3.0718546 -0.29423758 2
8.7152214 3.8093979 -0.29608271 38
13.802593 4.8742032 -0.54263312 49
9.9575739 2.7203479 -0.44346917 0
8.7383566 3.8195107 -0.46558538 39
13.79517 4.871582 -0.80129993 46
9.3283911 2.5484588 -0.58637506 15
8.7294588 3.8156211 -0.63394707 46
13.78347 4.8674502 -1.0593476 40
9.0015326 2.4591632 -0.73111993 23
8.7324982 3.8169496 -0.80278993 39
13.647335 4.819376 -1.304948 7
8.9455118 2.4438589 -0.89063323 4
8.7437611 3.8218727 -0.97282964 47
11.849938 4.184649 -1.3554614 4
10.545897 3.7241442 -1.4045582 3
9.4870749 3.3502352 -1.4416033 6
8.6054325 3.0388949 -1.4707744 3
7.9268646 2.7992675 -1.5035012 5
7.3239388 2.5863521 -1.5276642 5
6.8189645 2.4080272 -1.5504651 5
6.3487344 2.2419715 -1.5629711 12
5.9756279 2.110214 -1.582999 6
4.5010281 1.5894786 -1.642135 7
1.6716809 0.59033203 -0.82639384 7
4.1236482 1.4239126 1.1515814 1
5.1266322 1.770247 1.0480659 19
5.2085581 1.7985364 0.77089709 15
13.714797 4.7357755 1.2597135 32
13.744432 4.7460089 0.74805373 32
13.754777 4.7495804 0.49112064 32
13.676002 3.6337917 0.39352992 73
8.7327108 3.7446485 0.20832369 31
13.772183 4.7555914 0.23346436 25
13.692185 3.6380916 0.14341892 41
8.7273788 3.7423623 0.040108107 40
13.762589 4.7522783 -0.024141382 27
10.696539 2.8421314 -0.083449967 1
8.7193165 3.7389052 -0.12750573 29
13.782716 4.7592282 -0.28201145 41
11.203568 2.9768519 -0.29262254 0
8.7122078 3.7358565 -0.29508707 37
13.794724 4.7633743 -0.54100317 47
9.964735 2.647687 -0.44295409 0
8.7317619 3.7442417 -0.46382993 41
13.794866 4.7634234 -0.79933113 43
9.3112249 2.4740455 -0.58419609 18
8.7265387 3.742002 -0.63182241 45
13.783175 4.7593865 -1.0567455 38
9.0069189 2.3931897 -0.73018259 20
8.7222996 3.7401841 -0.79943234 35
13.707007 4.7330856 -1.3074623 6
8.9007835 2.364989 -0.88451463 13
8.7373142 3.7466223 -0.9691785 43
11.893899 4.1070123 -1.3571771 3
10.567887 3.6491349 -1.4040598 3
9.5214605 3.2877994 -1.4433053 3
8.6488342 2.9864779 -1.4745929 3
7.9424915 2.7425749 -1.502797 4
7.3566551 2.5402832 -1.5307519 5
6.8430033 2.3629169 -1.5521423 5
6.360548 2.1963234 -1.5620667 7
5.986546 2.067179 -1.5820297 5
4.5155897 1.5592517 -1.6434363 6
1.6689076 0.57628059 -0.8230139 7
5.7531714 1.9417471 1.6028216 17
5.2504992 1.7720907 1.0708334 21
5.3260827 1.7976009 0.7864148 13
13.721094 4.6309924 1.2572917 32
13.743166 4.638442 0.74620414 34
13.761085 4.6444898 0.49017617 30
13.685552 3.5342276 0.39308512 58
8.7254629 3.6696391 0.20753458 33
13.751995 4.6414218 0.23256716 27
13.686269 3.5344129 0.143095 39
8.7311687 3.672039 0.040006738 41
13.765111 4.6458488 -0.024088325 29
10.673519 2.7563848 -0.083118223 0
8.7120237 3.6639874 -0.12702194 31
13.777714 4.6501021 -0.28123796 43
10.260023 2.6496015 -0.26748869 0
8.7233343 3.6687441 -0.29458922 37
13.793555 4.6554489 -0.53966951 47
9.9597607 2.5720601 -0.44192398 0
8.7245426 3.6692524 -0.46207449 41
13.797509 4.6567836 -0.79758108 46
9.3166733 2.4059858 -0.58346981 18
8.7303762 3.6717055 -0.63022888 44
13.789606 4.6541157 -1.0547217 41
9.0118237 2.3272598 -0.72924525 23
8.7298269 3.6714749 -0.79775357 36
9.2743082 3.1301625 -0.88253707 1
8.9016571 2.29881 -0.882985 20
8.7265749 3.6701069 -0.96512163 42
9.175334 3.0967577 -1.0444773 29
9.1453447 3.0866358 -1.2121665 21
9.5066652 3.208585 -1.4376318 2
8.6732149 2.9272881 -1.4752294 3
7.9614449 2.6870592 -1.502797 5
7.3779292 2.4901173 -1.5315238 5
6.8593326 2.3150864 -1.5521423 5
6.3904934 2.1568489 -1.5656847 8
6.0045085 2.0265756 -1.582999 5
4.5299497 1.5288987 -1.6447375 6
1.6660199 0.56229669 -0.81963396 7
5.7114921 1.8833681 1.5875081 9
5.3895564 1.7772095 1.0966367 17
5.4588914 1.8000729 0.80414927 14
13.715244 4.5226102 1.2538319 30
13.744864 4.5323772 0.74456006 29
13.755207 4.5357885 0.48882693 29
13.764188 3.4522183 0.39464188 56
8.7286863 3.5994868 0.20700851 39
13.749878 4.5340309 0.2319904 27
13.772683 3.454349 0.14374284 38
8.7270088 3.5987949 0.039871581 41
13.774417 4.5421224 -0.024048531 28
10.626547 2.6652615 -0.082605518 0
8.7189035 3.5954528 -0.12675317 32
13.783255 4.5450368 -0.28069651 41
12.725661 3.1917439 -0.33118129 0
8.7154694 3.5940363 -0.29346913 39
13.799147 4.5502772 -0.53863227 50
9.9503403 2.495661 -0.44072217 0
8.7314787 3.6006384 -0.46109924 43
13.791753 4.5478392 -0.79539353 47
9.3216238 2.3379717 -0.58274347 17
8.7336578 3.6015368 -0.62863541 46
9.4228945 3.1072054 -0.71904957 3
9.023983 2.26332 -0.72893286 24
8.7368221 3.6028416 -0.79607481 37
9.1862154 3.0291603 -0.87212044 11
8.9445238 2.2433906 -0.8856619 2
8.7335901 3.6015091 -0.96309322 42
9.3138132 3.0712359 -1.0577747 5
9.0498257 2.9841855 -1.1967155 27
9.5513954 3.1495788 -1.4410359 2
8.7046919 2.8703775 -1.4771386 3
7.968792 2.6277142 -1.5006843 5
7.3951335 2.43855 -1.5315238 5
6.8641844 2.2634692 -1.5496266 5
6.383193 2.1048617 -1.5602577 11
6.0369382 1.9906842 -1.5878459 6
4.5369205 1.4960524 -1.6434363 7
1.6733479 0.55178756 -0.82132393 7
5.7723589 1.8588599 1.6007798 18
5.5139809 1.775655 1.1194042 17
5.5882182 1.7995615 0.82132959 16
13.712346 4.4157562 1.2507181 33
13.738146 4.4240646 0.74250495 34
13.756096 4.4298453 0.48774755 32
13.745218 3.3456399 0.3934187 79
8.7313576 3.5294707 0.20648244 38
13.762162 4.4317985 0.23166996 27
13.769259 3.3514917 0.14345941 37
8.7333775 3.5302873 0.039787106 40
13.767716 4.4335871 -0.023982208 30
10.602144 2.5806036 -0.082273766 0
8.7215424 3.5255029 -0.12643065 31
13.788003 4.4401197 -0.28015509 37
11.251798 2.7387316 -0.29231972 0
8.7106934 3.5211177 -0.29247347 38
13.807748 4.4464784 -0.53774321 46
9.9481058 2.4214079 -0.43986371 0
8.7304745 3.5291135 -0.45973387 39
13.788951 4.4404254 -0.79342473 37
9.3260813 2.2700047 -0.58201718 15
8.7363853 3.5315032 -0.62704188 32
9.2354956 2.9740863 -0.70314777 20
9.0318146 2.1983793 -0.72830796 22
8.7100248 3.5208473 -0.79137421 10
9.0933771 2.9283199 -0.86134464 27
8.9058046 2.1677079 -0.88030815 25
8.7179375 3.5240459 -0.95863074 2
9.0473299 2.9134917 -1.025175 23
8.9911051 2.8953855 -1.1862485 31
9.5430002 3.0731111 -1.4364972 2
8.717 2.8071163 -1.4758657 4
7.9944382 2.5744312 -1.5020927 5
7.4119778 2.3868628 -1.5315238 4
6.8872652 2.2178907 -1.5513036 5
6.4348207 2.072191 -1.5693027 8
6.0174432 1.9377838 -1.5791215 5
4.5544553 1.4666611 -1.6460387 6
1.6737086 0.53898066 -0.81963396 6
5.7808714 1.8193749 1.5997589 16
5.6455135 1.7767748 1.1436896 17
5.7171698 1.7993265 0.83850992 16
13.710919 4.315146 1.2479502 31
13.744322 4.3256583 0.74127191 34
13.758479 4.3301139 0.48680308 32
13.75154 3.2507267 0.39297393 48
8.7359867 3.4641137 0.20604405 37
13.756916 4.3296223 0.2310932 27
13.763937 3.2536571 0.14317597 40
8.7454443 3.4678643 0.039736424 41
13.770109 4.3337741 -0.023935784 31
10.591778 2.5037904 -0.082062654 0
8.7410145 3.4661076 -0.12637688 25
13.782813 4.3377724 -0.27945894 46
11.26193 2.6622078 -0.29211783 0
8.7673044 3.4765325 -0.29359359 18
13.806431 4.3452058 -0.53655773 47
9.9250555 2.3461838 -0.43814683 0
8.7239771 3.4593518 -0.45817345 3
9.6235218 3.0287464 -0.55257535 3
9.3331594 2.2062657 -0.58153296 20
8.7188044 3.4573007 -0.62412047 28
9.1560736 2.8816297 -0.69563061 18
9.0500765 2.1393476 -0.72862041 25
8.7405949 3.4659414 -0.79204571 18
9.051796 2.8488111 -0.85559756 14
9.001358 2.127831 -0.88833874 6
8.7781096 3.4808168 -0.96268755 4
8.9564428 2.8188012 -1.0127356 40
8.9457512 2.8154364 -1.1777754 31
9.6009398 3.0216396 -1.4421706 3
8.750494 2.7539842 -1.4784114 4
8.0075798 2.5201721 -1.5013885 4
7.4239006 2.3364747 -1.5307519 5
6.8868999 2.1674678 -1.5479496 5
6.4372721 2.0259595 -1.5665891 11
6.0486712 1.9036578 -1.5839684 6
4.5604744 1.4352875 -1.6447375 6
1.6634133 0.52351493 -0.81287408 6
5.7971292 1.7801075 1.6007798 18
5.7478848 1.7649863 1.1619036 4
5.8734946 1.8035569 0.85956967 14
13.710236 4.2099619 1.2451824 31
13.755093 4.2237363 0.74024433 28
13.757801 4.2245679 0.4857237 33
13.746616 3.1483951 0.39219552 63
8.8233271 3.4276593 0.20753458 14
13.760045 4.2252569 0.2306446 29
13.755125 3.1503439 0.14285205 42
8.8626537 3.4429367 0.04015879 19
13.76944 4.2281418 -0.023882724 30
10.605101 2.4288921 -0.082032494 0
8.9290409 3.4687264 -0.12874208 13
13.793645 4.2355747 -0.2790722 38
10.177164 2.3308814 -0.26355207 0
8.9478836 3.4760466 -0.29882076 16
10.240716 3.144587 -0.39712089 19
9.9334021 2.2750525 -0.43780348 0
8.8484659 3.4374251 -0.46343982 14
9.4878912 2.9134192 -0.5436064 8
9.3483343 2.1410542 -0.58153296 18
8.8952608 3.4556038 -0.63500941 21
9.1263895 2.8024137 -0.691872 21
9.0531301 2.0734434 -0.72768307 22
8.9429169 3.474117 -0.80816197 16
8.9991055 2.7633293 -0.84877288 27
9.0082312 2.0631602 -0.88757396 6
8.9987898 3.4958222 -0.9841888 20
8.9264803 2.7410285 -1.0071594 35
8.9044847 2.7342744 -1.1698005 31
9.6180162 2.9533763 -1.4416033 2
8.7657318 2.6916678 -1.477775 4
8.0475636 2.4711421 -1.5056138 4
7.440032 2.2845891 -1.5307519 5
6.9093418 2.1216314 -1.5496266 5
6.4512591 1.9809694 -1.5665891 8
6.0655236 1.8625227 -1.5849378 6
4.5667672 1.4023039 -1.6434363 6
1.6670276 0.51188934 -0.81287408 6
5.7983003 1.7362649 1.597717 17
5.906796 1.7687533 1.1915014 4
6.0567145 1.8136455 0.88450879 15
13.640037 4.084424 1.236187 36
13.707707 4.1046877 0.73613417 32
13.679727 4.0963092 0.48194584 32
13.744839 3.047158 0.39152834 35
9.0114985 3.4285474 0.21139243 16
13.678097 4.0958209 0.22878611 23
13.765068 3.0516427 0.14273058 39
9.0472307 3.442142 0.040885266 18
13.691329 4.0997834 -0.023697022 28
10.602274 2.3504679 -0.081881702 0
9.1063061 3.4646182 -0.13094603 13
13.769242 4.1231141 -0.27798933 40
10.169765 2.2545829 -0.26294643 0
9.1475601 3.4803138 -0.30467021 16
10.040322 3.0065122 -0.3885265 17
9.9373369 2.2030549 -0.4372884 0
9.0178785 3.4309747 -0.47104681 17
9.5309563 2.8539855 -0.54491895 7
9.3708506 2.0774679 -0.58201718 15
9.0721121 3.4516084 -0.64589828 19
9.1266212 2.7329099 -0.69042635 18
9.0712776 2.0110543 -0.72799551 22
9.1345949 3.4753809 -0.82327092 16
8.9723806 2.6867237 -0.84446257 42
8.9563322 1.9855713 -0.88107294 10
9.1903439 3.4965913 -1.0024445 19
8.899682 2.6649544 -1.002012 41
8.8777323 2.6583819 -1.1638194 16
9.6232271 2.8816156 -1.4393339 2
8.7843094 2.6304069 -1.477775 5
8.0570755 2.4126413 -1.5042053 4
7.4482803 2.2303412 -1.5292081 5
6.9239845 2.0733442 -1.5496266 5
6.4649315 1.9358835 -1.5665891 7
6.085814 1.8223592 -1.5868765 7
4.5691991 1.3682183 -1.6408339 6
1.6879261 0.50543898 -0.82132393 5
5.7954297 1.6914089 1.5936335 16
5.0518851 1.4744037 1.0169502 3
6.2403536 1.8212608 0.90944797 13
13.645267 3.9824009 1.2341111 35
13.66317 3.9876258 0.73222947 26
13.684965 3.9939871 0.48113632 35
13.757957 2.94945 0.39130595 35
9.1963568 3.4255772 0.21516261 15
13.683321 3.9935071 0.22840159 23
13.770393 2.952116 0.14256862 37
9.2434654 3.4431245 0.041662421 16
13.692739 3.9962556 -0.023650596 27
10.622335 2.2772312 -0.081911862 0
9.3139257 3.4693708 -0.13357998 15
13.701714 3.9988751 -0.27605563 45
10.228266 2.1927497 -0.26405677 0
9.343976 3.4805644 -0.31039524 15
9.9915514 2.1420026 -0.43900529 0
9.217576 3.433481 -0.48021418 16
9.5391464 2.7840207 -0.54426271 7
9.3968372 2.0145071 -0.58274347 18
9.2829933 3.4578485 -0.65917748 18
9.1186695 2.6613038 -0.68840247 14
9.0850964 1.9476757 -0.72799551 21
9.3379221 3.4783094 -0.83938718 15
8.9909191 2.6240194 -0.84446257 2
8.9621887 1.9213264 -0.88030815 39
9.4009829 3.5017989 -1.0227288 13
8.8722572 2.5893877 -0.99686468 47
8.8960752 2.596339 -1.1638194 2
9.6317072 2.8110349 -1.4376318 2
8.8062496 2.5701232 -1.4784114 5
8.085062 2.359643 -1.506318 4
7.4938102 2.1870849 -1.5353836 4
6.9533086 2.0293384 -1.5529808 5
6.470808 1.8885195 -1.5647801 9
6.0909371 1.7776533 -1.5849378 7
4.5895324 1.3394651 -1.6447375 7
1.6740122 0.4885641 -0.81287408 5
5.8039522 1.6478245 1.5926126 17
5.0852261 1.4437679 1.0215038 3
6.3907251 1.8144177 0.92939931 20
13.631924 3.8702967 1.2303053 37
13.672819 3.8819077 0.73120195 29
13.694646 3.8881047 0.48046169 34
13.763546 2.8452826 0.39086115 38
9.3790407 3.4155457 0.21884508 4
13.677601 3.8832653 0.22782482 28
13.779912 2.848666 0.14244714 41
13.752344 5.0081625 0.061817843 39
13.694729 3.888128 -0.023604169 29
10.638742 2.1993046 -0.081911862 0
13.758741 5.0104923 -0.19679531 31
10.356664 2.9404042 -0.20822129 7
10.216652 2.1120474 -0.26335019 0
13.768349 5.0139909 -0.45613414 37
10.20537 2.8974497 -0.39326823 0
9.9913292 2.0654674 -0.43831852 0
9.3926592 3.4205053 -0.48801619 2
9.5093498 2.6998396 -0.54141885 11
9.4191723 1.9471877 -0.58322769 18
13.789624 5.021739 -0.97654939 45
9.1033926 2.5845826 -0.68580037 19
9.1069393 1.8826411 -0.72862041 19
13.805056 5.0273585 -1.2375925 26
9.0022478 2.555866 -0.84374422 0
8.9760313 1.8555789 -0.88030815 38
12.313025 4.4840088 -1.3359166 2
8.8450918 2.5112472 -0.99171734 42
9.0026808 2.555989 -1.1752832 3
9.6710997 2.7457626 -1.4404685 2
8.8248529 2.5055013 -1.4784114 5
8.0832024 2.2949362 -1.502797 4
7.4945388 2.1278059 -1.5322958 5
6.9604731 1.9761772 -1.5513036 5
6.4807296 1.8399713 -1.5638757 8
6.0926051 1.7297772 -1.5820297 7
4.6028666 1.3068192 -1.6460387 6
1.6601105 0.47132894 -0.80442423 5
5.7966757 1.6021143 1.5875081 18
5.1519623 1.4239253 1.0328876 4
6.6017866 1.8246349 0.95821786 18
13.639405 3.7697275 1.2285753 36
13.676484 3.7799754 0.72996891 29
13.675217 3.7796252 0.47884262 31
13.763467 2.7452164 0.39030516 35
13.753647 4.9001594 0.32011354 38
13.677393 3.7802265 0.22737622 26
13.775928 2.7477019 0.1422042 38
13.764365 4.9039779 0.061716475 39
13.68684 3.7828379 -0.023544481 29
10.681295 2.1304564 -0.082122974 0
13.770781 4.9062638 -0.19647278 30
10.238991 2.0422359 -0.26355207 0
13.772888 4.9070144 -0.4551385 35
10.017298 2.7686312 -0.38526654 0
10.017262 1.9980105 -0.43883359 0
13.778221 4.9089146 -0.71407962 38
9.4933195 2.6238115 -0.53945005 12
9.436451 1.8821639 -0.58346981 18
13.79427 4.9146323 -0.97442472 42
9.0981426 2.5145903 -0.68406564 18
9.1198606 1.8190178 -0.72862041 30
13.80227 4.9174829 -1.2342349 25
9.0160322 2.4918962 -0.84338504 1
9.0121956 1.7975432 -0.88260257 37
12.359023 4.4032817 -1.3375393 4
8.8547411 2.4473178 -0.99085945 51
9.0776863 2.5089364 -1.1827595 5
9.6938496 2.6792347 -1.4410359 2
8.8192911 2.43752 -1.4745929 5
8.1066179 2.2405479 -1.5042053 4
7.516777 2.0775247 -1.5338397 5
6.9703293 1.9264947 -1.5504651 5
6.504684 1.7977972 -1.5665891 10
6.1120138 1.6892691 -1.5839684 7
4.6118774 1.2746539 -1.6460387 7
1.6738439 0.46262535 -0.80949414 5
5.8226585 1.5656239 1.5915917 17
5.2490082 1.411378 1.0503427 4
7.4100766 1.9924563 1.0734922 4
13.661543 3.6733799 1.2282294 39
13.671678 3.676105 0.72832483 29
13.68969 3.680948 0.47843784 33
13.766592 2.6460435 0.38986036 59
13.764862 4.7961264 0.31958747 38
13.676414 3.6773787 0.22692762 24
13.782991 2.6491957 0.14208272 39
13.771825 4.798552 0.061598212 38
10.900803 2.9310591 -0.018716203 2
10.695909 2.055835 -0.082122974 1
13.770703 4.7981615 -0.195989 31
11.192297 3.0094373 -0.22415501 0
10.225512 1.965421 -0.26284549 0
13.761504 4.7949562 -0.45364502 37
11.26777 3.0297308 -0.4325358 2
10.042742 1.9302912 -0.43934864 0
13.781974 4.8020887 -0.71251923 53
9.4921198 2.5522859 -0.5383563 11
9.4611244 1.8185 -0.58419609 17
13.790554 4.805078 -0.97176886 45
9.1039171 2.4479041 -0.68319827 19
9.1519194 1.7590684 -0.73018259 19
13.806152 4.810513 -1.2315489 26
9.037055 2.4299259 -0.84374422 3
9.0597162 1.7413464 -0.88604426 31
12.389462 4.3168917 -1.3375393 3
8.8447275 2.3782117 -0.98785686 38
9.0758171 2.4403484 -1.1802675 6
9.7008457 2.6084092 -1.4393339 2
8.8666019 2.3840935 -1.4796842 5
8.1144571 2.1818533 -1.502797 4
7.5310974 2.0249968 -1.5338397 5
6.9760551 1.8757545 -1.5487881 5
6.5133133 1.7513303 -1.5656847 11
6.1236577 1.6465579 -1.5839684 7
4.6243162 1.243408 -1.6473399 7
1.6910371 0.454694 -0.81625402 5
5.8558974 1.5308055 1.597717 19
5.2701325 1.3776791 1.0526195 2
7.3893118 1.9316593 1.0685043 5
13.648299 3.5678375 1.2247696 39
13.66609 3.5724881 0.72668076 30
13.680243 3.5761878 0.47722355 34
13.765069 2.5462353 0.38930437 47
13.767727 4.6895967 0.31888604 36
13.678536 3.5757418 0.22654311 23
13.765753 2.5463619 0.1417183 38
13.770912 4.6906819 0.06144616 39
10.83199 2.8316188 -0.018563662 3
10.71 1.9811146 -0.082122974 2
13.78115 4.694169 -0.19566646 32
11.205295 2.9292052 -0.2240003 0
10.250779 1.8961688 -0.26314831 0
13.768152 4.6897421 -0.45277381 39
11.582561 3.0278273 -0.44379744 1
10.036325 1.8564994 -0.43849021 0
13.792473 4.6980257 -0.71134895 42
9.4865217 2.4798963 -0.53704375 8
9.4500322 1.7480483 -0.58274347 16
13.789762 4.6971025 -0.96937865 41
9.0976257 2.3782341 -0.68146354 19
9.1914244 1.7002116 -0.73236972 7
13.801669 4.7011585 -1.2281914 23
8.9574413 2.341588 -0.83476436 11
9.0990582 1.6831259 -0.88872117 32
9.1722746 3.1242828 -0.98783994 25
8.8611145 2.316407 -0.98785686 53
9.0772734 2.3729136 -1.1782738 5
9.7303123 2.5436263 -1.4410359 2
8.8715677 2.3191397 -1.477775 5
8.118063 2.122164 -1.5006843 4
7.5526452 1.9743567 -1.5353836 5
7.0003324 1.829975 -1.5513036 5
6.5216112 1.7048314 -1.5647801 7
6.1462674 1.6067117 -1.5868765 7
4.6219058 1.2082244 -1.6434363 6
1.6836475 0.44012669 -0.81118411 5
5.8664417 1.4898863 1.597717 17
5.275815 1.3398863 1.0518605 3
7.3910985 1.8770999 1.0668417 8
13.738536 3.4891434 1.2306513 34
13.667466 3.4710941 0.72544771 46
13.743622 3.4904354 0.47857276 25
13.751017 2.4444766 0.3884148 75
13.762186 4.5807381 0.31800926 40
13.757437 3.4939437 0.22744031 24
13.77138 2.4480965 0.14159682 42
13.772961 4.5843244 0.061311003 40
10.832109 2.7510052 -0.018530501 3
10.719632 1.9055965 -0.082092814 4
13.77184 4.5839515 -0.19507517 33
10.33007 2.6235032 -0.20613287 0
10.25983 1.8238589 -0.26304737 0
13.774002 4.584671 -0.45190263 40
10.084704 2.5611887 -0.38571107 0
9.9860868 1.7751963 -0.43574321 10
13.783236 4.5877442 -0.70920336 40
9.4919901 2.4106581 -0.5363875 8
9.4541445 1.6806345 -0.5822593 22
13.795709 4.5918961 -0.96751952 46
9.1024065 2.3117168 -0.68059617 20
9.3012257 1.6534507 -0.74018085 4
9.2089014 3.0651789 -0.81756312 11
8.9504023 2.2731125 -0.83260924 10
9.1380291 1.6244397 -0.89139801 34
9.1334505 3.0400653 -0.98134899 13
8.8462334 2.2466569 -0.98442531 40
9.0743847 2.3046 -1.1757816 5
9.732482 2.4717355 -1.4387666 1
8.8913698 2.2581203 -1.4784114 4
8.1555777 2.0712528 -1.5049096 5
7.5548325 1.9186829 -1.5330677 5
7.0015645 1.7781708 -1.5487881 5
6.5522366 1.6640561 -1.5693027 6
6.1498113 1.5618531 -1.5849378 7
4.6412263 1.1787213 -1.6473399 7
1.6831652 0.42746946 -0.80949414 3
5.8579245 1.4442661 1.5926126 17
5.265975 1.2983215 1.0480659 8
7.4001775 1.8245071 1.0662875 7
13.719998 3.3826535 1.2268455 33
13.749544 3.3899381 0.72853035 29
13.759893 3.3924894 0.47830293 32
13.751981 2.3457291 0.38797 70
13.767209 4.475893 0.31739551 37
13.765961 3.3939853 0.22718397 25
13.760536 2.3471882 0.14131339 40
13.76659 4.4756923 0.061142053 40
10.831633 2.6705296 -0.01849734 3
10.752389 1.834077 -0.082243606 7
13.776881 4.4790378 -0.19469889 31
10.317069 2.5436642 -0.20551409 0
10.33144 1.7622741 -0.26456147 0
13.779058 4.4797459 -0.45103142 37
9.9936705 2.4639306 -0.38156205 0
10.010055 1.7074541 -0.43625829 1
13.788331 4.4827604 -0.707838 42
9.4775648 2.3366852 -0.53463745 16
9.5404272 1.6273479 -0.58685923 18
9.4207201 3.0627949 -0.65917748 15
9.1028299 2.2442946 -0.67943966 21
9.399025 1.6032283 -0.74705458 4
9.1770077 2.983561 -0.81286252 6
8.9467134 2.2058041 -0.83081329 11
9.1923218 1.5679703 -0.89560455 36
9.0257826 2.9343958 -0.96755576 33
8.8385344 2.1791327 -0.98185164 37
9.0863991 2.2402437 -1.1752832 5
9.7341232 2.3999393 -1.4364972 1
8.8762445 2.1884301 -1.47332 4
8.1774855 2.0161519 -1.506318 4
7.5680432 1.8658943 -1.5330677 5
7.032795 1.7339293 -1.5529808 5
6.5523453 1.6154748 -1.5665891 7
6.149262 1.516095 -1.5820297 6
4.6493421 1.1462911 -1.6473399 8
1.6720282 0.41223705 -0.80273432 2
5.8603415 1.4015357 1.5905708 17
5.2558126 1.256959 1.0442713 1
7.3896174 1.7672712 1.0629623 9
13.708399 3.2784455 1.2237316 29
13.749564 3.2882905 0.72729725 28
13.752136 3.2889056 0.47722355 31
13.756184 2.2477305 0.38763642 55
13.771439 4.3712039 0.31678176 35
13.769871 3.2931468 0.22686353 26
13.776587 2.2510643 0.14131339 41
13.759376 4.3673749 0.060973108 37
10.822781 2.5883327 -0.018450914 3
10.764931 1.7589664 -0.082243606 9
13.773505 4.3718596 -0.19421509 31
11.268072 2.6948268 -0.22407766 0
10.331652 1.6881696 -0.26425865 0
13.779511 4.3737659 -0.45003575 36
9.9717522 2.3848042 -0.38008028 0
11.473125 1.8746839 -0.49943933 0
13.788827 4.3767228 -0.70627761 38
9.4897633 2.2695334 -0.5344187 14
9.6027813 1.5690736 -0.59000659 15
9.2554693 2.9377863 -0.64616388 9
9.1105156 2.1788342 -0.67886144 19
9.4336014 1.5414301 -0.74892926 2
9.2090111 2.9230397 -0.81386983 4
8.9463968 2.1395843 -0.82937652 15
9.2934246 1.5185254 -0.90439999 31
8.9777765 2.8496435 -0.96025348 34
8.8457966 2.115525 -0.98099375 33
9.0747976 2.1702921 -1.1717943 4
9.7313852 2.3273189 -1.4336605 1
8.8989868 2.1282458 -1.4745929 4
8.1913614 1.9590131 -1.506318 4
7.5847025 1.8139268 -1.5338397 4
7.0371213 1.6829696 -1.5513036 5
6.5445156 1.56516 -1.5620667 5
6.1785679 1.4776415 -1.5868765 7
4.6388383 1.1094059 -1.6408339 7
1.6783915 0.40139735 -0.80442423 3
5.8770428 1.3643874 1.5926126 17
5.2525563 1.2194096 1.0419946 1
7.3780231 1.7128482 1.0596371 16
13.714314 3.1838524 1.2223477 32
13.739941 3.1898019 0.72565317 27
13.758071 3.1940107 0.47668386 31
13.754987 2.1539736 0.38719162 81
13.765751 4.2691107 0.31599265 34
13.768033 3.1963236 0.22647902 27
13.771455 2.1565523 0.14111094 41
13.768936 4.2700982 0.060888633 37
10.800745 2.5074518 -0.018384591 4
10.831683 1.6961966 -0.082665838 6
13.767817 4.2697511 -0.19373131 29
10.272828 2.3848929 -0.20396712 0
10.386078 1.6264164 -0.26536897 8
10.24924 3.1785507 -0.33404204 26
9.9717741 2.3150015 -0.37948754 0
10.020526 1.5691726 -0.43574321 12
13.783207 4.2745242 -0.70452219 27
9.5123873 2.2083523 -0.5348562 14
9.6760902 1.5152353 -0.59388024 17
9.248065 2.8680611 -0.64430481 15
9.1208801 2.1174617 -0.6785723 21
9.4672556 1.4825329 -0.75080395 26
9.2053528 2.8548148 -0.81185526 6
8.9603901 2.0802033 -0.82937652 19
9.3544292 1.4648646 -0.90937132 20
8.9356651 2.771178 -0.95376253 35
8.8518848 2.0550132 -0.98013586 45
9.0541973 2.1019812 -1.1673084 5
9.7620344 2.2663093 -1.4359299 1
8.9167528 2.0700727 -1.4752294 3
8.2003384 1.9037532 -1.5056138 4
7.600389 1.7644715 -1.5346116 4
7.0443177 1.6353767 -1.5504651 5
6.5775251 1.5270082 -1.5674937 6
6.1655502 1.4313661 -1.5810603 6
4.6608315 1.0820374 -1.6460387 6
1.6668905 0.38697767 -0.7976644 3
5.8826513 1.3224764 1.5915917 18
5.2686052 1.184433 1.0435123 4
7.3859363 1.6604292 1.0590829 12
13.736207 3.0880308 1.2223477 35
13.750183 3.0911729 0.72503668 31
13.768332 3.095253 0.47627908 32
13.765736 2.0573022 0.38708043 61
13.77608 4.1671157 0.31555429 36
13.7666 3.0948634 0.2260945 27
13.770351 2.057992 0.14094898 39
13.771611 4.1657639 0.06077037 40
