# .PCD v0.7 - Point Cloud Data file format
VERSION 0.7
FIELDS x y z intensity
SIZE 4 4 4 4
TYPE F F F F
COUNT 1 1 1 1
WIDTH 1389
HEIGHT 1
VIEWPOINT 0 0 0 1 0 0 0
POINTS 1389
DATA ascii
1.6731035 6.1622944 -0.53787929 3
2.1515951 6.1268463 -0.5854845 4
1.717671 3.9466052 -0.41338536 22
0.70276541 2.588392 -0.27343085 1
1.7644123 5.0243111 -0.5743553 16
0.79032826 2.2505255 -0.29955268 1
0.71239036 2.0285907 -0.30806398 3
0.69087136 1.9673138 -0.33603153 16
0.68885529 1.9615728 -0.37182605 18
1.5683274 4.4659429 -0.93095654 0
1.0030278 2.8562052 -0.64903194 0
1.1204188 3.1904857 -1.1632874 0
0.61744481 1.7582256 -0.86864299 29
1.3787811 3.8402233 1.0770553 16
1.9641314 5.4705586 1.1231987 26
3.358624 9.3545418 1.3904966 13
3.8297341 10.666693 0.98396742 2
8.9780636 25.005978 1.366842 49
8.9915762 25.043612 0.89804918 50
1.7265952 3.8926141 0.11842593 19
8.9891977 32.217392 0.73334146 62
8.9874315 25.032068 0.4261702 46
1.7271742 3.8939197 0.043122854 22
8.9966526 32.244114 0.14139205 67
9.0034409 25.076658 -0.044177402 51
1.7255917 3.890352 -0.032089181 21
8.9991465 32.253048 -0.45003286 53
8.978796 25.008017 -0.51390123 82
1.7234699 3.8855681 -0.1072983 19
9.0031214 32.2673 -1.0428234 26
8.9932213 25.048195 -0.9865787 72
1.7321522 3.9051428 -0.18353409 24
6.7687821 24.259398 -1.2295979 1
7.7064676 21.464289 -1.2490916 1
1.735428 3.9125278 -0.2595351 28
5.3910627 19.321634 -1.3348211 1
6.2418485 17.384987 -1.3386407 1
1.7300696 3.9004474 -0.33431554 23
1.7300092 6.2003741 -0.54224414 4
2.2064319 6.1454215 -0.58871722 5
1.7274231 3.8944807 -0.40917885 23
0.73793 2.6447501 -0.2799218 1
1.804821 5.0268426 -0.57607108 14
0.81540859 2.2711008 -0.30304164 1
0.74125314 2.0645609 -0.31430468 2
0.70592344 1.9661595 -0.33666795 16
0.70785499 1.9715394 -0.37464291 21
0.69363296 1.9319278 -0.40372327 0
1.0493761 2.9227543 -0.66580278 0
1.149056 3.2003858 -1.1697935 0
0.6321547 1.7606965 -0.87202293 25
1.4028925 3.8232424 1.0750135 17
2.0103922 5.4788351 1.1277523 28
3.4374948 9.3680563 1.3960387 12
3.8340971 10.4489 0.96632242 0
9.1703072 24.991444 1.3695138 50
9.1868496 25.036524 0.90007299 27
1.7257346 3.8185241 0.11653556 21
9.2160997 32.161541 0.73351681 8
9.1867666 25.036301 0.42732373 8
1.724666 3.8161595 0.04239402 21
10.489788 36.60635 0.1608379 10
1.7197636 3.8053119 -0.031486001 22
9.1696968 24.989779 -0.51482946 69
1.7192647 3.8042083 -0.10538045 19
9.3977766 32.79554 -1.0619898 6
1.7363316 3.8419716 -0.18113045 25
6.9313745 24.188507 -1.2284276 1
7.8286104 21.334976 -1.2447165 1
1.7347468 3.8384652 -0.25541934 28
5.5203233 19.264343 -1.3334932 2
6.3479481 17.299789 -1.3354604 1
1.7293385 3.8264985 -0.32900396 23
1.7787434 6.2073035 -0.5439229 4
2.257515 6.1523085 -0.59087241 4
1.720134 3.8061314 -0.40114823 25
0.75747192 2.6433594 -0.28032747 1
1.8439807 5.025321 -0.57735795 13
0.83261096 2.2690787 -0.30354008 1
0.75155634 2.0481842 -0.31260267 2
0.72643429 1.97972 -0.33985007 16
0.71481955 1.9480671 -0.37112182 20
0.73008758 1.9896762 -0.41684622 0
1.1438564 3.1173027 -0.71192259 0
1.1700677 3.188735 -1.1684923 0
0.64193338 1.7494334 -0.86864299 27
1.4322646 3.8205981 1.0770553 16
2.0513496 5.4720211 1.1292702 26
3.5069838 9.3549576 1.3977013 13
3.8551934 10.283815 0.95352119 0
10.460743 27.904268 1.5330991 16
13.445014 35.86488 1.2926997 19
1.7306135 3.7591665 0.11508998 18
11.744646 39.930614 0.91255593 38
10.150331 27.076235 0.46333992 1
1.7261759 3.7495275 0.041786656 23
10.742833 36.524551 0.16080411 0
10.067373 26.854946 -0.047553219 7
1.7312332 3.7605126 -0.031214571 23
8.2477665 28.041574 -0.39283806 1
1.7190259 3.7339962 -0.10376543 22
8.2479019 28.042034 -0.90990359 0
8.6124411 22.973883 -0.90952539 2
1.7380432 3.7753048 -0.17855513 23
7.0831618 24.082035 -1.2255019 1
7.9717569 21.264841 -1.2438415 1
1.7281084 3.7537251 -0.25057727 28
5.6287751 19.137268 -1.3273848 2
6.4643664 17.243843 -1.3345931 1
1.7293282 3.7563744 -0.32400486 23
1.8276584 6.2138543 -0.54560167 4
2.3060045 6.1513195 -0.59230918 1
1.7216874 3.7397778 -0.39541209 28
0.77703029 2.6418245 -0.28073317 0
1.8859988 5.0309443 -0.57950264 13
0.85261124 2.2743597 -0.30503535 1
0.77834612 2.0762558 -0.3177087 1
0.73330647 1.9561117 -0.33666795 16
0.73669511 1.965151 -0.37534714 20
0.74671566 1.9918809 -0.4183901 0
1.1883174 3.1698635 -1.1645887 1
0.65667623 1.7516986 -0.87202293 28
1.4602852 3.8141179 1.0780762 17
1.6878901 4.4085989 0.91221958 14
1.6912038 4.417254 0.66171896 12
1.6941496 4.4249482 0.41137034 15
10.512462 27.457493 1.5125482 11
13.463506 35.165321 1.2708421 5
1.7313538 3.6926885 0.11342201 20
12.049695 39.935703 0.91457254 41
1.6802841 4.3887329 0.075300753 0
1.7268405 3.6830623 0.041179288 25
11.026444 36.544395 0.16122648 1
1.7005203 4.4415879 -0.0078857429 0
1.7251818 3.6795247 -0.03064155 23
8.3243294 27.588911 -0.38730136 1
8.675477 22.659472 -0.46927136 3
1.7229841 3.6748374 -0.10245322 21
8.2436714 27.32159 -0.8883726 1
8.659709 22.61829 -0.89781922 2
1.7372131 3.7051857 -0.17580813 23
7.2257218 23.947851 -1.2212107 1
8.0857439 21.11915 -1.2385913 0
1.7339326 3.6981888 -0.24767204 27
5.7391815 19.021084 -1.3220731 1
6.5788865 17.18339 -1.3334365 0
1.7284242 3.6864405 -0.31900576 25
1.8767513 6.2200236 -0.54728043 2
2.3503168 6.1387911 -0.59266835 0
1.7190189 3.6663804 -0.3889111 26
1.5725172 5.2117152 -0.55497539 1
1.9296069 5.0399389 -0.58207631 12
0.88833523 2.3202424 -0.31201327 1
0.80414808 2.100354 -0.32224742 1
0.74976867 1.9583203 -0.33794081 16
0.75039643 1.95996 -0.37534714 16
0.75639331 1.9756233 -0.41607428 1
1.2063608 3.1508932 -1.1606849 0
0.67148185 1.7538431 -0.87540287 24
1.4826528 3.7930241 1.0750135 18
1.6843112 4.3089204 0.89400554 11
1.6888297 4.3204799 0.64897233 14
1.6901809 4.3239365 0.40306681 13
1.7219307 4.4051614 0.24332297 14
1.7115833 4.3786898 0.15866974 10
1.7226385 3.6083448 0.11119805 22
12.35775 39.946117 0.9167645 42
1.7108821 4.3768959 0.075300753 13
1.721493 3.6059453 0.040450454 29
11.304946 36.542957 0.16156437 3
1.7052742 4.3625498 -0.0077663623 13
1.7215322 3.6060274 -0.030128848 24
8.4091644 27.182415 -0.38240969 53
1.7282535 4.4213367 -0.091812283 7
1.7193102 3.601373 -0.10073725 35
8.3739491 27.068581 -0.8820253 4
1.733211 4.4340196 -0.17648171 14
1.7389336 3.6424773 -0.17340451 27
7.3809242 23.858654 -1.2192602 1
1.7245356 4.4118252 -0.25944355 16
1.7373465 3.639153 -0.24452469 26
5.8682947 18.969116 -1.3212763 1
1.7226027 4.4068804 -0.34290019 19
1.7386558 3.6418955 -0.31619376 21
1.9319091 6.2448483 -0.55063796 2
1.724494 4.4117188 -0.42708039 0
1.7205572 3.6039851 -0.38355738 30
1.6229759 5.2462296 -0.5598436 1
1.8112719 4.6337199 -0.53660828 10
0.93340993 2.3879132 -0.32198176 1
0.81590849 2.0873129 -0.32111272 1
0.76917273 1.9677504 -0.3404865 14
0.7669282 1.9620084 -0.37675557 15
0.77731162 1.9885719 -0.41993397 1
1.2786604 3.2711565 -0.75301117 2
1.2283286 3.1423945 -1.1606849 0
0.68898916 1.7626194 -0.88216275 23
1.5133961 3.7933576 1.0780762 16
1.6896114 4.235045 0.88110393 13
1.6969317 4.2533932 0.64065927 17
1.6907927 4.2380056 0.39614722 15
1.7156355 4.3002748 0.23818523 22
1.7124826 4.2923717 0.15597127 17
1.7373006 3.5746534 0.11053087 39
12.667745 39.957989 0.91904414 46
1.7176838 4.3054085 0.074275374 14
1.74138 3.5830469 0.040328979 49
11.591213 36.562279 0.16200364 4
1.7090086 4.2836642 -0.0076469821 19
1.7449166 3.5903237 -0.030098688 42
8.5358734 26.924789 -0.37961444 41
1.7279567 4.3311577 -0.090187967 24
1.7409146 3.5820894 -0.10053538 42
8.5566759 26.990406 -0.88140303 6
1.7285748 4.3327069 -0.17292541 25
1.7503453 3.6014941 -0.17203102 46
7.5159154 23.707525 -1.2141889 1
1.7227334 4.3180656 -0.25463092 20
1.7504932 3.6017981 -0.24282996 53
5.9945488 18.908663 -1.3199484 1
1.7193242 4.3095202 -0.33625036 22
1.7431209 3.5866289 -0.31244442 47
1.9850953 6.2616048 -0.55332404 1
1.7463937 4.3773704 -0.42492524 20
1.747416 3.5954669 -0.38393977 56
1.6631694 5.246151 -0.56106061 2
1.7374717 4.3550076 -0.50572437 28
0.97064734 2.4329469 -0.32895967 0
0.84806758 2.1256983 -0.32792076 1
0.78435475 1.9660008 -0.34112293 14
0.78060675 1.9566064 -0.37675557 12
0.78099477 1.957579 -0.4145304 1
1.2971181 3.2512524 -0.75049555 0
1.2530397 3.140769 -1.1632874 0
0.70127767 1.7577664 -0.88216275 24
1.5325508 3.7647891 1.0729717 15
1.6880407 4.1467581 0.86516666 14
1.6952192 4.1643925 0.62902099 16
1.6932935 4.1596618 0.38991958 18
1.7230229 4.2326937 0.23510259 17
1.7137688 4.2099605 0.15340774 14
1.7675325 3.5731895 0.11086446 41
12.978506 39.967468 0.92132378 42
1.7069849 4.1932955 0.072545059 14
1.7681252 3.5743878 0.04036947 48
8.3067827 25.580837 0.11360022 0
1.7207748 4.2271709 -0.007567395 15
1.7717125 3.5816398 -0.030128848 37
8.7248707 26.868345 -0.37966821 26
1.723471 4.2337942 -0.088408962 22
1.7782905 3.5949376 -0.10124195 41
8.2744341 25.481222 -0.83398497 1
1.7316527 4.2538934 -0.17025818 22
1.7736739 3.5856047 -0.17185932 51
7.6565628 23.578478 -1.2102879 1
1.7257313 4.239347 -0.25069335 20
1.7702849 3.5787537 -0.24210365 46
6.1128497 18.824594 -1.317027 1
1.723797 4.2345953 -0.33133528 18
1.7663496 3.5707982 -0.31213197 47
2.0299919 6.2513847 -0.5536598 0
1.7408618 4.276516 -0.41630462 26
1.7654129 3.5689046 -0.38241014 54
1.7071279 5.2571211 -0.56349474 2
1.7408431 4.2764697 -0.49800339 30
1.7372935 4.2677498 -0.57866997 19
0.87035143 2.1380627 -0.33075747 1
0.80103862 1.9677923 -0.34239575 14
0.79276276 1.9474622 -0.37605134 11
0.80056131 1.9666197 -0.41761816 2
1.2519518 3.0754836 -0.71192259 0
1.2777879 3.1389513 -1.1658899 0
0.71353203 1.7528278 -0.88216275 25
1.5662122 3.7718575 1.0780762 19
1.6883335 4.0659585 0.85074717 15
1.6984247 4.0902605 0.61959952 16
1.6917276 4.074132 0.38299999 16
1.7172961 4.1357079 0.23037589 17
1.7170554 4.1351285 0.15111405 19
1.7978282 3.5714769 0.11119805 41
8.4945583 25.550472 0.59033811 38
1.7132113 4.1258707 0.071583778 15
1.7984312 3.5726748 0.040490944 49
8.3413076 25.089514 0.11167421 23
1.7134287 4.1263943 -0.0074082208 15
1.7948753 3.5656109 -0.030098688 39
8.3393669 25.083677 -0.35526365 26
1.7269137 4.1588697 -0.087094039 23
1.8087382 3.5931504 -0.10154477 40
8.3550014 25.130705 -0.8244018 15
1.7275841 4.1604843 -0.16699824 24
1.8022565 3.5802739 -0.17220269 47
7.8159423 23.509289 -1.2095077 1
1.7277153 4.1608 -0.24675575 21
1.8024068 3.5805726 -0.24307206 52
6.2403431 18.7701 -1.3162303 1
1.7227188 4.1487675 -0.32555279 19
1.8019934 3.5797513 -0.31400663 45
2.0723274 6.2332783 -0.55332404 0
1.7385919 4.1869936 -0.40876156 36
1.8046075 3.5849445 -0.38546941 55
1.7475538 5.2564034 -0.56471181 3
1.7447289 4.2017736 -0.49071136 30
1.7350833 4.178544 -0.56820309 22
0.87007207 2.095366 -0.32508409 1
0.81627113 1.9657991 -0.34303218 11
0.81388909 1.9600624 -0.37957242 12
0.81427127 1.9609828 -0.41761816 2
1.3168883 3.1714191 -0.73624033 0
1.3011212 3.1334476 -1.167191 0
0.72714186 1.7511519 -0.88385272 24
1.5925065 3.7608314 1.0780762 19
1.6875817 3.985359 0.83632773 15
1.6945008 4.001699 0.60796124 18
1.6890519 3.9888308 0.37608036 15
1.7149738 4.0500474 0.2262657 18
1.7209408 4.0641394 0.14895527 19
1.8318315 3.5766332 0.11175404 38
8.574831 25.202816 0.58367461 30
1.7139022 4.0475173 0.070430234 13
1.8269757 3.5671525 0.040571924 45
8.5330105 25.079897 0.11189385 41
1.7063215 4.0296144 -0.0072556795 15
1.8270174 3.5672338 -0.030219324 32
8.5336037 25.081642 -0.35606995 42
1.7309554 4.0877895 -0.085856475 22
1.8392475 3.5911129 -0.10184758 38
8.5263796 25.06041 -0.82402843 47
1.7316493 4.0894279 -0.16462736 24
1.8272073 3.5676048 -0.17220269 44
7.9579992 23.389849 -1.2061919 1
1.7271308 4.0787573 -0.2425994 21
1.8310001 3.5750101 -0.24355628 49
6.368659 18.718519 -1.3156991 1
1.7345288 4.0962281 -0.32237244 20
1.8305764 3.5741827 -0.31463152 40
5.2933345 15.557966 -1.3843173 2
1.736712 4.1013842 -0.40157771 35
1.829591 3.5722589 -0.38546941 48
1.7867713 5.2516098 -0.56552315 3
1.7414551 4.1125855 -0.48170352 29
1.7363567 4.1005449 -0.55923146 22
0.91864598 2.1694558 -0.33756551 1
0.82689548 1.9527798 -0.34175932 9
0.83062381 1.9615844 -0.38098085 15
0.83559358 1.973321 -0.42147782 2
1.3252714 3.1297343 -0.72869343 0
1.2695882 2.998234 -0.81331056 18
1.3318143 3.1451857 -1.1749984 0
0.74217683 1.7527099 -0.88723266 22
1.6217886 3.7567232 1.0801181 16
1.6935712 3.9230008 0.82570291 15
1.6957047 3.927943 0.59853977 17
1.6947454 3.9257209 0.37123665 17
1.7178738 3.9792955 0.22297755 17
1.720751 3.9859605 0.14652665 16
1.8622987 3.5743957 0.11208764 37
8.7006187 24.998819 0.58034283 52
1.7167543 3.9767027 0.069404863 15
1.8629231 3.5755939 0.040814873 46
8.7092056 25.023493 0.11191074 56
1.7090453 3.9588454 -0.0071495632 14
1.8648139 3.5792232 -0.030430436 37
8.7163849 25.044121 -0.3563925 45
1.7261641 3.9984994 -0.084232159 21
1.8698161 3.588824 -0.1021504 39
8.723465 25.064465 -0.82614422 47
1.7332234 4.0148516 -0.1621083 23
1.861302 3.5724826 -0.17306113 46
8.1000843 23.273352 -1.2030711 1
1.7286522 4.0042629 -0.23888056 20
1.8669825 3.5833852 -0.2450089 47
6.4795036 18.617062 -1.3117154 1
1.7267146 3.9997747 -0.31572261 21
1.8610119 3.5719256 -0.31556886 41
5.4175415 15.565806 -1.3883464 1
1.7384598 4.0269814 -0.39547142 37
1.8673636 3.5841169 -0.38814628 49
1.840395 5.2878656 -0.57079703 2
1.7417513 4.0346055 -0.47398254 28
1.7350538 4.0190916 -0.54976141 23
0.96986437 2.2466011 -0.35061425 1
0.85302973 1.9759644 -0.34685072 6
0.84429789 1.9557378 -0.38098085 18
0.83846033 1.9422158 -0.41607428 5
1.8973951 4.3951402 -1.026376 0
1.3612349 3.1531746 -1.1815045 0
0.75583178 1.7508143 -0.88892257 23
1.6339571 3.7134497 1.0709299 14
1.7019366 3.867945 0.81659591 15
1.6943672 3.8507421 0.58856416 16
1.6996413 3.8627286 0.36639294 17
1.7134352 3.8940773 0.21886736 17
1.7147247 3.8970082 0.14369325 20
1.8853348 3.5577745 0.11197644 36
8.9030876 25.016588 0.58218408 58
1.7122593 3.8914049 0.068123147 14
1.8934585 3.5731044 0.040936343 44
8.910512 25.037449 0.11224864 69
1.7108656 3.8882375 -0.0070434473 18
1.8972474 3.5802546 -0.030551072 35
8.911128 25.039181 -0.3571988 47
1.7314869 3.9351032 -0.083149284 22
1.8966973 3.5792162 -0.10225134 39
8.9250441 25.078285 -0.82863331 51
1.7322321 3.9367967 -0.15944108 26
1.8918105 3.5699944 -0.17357619 41
8.2382517 23.148483 -1.1995602 1
1.726002 3.9226375 -0.23472422 22
1.897562 3.5808482 -0.24573521 48
6.5932584 18.526251 -1.3085284 1
1.7288878 3.9291961 -0.31109664 21
1.8915046 3.5694172 -0.31650621 41
5.5033598 15.463769 -1.3826386 2
1.7360457 3.9454637 -0.38864675 43
1.8830178 3.5534019 -0.38623425 46
1.8812687 5.2861357 -0.57201409 3
1.7346382 3.942265 -0.46454579 27
1.7326995 3.9378588 -0.54029137 24
1.022203 2.3231328 -0.36366299 0
0.86203223 1.9591171 -0.34494147 2
0.85158747 1.9353796 -0.37816399 20
0.85674119 1.9470923 -0.4183901 16
1.9264573 4.3782072 -1.0255375 0
1.2369719 2.8112323 -1.0565877 0
0.77679712 1.7654055 -0.8990624 21
1.6598418 3.7019522 1.0709299 16
1.6919422 3.7735457 0.79914075 16
1.6985188 3.7882135 0.5808053 18
1.6988502 3.7889528 0.36051127 19
1.7209668 3.8382797 0.21640125 17
1.7189908 3.8338726 0.14180434 18
1.9234046 3.5691645 0.11275482 36
9.0966568 25.006437 0.58341157 62
1.7164763 3.8282645 0.067225948 15
1.9240495 3.5703614 0.041057818 46
9.1028633 25.0235 0.11246826 69
1.7134212 3.8214507 -0.0069439635 16
1.9297861 3.5810065 -0.030671708 39
9.113061 25.051533 -0.35827389 53
1.7327375 3.864532 -0.081911713 24
1.9311233 3.5834877 -0.10275604 37
8.4424915 23.208157 -0.76876962 6
1.7351428 3.8698964 -0.15721838 25
1.9204792 3.5637362 -0.17391957 44
8.392828 23.071632 -1.1985849 1
1.7271998 3.8521812 -0.23122413 20
1.9225147 3.5675132 -0.24573521 48
6.7087893 18.442263 -1.3058726 1
1.7285284 3.8551443 -0.30618155 23
1.9239447 3.5701671 -0.31775597 41
5.5975556 15.387513 -1.379281 2
1.742359 3.8859909 -0.38397726 34
1.930446 3.582231 -0.39082316 48
1.9276493 5.2990503 -0.5748539 3
1.74422 3.8901412 -0.45982742 29
1.7374159 3.8749661 -0.53331339 24
1.7171611 3.8297915 -0.60137719 7
0.90153885 2.0107059 -0.35512424 0
0.87474376 1.9509448 -0.38238928 18
0.86870766 1.9374825 -0.41761816 21
2.0596023 4.5935402 -1.1686103 0
1.1683604 2.605799 -0.98241836 0
0.78761959 1.7566314 -0.89737242 22
1.6808249 3.6797209 1.0678672 15
1.6986638 3.7187743 0.79003376 16
1.6985891 3.7186108 0.57193804 19
1.7004247 3.7226293 0.35532156 18
1.7161856 3.7571335 0.21249658 19
1.725782 3.7781425 0.14018525 19
1.954039 3.5661695 0.11308842 35
1.7115874 3.747067 0.066008314 13
1.9623826 3.5813966 0.041341253 47
1.7134668 3.7511814 -0.0068378476 18
1.9585832 3.5744627 -0.030732026 33
1.7330884 3.7941377 -0.080674142 24
1.9522504 3.5629053 -0.10255416 39
8.4942646 22.852596 -0.75893754 2
1.7388659 3.8067861 -0.15514387 28
1.9568337 3.57127 -0.17494969 42
8.5244608 22.933836 -1.1944889 1
1.7225211 3.7710032 -0.22706778 23
1.9569664 3.5715122 -0.24694572 49
6.8095655 18.320156 -1.3005608 2
1.7205904 3.7667766 -0.30010995 22
1.9545709 3.5671401 -0.31869331 43
5.6923451 15.314435 -1.3762592 1
1.7363409 3.8012583 -0.37679338 41
1.953494 3.5651746 -0.39044076 48
1.9812337 5.330224 -0.57972211 3
1.7399406 3.809139 -0.4516775 31
1.7363927 3.8013718 -0.52484024 26
1.7274045 3.7816944 -0.59570384 23
1.6686713 3.6531136 -0.64724255 0
0.88997847 1.948372 -0.38309351 18
0.88058186 1.9278005 -0.41684622 22
2.2847795 5.0019193 -1.3736128 0
1.128376 2.4702804 -0.93427336 0
0.80438292 1.7609832 -0.90244234 21
1.7015786 3.6573765 1.0648044 19
1.6980778 3.6498518 0.77789104 17
1.6977718 3.6491942 0.56307077 18
1.6994761 3.6528575 0.34978589 20
1.7238374 3.7052195 0.21023597 18
1.7268211 3.7116327 0.13816141 18
1.9866711 3.5664134 0.11353321 34
10.388838 27.363195 0.64171761 1
1.7191471 3.6951382 0.06530337 17
1.9931766 3.5780919 0.041462727 45
10.723465 28.244572 0.12760594 1
1.7244273 3.7064874 -0.0067781573 17
1.9951687 3.5816681 -0.03091298 35
8.6896591 22.887722 -0.32903144 0
1.7359161 3.7311819 -0.079591267 24
1.9848602 3.5631626 -0.10295791 39
8.5826426 22.60585 -0.75271469 2
1.7333629 3.7256937 -0.15232846 28
1.9875524 3.5679955 -0.17546476 44
8.6843596 22.873766 -1.1944889 1
1.7319577 3.7226734 -0.22488023 21
1.9857385 3.5647392 -0.24742994 49
6.9259639 18.242321 -1.2984362 2
1.7249677 3.7076492 -0.29635134 29
1.9891292 3.5708261 -0.32025552 42
5.7878017 15.244512 -1.3735732 1
1.7443507 3.749311 -0.37284228 30
1.9957746 3.5827558 -0.39388245 47
2.0141597 5.3051019 -0.57850504 4
1.7430047 3.7464178 -0.44567227 29
1.732754 3.724385 -0.5158686 27
1.7220285 3.7013314 -0.5849244 23
1.6841391 3.6198919 -0.64342403 1
0.91186368 1.9599615 -0.38661459 16
0.91223031 1.9607497 -0.42533752 18
0.93379587 2.0071027 -0.47461507 1
2.1859944 4.6985812 -1.2029812 0
1.1216612 2.4109008 -0.91475511 0
0.81359857 1.7487504 -0.8990624 21
1.6972647 3.5824964 1.0464281 18
1.6949317 3.5775721 0.76498944 22
1.6977654 3.5835531 0.55475771 28
1.7010499 3.590486 0.34494218 31
1.7222971 3.6353335 0.20694782 20
1.7167469 3.6236186 0.13532802 21
2.0134909 3.5559363 0.11364441 37
1.7158085 4.4259095 0.10407417 0
1.7157917 3.6216023 0.064213917 17
2.0220494 3.5710514 0.041543707 43
1.7176514 4.4306631 0.020070948 6
1.7177219 3.6256766 -0.0066521447 21
2.0240662 3.5746131 -0.030973298 35
1.716066 4.4265738 -0.063806616 9
1.7259645 3.6430748 -0.077966958 26
2.0313606 3.5874951 -0.10406824 37
1.7067189 4.402463 -0.14698347 14
1.7336594 3.6593165 -0.15010577 29
2.0242276 3.5748982 -0.17649488 43
1.7339641 3.6599596 -0.22181767 22
2.0322168 3.5890071 -0.25009307 46
1.7167617 4.4283686 -0.316044 0
1.7337286 3.6594627 -0.29346013 23
2.0199044 3.5672629 -0.32119286 41
1.7202494 4.4373651 -0.4008913 6
1.7414868 3.675838 -0.36673599 28
2.0207381 3.5687356 -0.39388245 47
1.7203169 4.4375386 -0.48519778 19
1.7384682 3.6694665 -0.4379513 31
1.7332242 3.6583979 -0.50839221 26
1.7223973 3.6355453 -0.57641435 22
1.7144417 3.6187525 -0.64533329 1
0.92721027 1.9571064 -0.38731879 15
0.91749465 1.9365991 -0.42147782 13
0.94276166 1.9899313 -0.47209945 1
2.2604489 4.7712359 -1.2255937 0
1.112554 2.34832 -0.89393562 0
0.82733947 1.7463044 -0.90075237 21
1.7239139 3.5740435 1.047449 28
1.7164538 3.5585773 0.7634716 33
1.7296257 3.5858853 0.55697453 36
1.7260745 3.5785229 0.34494218 35
1.7302794 3.5872409 0.20489274 31
1.7385287 3.6043434 0.13505818 38
2.0482388 3.5591209 0.1142004 37
1.7245926 4.3580461 0.10275899 17
1.7375579 3.6023307 0.064085744 28
2.0549107 3.5707142 0.041705672 41
1.7205762 4.3478966 0.019749949 18
1.7360408 3.5991852 -0.0066256155 33
2.0529625 3.5673292 -0.031033617 32
1.7130777 4.3289475 -0.062570266 15
1.7305062 3.5877109 -0.07703878 32
2.0583506 3.5766916 -0.10416918 41
1.7065183 4.3123722 -0.14436989 17
1.7348515 3.5967195 -0.14803126 41
2.0551157 3.5710707 -0.17700996 44
1.7273654 4.3650527 -0.22918426 14
1.742121 3.6117907 -0.21963012 43
2.0612059 3.5816531 -0.25057727 46
1.7241378 4.3568964 -0.31179467 15
1.7332355 3.5933692 -0.28912327 54
2.0626607 3.5841813 -0.32400486 39
1.7174529 4.340004 -0.39316896 38
1.7463371 3.6205316 -0.36242568 26
2.0575192 3.5752473 -0.3961769 48
1.7205051 4.3477168 -0.4766784 20
1.7415823 3.6106741 -0.43237504 32
1.743204 3.6140361 -0.50390643 38
1.7356945 3.5984674 -0.57244301 45
1.7448102 3.6173663 -0.64724255 0
0.94427204 1.9576787 -0.38872725 13
0.93440241 1.9372169 -0.4230217 11
0.92944413 1.9269373 -0.45868275 1
2.2513838 4.6676021 -1.2029812 0
0.84423584 1.7502822 -0.90582228 21
1.7471188 3.5584497 1.0464281 25
1.7395246 3.5429821 0.76271272 32
1.7581096 3.5808351 0.55808294 30
1.756284 3.577117 0.34598011 32
1.7482387 3.5607307 0.2040707 34
1.7566019 3.5777645 0.13451847 33
2.0831285 3.5619926 0.11475639 37
1.7295192 4.2828617 0.10126846 17
1.7520887 3.568572 0.063701227 27
2.0818079 3.5597343 0.041746162 45
1.7239283 4.2690167 0.019445842 18
1.7575997 3.5797966 -0.0066123512 29
2.0899322 3.5736265 -0.031214571 36
1.7103093 4.2352915 -0.061387666 15
1.7502232 3.5647726 -0.076806739 47
2.0974009 3.5863972 -0.10487576 37
1.7081386 4.2299166 -0.14200521 18
1.7563957 3.5773444 -0.14773491 49
2.0900831 3.5738845 -0.17786838 43
1.7323649 4.2899089 -0.2258684 18
1.7620128 3.5887849 -0.21897385 42
2.0962381 3.5844092 -0.25178781 49
1.7186452 4.2559342 -0.30542067 21
1.7565213 3.5776005 -0.28883415 47
2.0936718 3.5800209 -0.3249422 38
1.7238299 4.2687731 -0.38779688 19
1.7592803 3.5832195 -0.35991132 54
2.0964992 3.5848553 -0.39885378 48
1.7195245 4.258112 -0.46815905 22
1.7562307 3.5770085 -0.42980137 59
1.7631447 3.5910904 -0.50241113 44
1.7590293 3.5827084 -0.57187569 42
1.0947332 2.2297013 -0.40031028 0
0.95444542 1.9439696 -0.38731879 9
0.94790399 1.9306463 -0.4230217 23
0.94976896 1.9344449 -0.46203694 5
2.2839148 4.6517706 -1.2029812 0
0.85483676 1.7410914 -0.90413231 21
1.7788335 3.5600047 1.0505117 27
1.7747493 3.551831 0.76726621 30
1.7866067 3.5755613 0.55919135 33
1.7883389 3.5790279 0.34736404 34
1.7730545 3.548439 0.2040707 31
1.7851102 3.5725663 0.13478832 35
2.1222429 3.5714245 0.11553477 38
1.7243418 4.1856399 0.099251859 18
1.7858974 3.5741417 0.064021662 26
2.1249979 3.5760605 0.042110581 39
1.723217 4.18291 0.019107947 21
1.7861242 3.5745957 -0.0066256155 30
2.1250463 3.5761423 -0.031365365 36
1.7139359 4.1603808 -0.060473837 15
1.78043 3.5631995 -0.07703878 44
2.1285155 3.5819802 -0.10517857 39
1.7071692 4.1439552 -0.13951607 20
1.7813272 3.5649955 -0.14773491 47
2.1231484 3.5729485 -0.17855513 46
1.7303134 4.2001352 -0.22177234 20
1.7923797 3.5871148 -0.21963012 42
2.1314089 3.5868495 -0.25299832 47
1.7239908 4.1847878 -0.30117133 22
1.7957206 3.593801 -0.29114714 43
2.1287994 3.5824583 -0.32650441 40
1.7292972 4.1976686 -0.3824248 20
1.7895949 3.5815415 -0.36098891 46
2.129611 3.5838237 -0.40038341 45
1.72041 4.176096 -0.46045107 21
1.790048 3.5824485 -0.4319461 55
1.789946 3.5822442 -0.50290954 43
1.7910775 3.5845087 -0.57414502 35
1.7810255 3.5643916 -0.64215118 18
0.96975344 1.9407812 -0.38802302 4
0.96662205 1.9345144 -0.42533752 22
0.96325064 1.9277672 -0.46203694 11
2.3755488 4.7542195 -1.2337341 0
1.2593318 2.5203187 -0.70377052 0
0.88155538 1.7642694 -0.91934198 20
1.8141602 3.5681844 1.0566372 27
1.8084019 3.5568588 0.77106082 33
1.811525 3.5630014 0.55919135 30
1.8186994 3.5771122 0.34840196 33
1.8122673 3.5644615 0.20571476 32
1.8172549 3.5742712 0.13532802 37
2.1574574 3.5736365 0.11609077 36
1.7287359 4.1145101 0.097849004 20
1.8162438 3.5722823 0.064213917 26
2.1643825 3.5851073 0.04239402 38
1.7213888 4.097024 0.018770054 21
1.8164743 3.572736 -0.0066455123 29
2.1582301 3.5749166 -0.031486001 37
1.7196995 4.0930033 -0.05966752 15
1.8088871 3.5578129 -0.077193476 45
2.1576042 3.5738797 -0.10538045 39
1.7097301 4.0692749 -0.1374003 19
1.8170416 3.5738516 -0.14862397 48
2.1583679 3.5751448 -0.17941357 44
1.7286421 4.1142869 -0.21787134 18
1.822809 3.5851951 -0.22028638 42
2.1584616 3.5753 -0.25324041 46
1.7237898 4.1027384 -0.29612526 22
1.822574 3.584733 -0.29143625 41
2.1558192 3.5709231 -0.32681686 40
1.723049 4.100975 -0.37470242 19
1.8199714 3.5796142 -0.36206648 45
2.1648684 3.5859122 -0.40229547 44
1.7217766 4.0979466 -0.45314875 23
1.8222239 3.5840445 -0.43366188 54
1.820307 3.5802743 -0.50440484 43
1.8124691 3.5648582 -0.57301033 45
1.8183943 3.5765121 -0.64660615 43
1.0118315 1.9901226 -0.39929047 1
0.98721886 1.9417132 -0.42842528 19
0.98377568 1.9349411 -0.4653911 21
1.2716197 2.5010877 -0.70086241 5
0.8905645 1.7516085 -0.91596204 21
1.8425803 3.5623031 1.058679 27
1.8404064 3.5581002 0.77409649 30
1.8418151 3.5608237 0.56085396 33
1.8472897 3.5714078 0.34909391 31
1.8352724 3.5481746 0.20550926 30
1.845837 3.5685992 0.13559787 33
2.1886241 3.5687129 0.11642436 38
1.7227737 4.0214705 0.095920086 22
1.8448135 3.5666206 0.064342089 27
2.1914492 3.5733197 0.04243451 35
1.7247475 4.0260777 0.018499738 25
1.8505608 3.5777321 -0.0066786739 30
2.1998637 3.5870402 -0.031727273 34
1.7151572 4.0036912 -0.058538675 16
1.8410306 3.5593069 -0.077502869 43
2.184592 3.5621386 -0.10548139 34
1.7129073 3.9984393 -0.135409 18
1.8492931 3.5752809 -0.1492167 48
2.1916311 3.573616 -0.18010032 41
1.7337239 4.0470314 -0.21494558 20
1.8532988 3.5830252 -0.22094265 40
2.1917183 3.5737584 -0.25420883 47
1.7272435 4.0319042 -0.29187593 22
1.8567202 3.5896401 -0.29288188 43
2.1911199 3.5727828 -0.32837909 41
1.7280934 4.0338883 -0.3696661 19
1.8467475 3.5703595 -0.36242568 51
2.2002575 3.5876825 -0.40420753 41
1.7252715 4.0273008 -0.44665781 23
1.8526819 3.5818326 -0.43494868 56
1.8543744 3.5851049 -0.50689697 44
1.8464079 3.5697031 -0.57584703 35
1.8469473 3.5707457 -0.64787894 65
1.8813552 3.6372674 -0.73238462 0
1.0025536 1.9382601 -0.42919722 18
0.99366635 1.9210781 -0.463714 19
1.2979641 2.5093839 -0.70570928 6
1.0860913 2.0997653 -0.8132602 0
0.90776819 1.7550092 -0.92103195 19
1.8746078 3.5630434 1.0627626 28
1.8688591 3.5521166 0.77561432 33
1.8721627 3.5583961 0.56251657 32
1.8833104 3.5795844 0.35116979 33
1.8692983 3.5529518 0.2065368 32
1.8762895 3.5662396 0.13600263 35
2.2177134 3.5601346 0.11664676 36
1.7316023 3.9653673 0.094867945 21
1.8827034 3.5784307 0.064790688 28
2.2205718 3.5647235 0.04251549 36
1.7272007 3.9552877 0.018229421 26
1.8829426 3.5788851 -0.0067052026 29
2.2311969 3.5817802 -0.031817753 32
1.7174566 3.9329739 -0.057678603 17
1.8676963 3.5499067 -0.077580214 44
2.2263212 3.5739532 -0.10628891 39
1.7103801 3.9167686 -0.13304432 18
1.8797914 3.5728958 -0.14966124 46
2.2249782 3.5717971 -0.18078707 43
1.7331557 3.968925 -0.21143466 19
1.887566 3.5876727 -0.22203642 40
2.2292807 3.5787039 -0.25566146 46
1.7234048 3.9465952 -0.28656426 20
1.8798776 3.5730596 -0.29259273 44
2.2307687 3.5810926 -0.3305662 40
1.7211206 3.9413645 -0.3622795 19
1.8753381 3.5644314 -0.36314407 47
2.2252507 3.5722346 -0.40420753 42
1.71831 3.9349279 -0.43773279 23
1.881346 3.5758505 -0.43580657 57
1.8775098 3.5685594 -0.50639856 38
1.8805021 3.5742466 -0.57868373 44
1.8791853 3.5717437 -0.65042466 69
1.1000204 2.0907948 -0.42252961 0
1.0197155 1.9381605 -0.43074107 17
1.0106958 1.9210168 -0.4653911 18
1.3407482 2.5483432 -0.71928066 0
1.1165742 2.1222584 -0.8249712 0
0.91999823 1.748629 -0.92103195 19
1.9012613 3.5532794 1.0637835 26
1.901023 3.5528343 0.77864999 32
1.9100416 3.569689 0.566396 31
1.9138945 3.5768898 0.35220775 32
1.9034801 3.5574262 0.20756435 30
1.9030266 3.5565786 0.13613756 36
2.2596157 3.5715973 0.11753634 35
1.7283509 3.8837638 0.093202055 22
1.9114132 3.5722525 0.064918861 26
2.2560964 3.5660348 0.042717945 34
1.7206193 3.8663902 0.017874632 24
1.9173174 3.5832868 -0.0067383638 29
2.2647018 3.5796368 -0.031938389 35
1.7188532 3.8624215 -0.05681853 16
1.9037541 3.5579383 -0.078044303 44
2.2619073 3.5752196 -0.1067936 35
1.711674 3.8462889 -0.131053 18
1.9160041 3.5808322 -0.15055031 48
2.2584062 3.5696857 -0.18147382 41
1.7267098 3.8800759 -0.20733862 22
1.9144506 3.5779293 -0.22225517 38
2.2670183 3.5832982 -0.25711408 45
1.7265743 3.8797715 -0.28258052 24
1.914187 3.5774364 -0.29403836 45
2.2578468 3.5688016 -0.33087865 38
1.7161829 3.8564212 -0.35556442 17
1.9039354 3.5582771 -0.36386245 48
2.2650366 3.5801659 -0.4068844 43
1.719852 3.8646657 -0.43124184 21
1.9118925 3.5731485 -0.43709341 56
1.9117391 3.5728617 -0.50889063 36
1.9091449 3.5680132 -0.57981837 33
1.9133902 3.5759473 -0.65360677 58
1.157316 2.1629152 -0.43872657 1
1.0313698 1.9275337 -0.42996916 16
1.0296178 1.9242594 -0.46790671 13
0.99816781 1.8654822 -0.49114197 0
1.1135181 2.0810611 -0.81195903 0
0.93218338 1.7421635 -0.92103195 19
1.9352633 3.556906 1.0688881 29
1.9314108 3.5498252 0.7809267 31
1.9443822 3.5736661 0.56916702 30
1.9388191 3.5634413 0.35220775 33
1.9416333 3.5686138 0.20900291 31
1.9469156 3.5783224 0.13748679 35
2.2931397 3.569191 0.11798114 37
1.7290001 3.8133285 0.0917992 24
1.9458628 3.5763874 0.065239288 25
2.2960708 3.5737531 0.043001384 42
1.7327037 3.821497 0.017722579 25
1.9556683 3.5944095 -0.0067847897 29
2.2982852 3.5771999 -0.032059025 36
1.7176982 3.7884021 -0.055904705 18
1.9323692 3.5515871 -0.078198999 41
2.3019414 3.5828907 -0.10750017 36
1.7170213 3.7869093 -0.12943506 18
1.9390457 3.5638578 -0.15040213 47
2.2919123 3.5672805 -0.18216057 41
1.7273585 3.8097079 -0.20421781 21
1.9508355 3.5855267 -0.22356771 39
2.2984531 3.5774612 -0.25784039 40
1.7255995 3.8058286 -0.27806559 22
1.9448354 3.5744991 -0.29490572 40
2.2913284 3.5663719 -0.33212841 43
1.7200205 3.793524 -0.35086384 21
1.9420581 3.5693946 -0.36637679 44
2.3050411 3.5877151 -0.40956125 39
1.7221414 3.7982016 -0.42515656 19
1.9367911 3.5597141 -0.43709341 54
1.9499131 3.5838315 -0.51237965 42
1.9396849 3.5650327 -0.58152038 43
1.9401956 3.5659714 -0.65424323 55
1.9458247 3.5763173 -0.72815937 19
1.0504286 1.9306294 -0.43228495 12
1.046765 1.9238956 -0.46958381 16
1.0390997 1.9098073 -0.50470942 2
0.9477886 1.7419826 -0.92441189 19
1.969408 3.56023 1.0739926 28
1.961849 3.5465648 0.78320348 32
1.9788711 3.5773368 0.57193804 37
1.9810096 3.5812027 0.35532156 32
1.9664993 3.5549717 0.20900291 29
1.9795898 3.5786362 0.13802649 32
2.3223708 3.559793 0.11820353 34
1.7337819 3.7539685 0.09065938 21
1.970783 3.5627155 0.065239288 24
2.3275206 3.5676868 0.043122854 34
1.7308286 3.7475741 0.017435368 26
1.9865227 3.5911694 -0.0068046865 29
2.3363159 3.5811682 -0.032239977 35
1.7189487 3.7218518 -0.055098385 18
1.9706674 3.5625064 -0.07874044 39
2.3465626 3.5968747 -0.10840863 33
1.7149189 3.7131264 -0.12731931 19
1.9774225 3.5747182 -0.15143938 43
2.3320456 3.5746226 -0.18336239 43
1.7304604 3.7467766 -0.20148709 24
1.9816191 3.5823047 -0.22422397 39
2.3342803 3.578048 -0.25905091 40
1.7270249 3.7393382 -0.27408186 26
1.9736049 3.567817 -0.29548398 44
2.3336015 3.5770075 -0.33462799 37
1.7230645 3.7307634 -0.34616327 18
1.9707865 3.5627217 -0.36709517 45
2.3343828 3.5782053 -0.41032609 40
1.7235879 3.7318964 -0.41907132 22
1.9750704 3.570466 -0.44009602 51
1.9729642 3.5666585 -0.51188117 36
1.9798588 3.5791223 -0.58605909 36
1.9746009 3.5696173 -0.65742534 60
1.9783682 3.5764277 -0.73097622 43
1.0847789 1.961027 -0.44077626 4
1.0582774 1.9131185 -0.46874526 19
1.0580653 1.912735 -0.50742292 6
0.9616816 1.7384958 -0.92610186 19
1.9999018 3.5565073 1.0770553 32
1.9942605 3.5464754 0.78623915 33
2.005739 3.5668879 0.57249224 29
2.0118222 3.5777059 0.35635951 31
1.9991015 3.5550842 0.20982495 29
2.0104032 3.5751827 0.13843125 34
2.3604145 3.5634937 0.11887072 38
1.7310117 3.6802542 0.089168854 22
2.0112898 3.5767591 0.065751977 26
2.3678324 3.5746927 0.043406293 36
1.7314122 3.6811056 0.017181948 26
2.0095847 3.5737267 -0.0067980541 31
2.3656776 3.5714397 -0.032300297 33
1.7159503 3.6482325 -0.05418456 19
2.0013707 3.5591197 -0.078972481 43
2.3738244 3.5837388 -0.10850957 37
1.7118711 3.63956 -0.12520353 20
2.008208 3.5712786 -0.15188393 43
2.3635647 3.5682499 -0.18387745 42
1.7327689 3.6839902 -0.1987564 24
2.0144105 3.582309 -0.225099 39
2.372432 3.5816364 -0.26050353 36
1.7310045 3.6802387 -0.27062926 23
2.0082419 3.5713389 -0.2969296 40
2.3717296 3.5805764 -0.33650264 40
1.7287103 3.6753612 -0.34213421 21
2.0034213 3.5627663 -0.36853194 48
2.3768966 3.5883768 -0.41338536 38
1.7258872 3.6693592 -0.41339174 24
2.0135934 3.5808558 -0.44309863 52
2.0114331 3.5770137 -0.51537019 37
2.0125604 3.5790184 -0.58832842 37
2.0033443 3.5626292 -0.65869814 59
2.0148678 3.583122 -0.73520148 48
1.1157564 1.9841952 -0.44772372 0
1.0735247 1.909093 -0.46958381 18
1.0675733 1.8985094 -0.50561392 14
0.98090309 1.7443802 -0.93286175 20
2.0266011 3.5458167 1.0780762 35
2.0228686 3.5392861 0.78775698 31
2.0384541 3.5665553 0.57470906 31
2.0466373 3.5808725 0.35808942 30
2.0357652 3.5618505 0.21105801 29
2.0452321 3.5784142 0.13910587 32
2.4075472 3.5801084 0.1199827 37
1.7272983 3.6067648 0.087678321 24
2.042165 3.5730479 0.065944232 26
2.4038906 3.5746708 0.043608747 35
1.7294257 3.6112072 0.016911631 30
2.044409 3.5769742 -0.0068312152 30
2.3994813 3.5681138 -0.03242093 36
1.7223747 3.5964839 -0.053593259 32
2.0380762 3.5658941 -0.07943657 43
2.4099424 3.5836699 -0.10901427 37
1.7286037 3.6094909 -0.12458125 42
2.0410252 3.5710535 -0.15247664 45
2.3995683 3.5682433 -0.18473589 42
1.7325608 3.6177537 -0.19583063 25
2.0453162 3.5785613 -0.22575526 39
2.4062905 3.5782394 -0.26147196 37
1.7273487 3.6068702 -0.26611435 27
2.0549016 3.5953324 -0.30010995 42
2.4077952 3.5804772 -0.33806485 37
1.7285026 3.6092796 -0.33709788 27
2.0361526 3.5625284 -0.36996871 49
2.4129996 3.5882161 -0.41529742 39
1.7256798 3.6033854 -0.40730649 42
2.046437 3.5805223 -0.44481438 52
2.0442336 3.5766673 -0.51736385 36
2.0512509 3.5889449 -0.59229982 36
2.0418844 3.5725567 -0.66315311 57
2.0378795 3.5655496 -0.73449731 43
1.1938506 2.0888054 -0.47319764 0
1.0926486 1.9117388 -0.47209945 18
1.0846682 1.8977757 -0.50742292 17
0.99485612 1.7406373 -0.93455172 19
2.0707314 3.5650251 1.0882852 33
2.0593634 3.5454535 0.79231048 31
2.0652933 3.5556629 0.57526326 34
2.0795925 3.5802808 0.35947332 34
2.0605819 3.5475516 0.21105801 30
2.078196 3.5778766 0.13964556 35
2.4414999 3.5764225 0.12042749 36
1.7419213 3.5730505 0.08715225 39
2.0791123 3.5794542 0.066328749 23
2.4378083 3.5710149 0.043770712 32
1.7370658 3.5630908 0.016742684 45
2.0914307 3.6006618 -0.0069041699 30
2.4356089 3.5677931 -0.032571726 35
1.745688 3.5807767 -0.053539507 36
2.0689471 3.5619533 -0.079668619 41
2.4439206 3.5799685 -0.10941802 35
1.7432485 3.5757728 -0.12383451 43
2.0779519 3.5774565 -0.15336572 47
2.4401932 3.5745082 -0.1859377 39
1.7385164 3.5660665 -0.19368508 42
2.0782733 3.5780098 -0.22663029 40
2.4424684 3.577841 -0.26268247 36
1.7472402 3.5839608 -0.26531762 47
2.0839593 3.5877988 -0.30068821 41
2.4484718 3.5866351 -0.34025198 36
1.7536578 3.5971246 -0.33709788 40
2.0729795 3.5688956 -0.3721239 45
2.4402363 3.5745716 -0.41567981 39
1.7438186 3.5769424 -0.40568376 47
2.0833685 3.5867817 -0.44738805 50
2.0851009 3.5897639 -0.52135122 39
2.0782452 3.5779612 -0.59286714 38
2.0727258 3.568459 -0.66506243 56
2.0785434 3.5784745 -0.74013102 38
1.261629 2.1720533 -0.49403995 1
1.1020395 1.8973 -0.47042236 16
1.1076758 1.9070035 -0.51194543 15
1.0106257 1.7399195 -0.93793166 18
2.1053982 3.5671349 1.0933897 34
2.104027 3.5648119 0.7998997 30
2.1041608 3.5650384 0.57914269 29
2.1106131 3.5759706 0.36051127 34
2.1015418 3.560601 0.21270208 33
2.1031234 3.5632811 0.13964556 32
2.475518 3.5724368 0.12087228 34
1.7668233 3.5608027 0.08715225 35
2.1081166 3.5717406 0.066456914 25
2.4763479 3.5736346 0.044013657 32
1.7672321 3.5616267 0.016793368 41
2.1104174 3.575639 -0.0068842731 32
2.4741263 3.5704286 -0.032752682 34
1.7741994 3.5756681 -0.053647015 34
2.1039274 3.5646431 -0.080055356 41
2.4825191 3.58254 -0.11002365 36
1.7770545 3.5814226 -0.12445679 40
2.1130352 3.5800743 -0.15410662 47
2.476469 3.5738094 -0.18679614 38
1.7615939 3.5502636 -0.19349003 40
2.1133523 3.5806115 -0.22772406 38
2.4810309 3.5803926 -0.26413509 39
1.7722182 3.5716753 -0.26531762 43
2.1190951 3.5903413 -0.30213383 42
2.4802651 3.5792875 -0.3411893 38
1.7769558 3.5812237 -0.33676213 40
2.1059442 3.5680602 -0.37356067 46
2.4810066 3.5803573 -0.41835669 40
1.7758228 3.5789399 -0.40730649 47
2.112401 3.5789998 -0.44824594 47
2.110111 3.57512 -0.52135122 42
2.1092107 3.5735948 -0.59456915 36
2.1096311 3.5743067 -0.66888094 57
2.1054761 3.5672672 -0.74083525 47
2.1166317 3.5861678 -0.81902564 26
1.131162 1.9165057 -0.47713068 11
1.128884 1.9126461 -0.51556343 13
1.1539427 1.9551027 -0.56708783 1
1.0574166 1.7915603 -0.71566898 0
1.0301189 1.7453104 -0.94469148 17
2.1203051 3.5357656 1.0882852 28
2.1349223 3.5601408 0.80217642 31
2.1391847 3.5672491 0.58191371 31
2.1375761 3.5645664 0.36085725 33
2.1304569 3.5526948 0.2131131 33
2.1423404 3.5725114 0.14059003 35
2.5118992 3.5714202 0.12142827 36
1.7970464 3.5590906 0.087415285 34
2.141228 3.5706563 0.066713259 24
2.5127413 3.5726178 0.044216111 32
1.7974622 3.5599141 0.016844053 42
2.1394427 3.5676794 -0.006897538 31
2.5104976 3.5694277 -0.032903474 34
1.8081323 3.5810466 -0.053915787 31
2.1369889 3.5635874 -0.080364749 41
2.5166709 3.5782049 -0.11042741 35
1.80742 3.5796359 -0.12483016 38
2.1462002 3.5789478 -0.15469934 48
2.5105543 3.5695083 -0.18748289 41
1.7935393 3.5521448 -0.19427024 37
2.1424062 3.5726209 -0.22816156 40
2.512857 3.5727823 -0.2648614 37
1.8043054 3.5734673 -0.26637992 46
2.1523159 3.5891459 -0.30329031 41
2.5166633 3.5781939 -0.34275153 39
1.8055071 3.5758471 -0.33743364 38
2.138998 3.5669374 -0.37499744 47
2.5173945 3.5792336 -0.42026874 38
1.8061455 3.5771117 -0.40852353 46
2.147562 3.5812185 -0.45039067 46
2.1452241 3.5773201 -0.52384335 39
2.1463261 3.5791576 -0.59797317 35
2.1406257 3.5696521 -0.6707902 55
2.1424792 3.5727429 -0.7450605 44
2.1476717 3.5814018 -0.82134145 39
1.1565828 1.9286876 -0.48216194 5
1.1321899 1.8880104 -0.51104093 14
1.1416179 1.9037324 -0.55448586 7
1.1457638 1.9106458 -0.76641643 0
1.0478721 1.7474042 -0.94976139 17
2.1570101 3.540694 1.0944107 21
2.1617677 3.5485034 0.80293536 32
2.1681585 3.5589938 0.58302212 31
2.1872883 3.590395 0.36500901 33
2.1676772 3.5582037 0.21434616 32
2.1734684 3.5677099 0.1409948 34
2.5460629 3.5668144 0.12187307 34
1.8291589 3.5606868 0.087765999 34
2.1744268 3.569283 0.066969603 23
2.5445931 3.5647552 0.044337582 31
1.8295822 3.561511 0.016911631 42
2.1851082 3.5868163 -0.0069638602 27
2.5539467 3.5778587 -0.033144746 33
1.8367437 3.5754516 -0.054023296 29
2.1680572 3.5588276 -0.080596797 38
2.5532057 3.5768209 -0.1109321 37
1.8415009 3.584712 -0.12545244 38
2.1794522 3.5775321 -0.15529205 44
2.5516655 3.5746629 -0.1886847 40
1.8292476 3.5608594 -0.19544053 38
2.1797631 3.5780427 -0.2294741 39
2.5562959 3.5811498 -0.26679823 38
1.83468 3.5714343 -0.26717669 42
2.183547 3.5842538 -0.30415767 40
2.5531664 3.5767658 -0.34431374 37
1.8377123 3.577337 -0.33877668 38
2.172138 3.565526 -0.37643421 44
2.560827 3.5874977 -0.42332801 38
1.8365296 3.5750349 -0.4097406 43
2.1683729 3.5593457 -0.44953278 46
2.1763403 3.5724244 -0.52533865 38
2.1815608 3.5809934 -0.60080987 32
2.1778216 3.5748558 -0.67460877 77
2.1776121 3.5745118 -0.74858159 45
2.1807899 3.5797284 -0.82442915 38
1.2005416 1.9706677 -0.4947401 1
1.1554787 1.8966979 -0.51556343 17
1.1468045 1.8824594 -0.55060834 15
1.151203 1.8896794 -0.76121157 0
1.0581592 1.7369498 -0.94807142 17
2.1816761 3.5255494 1.0944107 20
2.1968215 3.5500236 0.80672997 28
2.2033749 3.5606139 0.58579314 30
2.2164946 3.5818152 0.36570096 30
2.2008734 3.5565717 0.21516819 30
2.2109447 3.5728464 0.14180434 28
2.5849762 3.5683813 0.12254026 34
1.8595288 3.5584631 0.088029034 32
2.2119195 3.5744221 0.06735412 26
2.5834966 3.566339 0.04458053 30
1.8618116 3.5628316 0.01697921 40
2.2185149 3.5850801 -0.0069903894 27
2.5952883 3.5826168 -0.033355862 26
1.8635126 3.5660865 -0.054077052 33
2.199163 3.5538075 -0.080828838 40
2.5921898 3.5783393 -0.11153774 8
1.8683333 3.5753119 -0.1255769 38
2.2127883 3.5758259 -0.15588477 44
2.590626 3.5761807 -0.18971483 40
1.8559127 3.5515432 -0.19563559 37
2.2172995 3.5831161 -0.23078662 37
2.5929461 3.5793836 -0.26800874 35
1.8651137 3.5691504 -0.26797342 42
2.2169137 3.5824924 -0.30531418 40
2.5874324 3.5717723 -0.34556353 38
1.8681799 3.5750182 -0.33978394 36
2.2074587 3.5672135 -0.37823015 43
2.5998251 3.5888796 -0.42562249 23
1.8706579 3.5797603 -0.411769 46
2.2140961 3.5779393 -0.4538222 46
2.2074928 3.5672686 -0.52683389 35
2.2148418 3.5791445 -0.6030792 34
2.2110379 3.5729973 -0.67715442 76
2.2108016 3.5726154 -0.7513985 44
2.2139893 3.5777667 -0.82751691 39
1.3151163 2.1252043 -0.53582865 0
1.1625409 1.8786451 -0.51284993 17
1.1640028 1.8810074 -0.5525471 20
1.1603867 1.8751638 -0.75860912 0
1.0702597 1.7295203 -0.94807142 16
2.21241 3.5200562 1.0974734 17
2.2320008 3.5512261 0.81052452 28
2.2387187 3.5619144 0.58856416 29
2.2541695 3.5864978 0.36777684 30
2.2362778 3.5580311 0.21619575 30
2.2528524 3.5844021 0.14288372 33
13.648294 18.566315 0.64083439 28
1.895587 3.566582 0.088555105 34
2.2517173 3.5825961 0.06780272 28
1.9016573 3.5780036 0.017114369 39
2.254132 3.5864379 -0.0070235506 27
1.8977485 3.5706489 -0.054345824 31
2.2366884 3.5586843 -0.081292927 40
1.90263 3.5798335 -0.12619919 36
2.2440794 3.5704439 -0.1563293 42
1.886287 3.5490839 -0.19622074 37
2.2486362 3.5776939 -0.2314429 38
1.8974781 3.5701404 -0.26903576 44
2.2482388 3.5770617 -0.30618155 40
9.7807903 13.305196 -1.2938323 2
1.9024458 3.5794871 -0.3414627 38
2.2323086 3.5517159 -0.37823015 41
8.372057 11.38884 -1.357556 1
1.9012065 3.5771551 -0.41298607 44
2.2453692 3.5724959 -0.45510903 47
2.2492387 3.5786526 -0.53082132 39
2.2524168 3.5837092 -0.60648322 37
2.2401309 3.5641615 -0.67842728 59
2.2524514 3.5837641 -0.75703222 44
2.2493551 3.5788376 -0.83137661 37
1.9209968 3.0564029 -0.77397478 8
1.1880684 1.8902768 -0.51827687 15
1.1853666 1.8859782 -0.55642462 20
1.1352065 1.8061708 -0.733886 1
1.0919541 1.7373542 -0.95652127 17
2.2431731 3.5143049 1.1005361 18
2.2609644 3.5421779 0.81204236 30
2.2784505 3.5695727 0.59244353 33
2.2855849 3.5807502 0.3688148 30
2.2653615 3.5490668 0.21660677 28
2.2756701 3.565217 0.1427488 32
13.588714 18.217384 0.63204974 31
1.9280459 3.5673342 0.088905819 34
2.2766736 3.5667889 0.06780272 25
11.515059 15.437389 0.1949639 0
1.9303937 3.5716784 0.017148158 40
2.2877233 3.5841002 -0.0070500798 26
11.393353 15.274227 -0.1436775 0
1.9359418 3.5819438 -0.054722104 32
2.2722366 3.5598378 -0.081679672 38
11.303978 15.154408 -0.4772402 0
1.9294764 3.5699811 -0.12632364 36
2.2818549 3.5749063 -0.15721838 44
1.9186164 3.5498877 -0.19700094 38
2.2843027 3.5787413 -0.23253667 38
11.78578 15.800323 -1.1952658 3
1.928049 3.5673399 -0.26983252 43
2.2903287 3.588182 -0.30849454 40
9.861517 13.220607 -1.2922701 2
1.9349694 3.5801444 -0.34280571 38
2.2741973 3.5629094 -0.38110369 44
8.4442196 11.320541 -1.3564087 3
1.9355936 3.5812993 -0.41501448 45
2.2873728 3.5835512 -0.45854059 46
2.2784381 3.5695534 -0.53181815 37
2.2859023 3.5812473 -0.60875255 34
2.284081 3.5783939 -0.68415511 59
2.2795341 3.5712705 -0.75773644 43
2.2827318 3.5762801 -0.83446437 37
1.8181325 2.848408 -0.72450072 7
1.2096215 1.8950739 -0.52189487 14
1.2026801 1.8841991 -0.55836338 16
1.1030163 1.7280591 -0.70525926 5
1.106007 1.7327445 -0.95821124 16
2.284481 3.5245223 1.1087034 17
2.300591 3.5493767 0.8173548 29
2.3162427 3.5735245 0.59576875 28
2.3191974 3.578083 0.37019873 26
2.2987742 3.5465739 0.2174288 27
2.3157251 3.572726 0.14369325 31
13.597325 17.965849 0.62660104 52
1.956755 3.5607963 0.089081176 33
2.3123956 3.567589 0.068123147 22
11.675655 15.426788 0.19585469 0
1.9610606 3.5686314 0.017198842 37
2.325743 3.5881815 -0.0070898728 25
11.562469 15.277239 -0.14446163 0
1.9666796 3.5788565 -0.054883368 27
2.3122599 3.5673797 -0.082221106 40
11.496373 15.189907 -0.48087403 0
1.9582032 3.5634315 -0.12657256 33
2.311105 3.5655978 -0.15751475 41
11.489438 15.180744 -0.81791991 0
1.9510487 3.5504124 -0.19778115 36
2.3222654 3.5828166 -0.2338492 36
11.907846 15.733578 -1.1964762 2
1.9605949 3.5677838 -0.27089486 39
2.3326821 3.5988877 -0.31080753 37
9.9680138 13.170519 -1.2941447 1
1.9675945 3.5805213 -0.34414876 32
2.3185167 3.577033 -0.38433644 45
8.5158367 11.251789 -1.3552616 4
1.9701307 3.5851367 -0.41704291 38
2.3188241 3.577507 -0.45982742 44
2.3162546 3.5735431 -0.5348087 30
2.3151555 3.5718472 -0.60988724 30
2.313303 3.568989 -0.68542796 41
2.3215437 3.5817029 -0.76337016 41
2.3183165 3.5767241 -0.83832407 35
2.2910852 3.5347114 -0.90311027 1
1.2228221 1.8865832 -0.52189487 10
1.2115834 1.8692441 -0.55642462 19
1.119168 1.7266647 -0.70786172 29
1.1377958 1.7554039 -0.97511089 15
2.3111575 3.5117185 1.1097243 18
2.3361094 3.5496323 0.82114941 27
2.343312 3.5605764 0.59632295 26
2.3594558 3.5851061 0.37262058 26
2.3388507 3.5537975 0.21886736 27
2.3537974 3.5765085 0.1445028 29
13.646928 17.772173 0.62315387 38
1.9893676 3.5610137 0.089431889 30
2.3548353 3.5780854 0.068635829 22
11.851278 15.433727 0.19698845 0
1.9917787 3.5653296 0.017249526 37
2.3595324 3.5852225 -0.007116402 25
8.6286097 11.236898 -0.1068232 0
1.9994193 3.5790067 -0.055098385 27
2.3459027 3.564513 -0.082530499 36
8.6139307 11.217782 -0.35702172 9
1.9986317 3.5775967 -0.12756822 33
2.3557184 3.5794275 -0.15884836 42
11.631648 15.147706 -0.82049519 0
1.9835815 3.5506566 -0.19856134 33
2.3494172 3.5698531 -0.23406795 37
8.6495104 11.264117 -0.86116266 1
1.9912945 3.5644629 -0.27169159 40
2.3577502 3.5825148 -0.31080753 36
8.6486368 11.26298 -1.1126146 3
1.9983749 3.577137 -0.34515601 32
2.3456228 3.5640874 -0.38469565 41
8.6087313 11.211011 -1.357556 10
2.0009339 3.5817175 -0.41825995 38
2.3590477 3.584486 -0.46283001 44
2.3520555 3.5738618 -0.53730083 34
2.3574493 3.5820575 -0.61442596 33
2.3533597 3.5758433 -0.68988293 35
2.3508213 3.5719864 -0.76477855 35
2.3583341 3.5834019 -0.84372759 33
2.1307938 3.2376626 -0.83099562 11
1.2466732 1.8942741 -0.52641737 4
1.2352709 1.8769486 -0.56127155 21
1.1228775 1.706171 -0.70265687 54
1.1520163 1.7504464 -0.97680086 16
2.3485096 3.5147927 1.1158497 17
2.3782887 3.5593605 0.82722074 27
2.3813174 3.5638931 0.59964818 30
2.3910689 3.5784872 0.37365851 30
2.3791392 3.5606332 0.22030592 26
2.3831506 3.5666366 0.14477265 31
8.6594982 11.115608 0.39186195 48
2.0201037 3.5574708 0.089694925 31
2.3930893 3.5815113 0.069020346 25
8.6599445 11.116181 0.14264959 23
2.0225463 3.5617723 0.017300211 37
2.3933933 3.5819659 -0.0071429312 29
8.6453934 11.097503 -0.10606922 20
2.0322566 3.5788724 -0.055313405 29
2.3796179 3.5613496 -0.082839891 37
8.6256828 11.072203 -0.35429636 26
2.031456 3.5774627 -0.12806603 35
2.3917537 3.5795121 -0.15958926 41
8.681879 11.144337 -0.60691577 20
2.0201583 3.5575671 -0.19973165 36
2.3898146 3.5766103 -0.23559923 38
8.6690474 11.127867 -0.85535222 28
2.0259845 3.5678272 -0.27301952 41
2.3915694 3.5792363 -0.31196401 42
8.6559839 11.111097 -1.1035537 35
2.0390449 3.5908267 -0.34784204 34
2.3837273 3.5674996 -0.3868508 43
8.6354017 11.084678 -1.3495253 20
2.0416098 3.5953441 -0.42150542 41
2.3928523 3.5811563 -0.46454579 45
2.3923831 3.5804541 -0.54078978 38
2.3823991 3.5655122 -0.61442596 35
2.3848481 3.5691772 -0.69179219 36
2.3910141 3.5784051 -0.7697081 39
2.3963761 3.5864303 -0.84835923 42
2.2076674 3.3040075 -0.85195923 12
1.3096558 1.9600384 -0.54722083 1
1.2569683 1.8811859 -0.56514907 19
1.1326599 1.6951452 -0.70135564 102
