# .PCD v0.7 - Point Cloud Data file format
VERSION 0.7
FIELDS x y z intensity
SIZE 4 4 4 4
TYPE F F F F
COUNT 1 1 1 1
WIDTH 1404
HEIGHT 1
VIEWPOINT 0 0 0 1 0 0 0
POINTS 1404
DATA ascii
1.7182716 3.7203856 -0.12756822 19
1.9793574 3.5782161 -0.15158758 47
2.3276784 3.5679283 -0.18301901 44
1.7271099 3.7395222 -0.201097 24
1.9816191 3.5823047 -0.22422397 39
2.3342803 3.578048 -0.25905091 41
1.7286984 3.7429616 -0.27434742 26
1.9832604 3.5852718 -0.2969296 45
2.3336015 3.5770075 -0.33462799 40
1.7280784 3.7416191 -0.34717053 22
1.9727149 3.5662079 -0.36745438 48
2.3343828 3.5782053 -0.41032609 41
1.7302618 3.7463467 -0.42069405 22
1.9769953 3.573946 -0.44052497 53
1.9748852 3.5701313 -0.51237965 40
1.9760255 3.5721927 -0.5849244 36
1.9784238 3.5765283 -0.65869814 68
1.9802742 3.5798733 -0.73168045 45
1.0847789 1.961027 -0.44077626 4
1.0582774 1.9131185 -0.46874526 21
1.0561793 1.9093256 -0.50651842 6
0.96343648 1.7416681 -0.92779183 21
2.0017974 3.5598786 1.0780762 32
1.9981107 3.5533221 0.78775698 35
1.9999139 3.556529 0.57082963 31
2.0137753 3.5811794 0.35670549 32
1.9991015 3.5550842 0.20982495 29
2.0123627 3.5786672 0.13856618 35
2.3604145 3.5634937 0.11887072 38
1.7259055 3.6693981 0.088905819 24
2.0152104 3.5837312 0.065880142 26
2.3678324 3.5746927 0.043406293 37
1.7297099 3.6774864 0.017165054 26
2.017427 3.5876732 -0.0068245833 31
2.3678865 3.5747743 -0.032330453 35
1.7210574 3.6590905 -0.054345824 20
2.0033309 3.5626056 -0.079049833 40
2.3738244 3.5837388 -0.10850957 36
1.7186778 3.6540313 -0.12570137 22
2.0121264 3.5782471 -0.15218028 46
2.3657718 3.5715816 -0.18404914 45
1.7344694 3.6876056 -0.19895144 26
2.0144105 3.582309 -0.225099 40
2.3702271 3.5783079 -0.26026142 38
1.7259084 3.669404 -0.26983252 23
2.018019 3.5887258 -0.29837522 38
2.3695276 3.5772517 -0.33619019 40
1.7270138 3.6717544 -0.34179845 25
2.0014687 3.5592937 -0.36817276 47
2.3790956 3.5916965 -0.41376778 39
1.7292745 3.6765609 -0.41420311 21
2.0096948 3.5739229 -0.44224074 52
2.0055971 3.5666356 -0.51387489 40
2.0125604 3.5790184 -0.58832842 38
2.009151 3.5729556 -0.66060746 55
2.0110075 3.5762575 -0.73379308 49
1.1099852 1.9739323 -0.4454079 1
1.0735247 1.909093 -0.46958381 20
1.0694832 1.9019057 -0.50651842 14
1.1142157 1.9814556 -0.78203106 0
0.98268002 1.7475402 -0.93455172 20
2.0323584 3.5558901 1.081139 37
2.0248172 3.5426958 0.78851593 35
2.0423856 3.5734341 0.57581747 30
2.0466373 3.5808725 0.35808942 33
2.0318007 3.5549142 0.21064699 32
2.0392811 3.568002 0.1387011 35
2.4030848 3.5734723 0.1197603 38
1.73248 3.6175852 0.087941356 24
2.042165 3.5730479 0.065944232 27
2.3994265 3.5680323 0.043527763 39
1.7259701 3.6039917 0.016877843 30
2.0483789 3.58392 -0.0068444801 31
2.4061775 3.5780714 -0.032511409 38
1.7223747 3.5964839 -0.053593259 33
2.034107 3.5589495 -0.079281874 44
2.4121737 3.5869882 -0.10911521 34
1.7286037 3.6094909 -0.12458125 43
2.044992 3.5779941 -0.15277301 45
2.4062586 3.578192 -0.18525095 42
1.7325608 3.6177537 -0.19583063 25
2.0433342 3.5750937 -0.22553651 40
2.4107466 3.5848658 -0.26195616 36
1.722177 3.5960715 -0.26531762 28
2.0509424 3.5884051 -0.2995317 43
2.4100206 3.5837862 -0.3383773 40
1.7302243 3.6128745 -0.33743364 28
2.0361526 3.5625284 -0.36996871 46
2.4063339 3.5783041 -0.41415018 44
1.7256798 3.6033854 -0.40730649 42
2.04249 3.5736165 -0.44395649 47
2.0501416 3.5870042 -0.51885915 40
2.0433917 3.5751944 -0.59003043 36
2.0438437 3.575985 -0.66378957 56
2.0476487 3.5826423 -0.73801839 48
1.188008 2.078583 -0.47088182 0
1.0907078 1.908343 -0.47126091 18
1.0827347 1.894393 -0.50651842 18
0.99125808 1.7343421 -0.93117177 18
2.0590761 3.5449593 1.0821599 35
2.069226 3.5624337 0.79610509 30
2.079221 3.5796413 0.57914269 30
2.0775907 3.5768347 0.35912734 33
2.0645947 3.55446 0.21146902 32
2.080204 3.5813336 0.13978049 34
2.4347367 3.5665154 0.1200939 34
1.7454262 3.5802398 0.087327607 41
2.0791123 3.5794542 0.066328749 26
2.4355533 3.5677116 0.043730218 41
1.7440772 3.5774727 0.016810264 48
2.0733492 3.5695324 -0.0068444801 31
2.4423745 3.5777035 -0.032662202 38
1.7421826 3.5735865 -0.053431995 38
2.0689471 3.5619533 -0.079668619 44
2.4484298 3.5865736 -0.1096199 35
1.7485044 3.5865538 -0.12420788 44
2.0779519 3.5774565 -0.15336572 47
2.4424462 3.5778086 -0.18610939 40
1.7420181 3.5732491 -0.19407518 44
2.0822854 3.5849171 -0.22706778 40
2.4424684 3.577841 -0.26268247 35
1.7507381 3.5911357 -0.26584876 48
2.0779479 3.5774493 -0.29982084 43
2.4462233 3.5833416 -0.33993953 41
1.7501645 3.5899589 -0.33642638 44
2.0709784 3.5654507 -0.37176469 47
2.4469709 3.5844367 -0.41682705 40
1.7507939 3.5912502 -0.40730649 50
2.0753787 3.5730259 -0.44567227 51
2.0771272 3.5760365 -0.51935756 43
2.0762563 3.574537 -0.59229982 40
2.0747092 3.5718734 -0.66569883 56
2.0726101 3.56826 -0.73801839 48
1.2537439 2.1584783 -0.49095219 1
1.1118616 1.91421 -0.47461507 16
1.1018047 1.8968958 -0.50923193 15
1.0856888 1.8691502 -0.53994519 0
1.0088047 1.7367845 -0.93624169 18
2.0962942 3.5545442 1.0893061 34
2.0948026 3.5520151 0.79686403 30
2.1029162 3.5657728 0.57914269 29
2.1053162 3.5698423 0.35981932 32
2.1002986 3.5613344 0.21270208 31
2.1100025 3.5777888 0.14018525 35
2.4788234 3.5798755 0.12109468 35
1.7673564 3.5650022 0.087239929 38
2.1089015 3.5759215 0.066521004 26
2.4659927 3.5613456 0.043851692 38
1.7695421 3.569411 0.016827159 42
2.119329 3.5936027 -0.0069174347 30
2.4774342 3.5778692 -0.032812998 37
1.769398 3.5691204 -0.053539507 35
2.1026828 3.5653772 -0.080055356 44
2.4835448 3.586694 -0.1101246 36
1.7775801 3.5856247 -0.12458125 39
2.1117854 3.5808117 -0.15410662 49
2.4752216 3.5746737 -0.18679614 41
1.7674528 3.5651965 -0.19427024 40
2.1060154 3.5710282 -0.22706778 44
2.4797812 3.5812585 -0.26413509 39
1.7709713 3.572294 -0.26531762 46
2.1158149 3.5876441 -0.30184469 41
2.483556 3.5867102 -0.34181419 41
1.7792464 3.5889862 -0.33743364 40
2.1067221 3.5722263 -0.37391984 46
2.4910903 3.5975909 -0.42026874 39
1.7728058 3.5759945 -0.40690079 48
2.1131716 3.5831623 -0.44867489 48
2.1068466 3.5724373 -0.5208528 42
2.116009 3.5879731 -0.59683847 40
2.1043713 3.5682402 -0.66760808 60
2.1102314 3.578177 -0.74294788 45
2.1153798 3.5869064 -0.81902564 24
1.1285062 1.9135317 -0.47629216 12
1.126237 1.9096839 -0.51465893 13
1.1138326 1.8886507 -0.54770023 1
1.0258262 1.7394242 -0.9413116 18
2.1349735 3.563046 1.0964525 27
2.1316607 3.5575171 0.80141753 29
2.1399753 3.5713935 0.58246791 30
2.1486213 3.5858223 0.36293313 33
2.1251101 3.5465848 0.21270208 34
2.1431479 3.5766878 0.14072494 33
2.5106523 3.5722969 0.12142827 36
1.7976052 3.5632882 0.087502964 39
2.1420374 3.5748346 0.066777349 27
2.5114939 3.5734944 0.044216111 38
1.7980211 3.5641127 0.016860947 44
2.1525893 3.5924444 -0.0069439635 31
2.5092514 3.5703037 -0.032903474 32
1.8032792 3.5745354 -0.053808279 32
2.1336894 3.5609026 -0.080287404 45
2.5177207 3.5823543 -0.11052835 35
1.8079712 3.5838363 -0.12495462 39
2.1408417 3.5728393 -0.15440297 47
2.5139041 3.5769236 -0.18782628 43
1.7904997 3.5492036 -0.19407518 39
2.1432118 3.5767946 -0.22838032 40
2.5184972 3.5834591 -0.26558772 39
1.8012601 3.5705335 -0.26611435 46
2.1510627 3.5898972 -0.30329031 41
2.5177071 3.5823348 -0.34306398 40
1.8096446 3.5871532 -0.33844092 40
2.1438956 3.5779357 -0.376075 48
2.5207238 3.5866272 -0.42103356 40
1.8066893 3.5812953 -0.40892923 48
2.1442678 3.5785568 -0.44996172 53
2.1460152 3.5814731 -0.52434176 43
2.1450765 3.5799065 -0.59797317 42
2.1414094 3.5737865 -0.67142665 61
2.1432557 3.5768678 -0.74576473 49
2.1484389 3.5855179 -0.82211334 39
1.1478684 1.9156713 -0.47880778 6
1.1315308 1.8884054 -0.51104093 15
1.136964 1.8974731 -0.5525471 8
1.1742587 1.9597139 -0.78593469 0
1.0453985 1.7446598 -0.94807142 17
2.1577852 3.5447507 1.0954316 21
2.1686971 3.5626767 0.80597103 29
2.1689758 3.5631347 0.58357632 31
2.1818907 3.5843508 0.36431706 34
2.1643579 3.5555484 0.21414065 30
2.1743016 3.5718834 0.14112972 35
2.5494618 3.5742135 0.12209547 35
1.8279159 3.5613251 0.087765999 37
2.1731806 3.5700421 0.066969603 25
2.5503166 3.575412 0.044459056 32
1.8265123 3.5585907 0.016894737 43
2.1817763 3.5841627 -0.0069572283 31
2.5526977 3.5787501 -0.033144746 34
1.8336692 3.5725343 -0.05396954 31
2.1688943 3.5630004 -0.080674142 43
2.5519571 3.5777121 -0.1109321 35
1.832947 3.5711272 -0.12495462 38
2.1761246 3.5748785 -0.15514387 46
2.5434558 3.5657935 -0.18816964 43
1.8261802 3.5579433 -0.19524549 40
2.1764374 3.575392 -0.22925533 40
2.5504084 3.5755408 -0.26631403 41
1.8316107 3.5685236 -0.26691109 44
2.1802211 3.5816081 -0.30386856 43
2.5542336 3.5809033 -0.34462619 41
1.8419237 3.5886164 -0.33978394 39
2.1750362 3.5730903 -0.37715259 46
2.5572627 3.58515 -0.42294562 41
1.8389156 3.5827558 -0.41055197 45
2.1816053 3.5838821 -0.45253539 48
2.1771572 3.5765746 -0.52583706 39
2.1658986 3.5580795 -0.59683847 38
2.1745203 3.5722427 -0.67397231 63
2.1763642 3.5752718 -0.74858159 47
2.1774995 3.577137 -0.82365721 38
1.2018872 1.9744278 -0.49557862 1
1.1588686 1.9037578 -0.51737243 18
1.1481652 1.8861746 -0.55157775 15
1.1584103 1.9030049 -0.76641643 0
1.0594381 1.7404162 -0.94976139 16
2.1763775 3.519732 1.0923688 20
2.2017782 3.560811 0.80900669 31
2.2021317 3.561383 0.58579314 30
2.2152441 3.5825889 0.36570096 32
2.1933291 3.547147 0.21455167 30
2.2096972 3.5736182 0.14180434 35
2.5813859 3.5660448 0.12242906 36
1.8564357 3.555567 0.087941356 37
2.2106717 3.5751941 0.06735412 26
2.5916331 3.5802007 0.044742495 32
1.8605679 3.5634813 0.01697921 40
2.2193668 3.5892563 -0.0069970214 29
2.5940378 3.5835226 -0.033355862 25
1.8678211 3.5773733 -0.054238316 34
2.204232 3.5647795 -0.081060886 41
2.6026645 3.5954397 -0.11204243 8
1.8707864 3.5830524 -0.12582582 37
2.2094376 3.5731983 -0.1557366 45
2.5846908 3.5706103 -0.18937145 40
1.8583711 3.559274 -0.19602568 40
2.2097471 3.5736988 -0.23013036 40
2.5893555 3.5770543 -0.26776662 39
1.8620206 3.5662637 -0.26770785 44
2.215663 3.583266 -0.30531418 41
2.5932007 3.5823662 -0.34650087 36
1.8706216 3.5827367 -0.34045544 39
2.2083087 3.5713725 -0.37858936 45
2.584564 3.570435 -0.42332801 24
1.8657249 3.5733585 -0.41095763 43
2.2107551 3.5753291 -0.45339325 50
2.2083347 3.5714147 -0.52733231 41
2.207345 3.5698142 -0.60137719 37
2.2077136 3.57041 -0.67651802 58
2.2136958 3.5800848 -0.7528069 47
2.2127402 3.5785391 -0.82751691 39
1.3020327 2.1057038 -0.53079742 1
1.1680325 1.8889929 -0.51556343 17
1.1613051 1.8781129 -0.55157775 21
1.1895707 1.9238253 -0.77812737 0
1.0734693 1.736061 -0.95145136 17
2.2194088 3.5339291 1.101557 17
2.2307611 3.5520051 0.81052452 32
2.2353683 3.559341 0.58800995 31
2.2529175 3.5872846 0.36777684 33
2.2329113 3.555429 0.21599023 32
2.2473485 3.5784173 0.14261387 34
13.639446 18.567858 0.64072317 27
1.8962175 3.5707753 0.088642783 37
2.2504666 3.5833821 0.06780272 26
1.8929042 3.5645361 0.017046791 43
2.2507524 3.5838373 -0.0070169182 29
1.9002538 3.5783761 -0.054453332 33
2.2333188 3.556078 -0.081215583 42
1.8957549 3.5699046 -0.12582582 36
2.2428329 3.5712271 -0.1563293 44
1.8906693 3.5603278 -0.19680589 40
2.2473872 3.5784786 -0.2314429 40
1.892488 3.5637524 -0.26850459 44
2.2533555 3.5879819 -0.30704892 42
9.7785063 13.311824 -1.2941447 2
1.8974574 3.5731101 -0.3407912 37
2.2437811 3.572737 -0.38038531 49
8.3845816 11.414225 -1.3602328 2
1.9018241 3.5813334 -0.41339174 44
2.242007 3.569912 -0.45468009 45
2.2395463 3.5659938 -0.52882761 38
2.2553773 3.5912013 -0.60761791 35
2.2409868 3.5682874 -0.67906374 58
2.2449179 3.5745468 -0.75491953 49
2.2460182 3.576299 -0.83060467 42
1.191553 1.8972908 -0.52008587 15
1.1867721 1.8896784 -0.55739403 20
1.1245177 1.7905515 -0.72737992 1
1.0874912 1.7315947 -0.95314133 17
2.2461057 3.5216095 1.1025779 18
2.2660635 3.5529008 0.81431913 31
2.2835948 3.5803878 0.59410614 30
2.2800491 3.5748286 0.36812285 30
2.2727149 3.5633295 0.2174288 32
2.2830243 3.5794933 0.14328849 28
13.582354 18.222126 0.63204974 30
1.9210997 3.5574505 0.088642783 33
2.2840312 3.5810716 0.068059057 23
11.50967 15.441407 0.1949639 0
1.9291468 3.5723517 0.017148158 40
2.2843211 3.5815263 -0.0070434473 29
11.392801 15.284616 -0.14373782 0
1.9327908 3.5790997 -0.054668352 33
2.2709939 3.560631 -0.081679672 41
11.341702 15.216062 -0.47905713 0
1.9301296 3.5741718 -0.12644809 37
2.2849059 3.5824432 -0.15751475 45
1.9192755 3.5540726 -0.19719599 38
2.2830534 3.5795386 -0.23253667 38
11.761175 15.778827 -1.1933289 4
1.9287 3.5715244 -0.27009809 43
2.2933667 3.5957086 -0.30907276 40
9.844986 13.208062 -1.2907079 2
1.9299316 3.5738051 -0.34213421 40
2.2750957 3.5670621 -0.3814629 47
8.4450264 11.329872 -1.3571736 3
1.9343432 3.5819745 -0.41501448 46
2.2818449 3.5776439 -0.4576827 54
2.2771919 3.5703487 -0.53181815 38
2.2867813 3.5853837 -0.60931993 36
2.2764611 3.5692029 -0.68224585 77
2.2782874 3.5720663 -0.75773644 42
2.2793727 3.5737679 -0.83369243 39
1.8255508 2.8622327 -0.72785491 7
1.2068646 1.8922111 -0.52099037 14
1.2020224 1.884619 -0.55836338 17
1.1064811 1.7348222 -0.70786172 5
1.0976038 1.7209039 -0.95145136 17
2.2853532 3.5285659 1.1097243 18
2.2993517 3.5501797 0.8173548 31
2.3063812 3.561033 0.59355193 26
2.3157818 3.5755477 0.36985272 28
2.2975359 3.5473762 0.2174288 26
2.3188241 3.5802448 0.14396311 32
13.58623 17.964216 0.62637866 50
1.9612862 3.5719953 0.089344211 35
2.3198466 3.5818236 0.068379492 22
11.67992 15.443623 0.19601665 0
1.9578897 3.5658092 0.017181948 40
2.3244903 3.5889933 -0.0070898728 27
11.55955 15.284465 -0.14449179 0
1.9654303 3.5795426 -0.054883368 30
2.3066664 3.5614734 -0.082066409 40
11.481422 15.181161 -0.48047027 0
1.9627318 3.5746281 -0.12694593 37
2.3185518 3.5798244 -0.15810746 46
11.462443 15.156066 -0.81637472 0
1.9517322 3.554595 -0.19797619 37
2.3166723 3.5769224 -0.23341168 38
11.895129 15.72818 -1.1957499 3
1.9612707 3.5719669 -0.27116042 41
2.3205822 3.5829592 -0.3093619 39
9.9345503 13.13583 -1.2903955 1
1.9644263 3.577714 -0.343813 36
2.3086052 3.564467 -0.38289967 48
8.5215158 11.267464 -1.3567911 5
1.966964 3.5823359 -0.41663721 45
2.3154132 3.5749786 -0.45939848 47
2.3128498 3.5710204 -0.53431028 37
2.3203659 3.5826254 -0.61158925 33
2.3077633 3.5631671 -0.68415511 45
2.3031693 3.5560739 -0.75773644 42
2.3170679 3.5775332 -0.83832407 38
2.2855988 3.5289454 -0.90143323 1
1.2285178 1.8968211 -0.52460837 11
1.2172596 1.8794386 -0.55933279 20
1.1165091 1.7238805 -0.70656049 30
1.1233871 1.7345002 -0.96328115 16
2.3141818 3.5189881 1.1117661 18
2.3348703 3.5504475 0.82114941 29
2.348599 3.5713236 0.59798557 25
2.3494458 3.5726113 0.37123665 26
2.3441951 3.5646269 0.2194839 28
2.3569419 3.5840101 0.14477265 30
13.64559 17.783279 0.62337631 32
1.9900737 3.5651999 0.089519568 33
2.3557839 3.5822492 0.068699919 22
11.86537 15.46325 0.19731237 0
1.9944333 3.57301 0.017283317 38
2.3582809 3.586046 -0.007116402 26
8.617382 11.230391 -0.10673272 0
1.994271 3.5727193 -0.054990876 27
2.3424611 3.5619903 -0.082453154 35
8.6124487 11.223961 -0.35712266 9
1.9934855 3.571312 -0.12731931 32
2.3456838 3.5668907 -0.15825564 40
11.638523 15.167618 -0.82135361 0
1.9862368 3.558326 -0.19895144 34
2.3503656 3.5740101 -0.23428671 36
8.6504393 11.273471 -0.86164689 1
1.9939408 3.5721276 -0.27222276 38
2.360884 3.5900042 -0.31138575 39
8.6398487 11.25967 -1.1119897 3
1.999069 3.5813148 -0.34549177 34
2.3421896 3.5615776 -0.38433644 43
8.6096649 11.220334 -1.3583208 8
1.997744 3.5789411 -0.41785428 40
2.3512409 3.5753407 -0.4615432 48
2.3595309 3.5879469 -0.53929448 34
2.3453209 3.5663388 -0.61158925 34
2.345602 3.5667663 -0.68797362 43
2.3603921 3.5892563 -0.76829964 35
2.3570833 3.5842249 -0.84372759 35
2.0995774 3.1926568 -0.81925607 13
1.2203211 1.855643 -0.51556343 4
1.2388803 1.8838645 -0.56321031 21
1.1243602 1.7097231 -0.70395803 54
1.1374609 1.7296444 -0.96497113 15
2.3451347 3.5123956 1.1148288 20
2.3683231 3.5471256 0.82418507 29
2.3800731 3.564724 0.59964818 33
2.3920324 3.5826359 0.37400448 31
2.3690233 3.5481744 0.2194839 28
2.390785 3.5807676 0.14531234 29
8.6580734 11.121786 0.39197314 26
2.0267553 3.5720885 0.090045638 34
2.3851767 3.5723679 0.068828091 24
8.6585197 11.122359 0.14269009 24
2.0232766 3.5659571 0.017317105 38
2.4032483 3.5994344 -0.0071760924 31
8.639061 11.097363 -0.10603906 20
2.0290332 3.576103 -0.055259649 31
2.3761537 3.5588541 -0.082762547 37
8.6242743 11.078368 -0.3543973 27
2.0302069 3.5781717 -0.12806603 36
2.386065 3.5736985 -0.15929291 41
8.6779881 11.147367 -0.60691577 20
2.0169446 3.5547969 -0.19953659 34
2.388566 3.5774443 -0.23559923 39
8.6651621 11.130892 -0.85535222 30
2.0227692 3.5650628 -0.27275392 42
2.3969657 3.5900247 -0.31283137 40
8.6521044 11.114119 -1.1035537 35
2.0318902 3.5811381 -0.34683478 36
2.3846939 3.571645 -0.38720998 49
8.6315317 11.087691 -1.3495253 21
2.0344634 3.5856733 -0.42028838 41
2.3960185 3.5886061 -0.46540368 46
2.3889291 3.5779881 -0.54029137 40
2.3943465 3.5861018 -0.61782998 38
2.3836021 3.5700095 -0.69179219 48
2.3875785 3.5759652 -0.76900387 40
2.3973036 3.5905306 -0.84913117 37
2.1782808 3.2624924 -0.84105814 14
1.3306075 1.9929004 -0.55626577 1
1.2433822 1.8622597 -0.55933279 21
1.1425698 1.7112693 -0.70786172 107
1.1636003 1.7427675 -0.97680086 15
2.3903582 3.5239167 1.124017 23
2.4163074 3.5621717 0.83177423 29
2.4194822 3.5668519 0.6029734 32
2.4271777 3.5781965 0.37538841 29
2.4196358 3.5670784 0.22174449 34
2.4259453 3.5763798 0.14585203 26
8.6724272 10.97332 0.38897079 29
2.0528858 3.5571356 0.090045638 38
2.4225247 3.571337 0.069148518 27
8.6579752 10.955034 0.14135389 35
2.0633576 3.5752811 0.017435368 43
2.4318142 3.5850317 -0.0071827243 29
8.6482525 10.942731 -0.10516445 33
2.06319 3.5749903 -0.055474669 36
2.4201376 3.5678182 -0.083381332 42
8.6358261 10.927008 -0.35157099 30
2.0723693 3.5908959 -0.1290617 39
2.4323921 3.5858839 -0.16062652 48
8.6776972 10.979988 -0.60125011 35
2.0569277 3.5641394 -0.20090194 40
2.4236939 3.5730608 -0.23647426 44
8.6673012 10.966834 -0.84760487 47
2.0648081 3.5777941 -0.27487859 43
2.4344149 3.5888658 -0.31427699 44
8.6616364 10.959666 -1.0944928 36
2.0780101 3.6006699 -0.35019234 37
2.421993 3.5705533 -0.38900596 49
8.648386 10.942901 -1.3395827 22
2.0686493 3.58445 -0.42191112 46
2.4334221 3.5874023 -0.4675484 50
2.4284604 3.5800877 -0.54328191 41
2.4294603 3.5815616 -0.62009931 39
2.425225 3.5753179 -0.69624716 47
2.4225686 3.5714018 -0.77182072 44
2.4367783 3.59235 -0.85376281 43
2.4151056 3.5603998 -0.92239678 6
1.3561167 1.9992158 -0.56078827 0
1.2678921 1.8691534 -0.56417972 20
1.1529598 1.6997176 -0.70656049 28
1.1865199 1.7491927 -0.98525071 15
2.4280617 3.5262556 1.1301423 21
2.4500265 3.5581546 0.8348099 33
2.4578044 3.5694506 0.60629863 32
2.4633989 3.5775754 0.37711832 29
2.4603384 3.5731304 0.22318305 33
2.4667244 3.5824049 0.14679649 30
8.6637869 10.806441 0.38519007 32
2.0877841 3.5599651 0.090484031 38
2.4564712 3.5675144 0.069404863 28
8.6591864 10.800703 0.14013916 34
2.0963612 3.5745904 0.017502949 43
2.4658568 3.581145 -0.0072092535 30
8.6468735 10.785345 -0.10422952 33
2.1002376 3.5811999 -0.055797197 35
2.4540589 3.5640111 -0.083690725 41
8.6343613 10.769737 -0.3484419 32
2.1054778 3.5901353 -0.12955952 38
2.4687018 3.5852766 -0.16136742 50
8.6791468 10.8256 -0.59609944 38
2.089844 3.5634773 -0.20168215 41
2.4644353 3.5790803 -0.23800555 42
8.6837139 10.831296 -0.84179437 37
2.0937731 3.5701773 -0.27540976 49
2.4752486 3.5947845 -0.31630084 41
8.6730824 10.818036 -1.0863693 34
2.1030965 3.5860748 -0.35019234 37
2.460417 3.5732448 -0.39116111 50
8.6498528 10.789061 -1.3281105 21
2.1057012 3.5905163 -0.4243452 47
2.4696846 3.5867038 -0.46969312 54
2.464649 3.5793908 -0.54577398 39
2.4678783 3.5840807 -0.62350333 36
2.4658036 3.5810678 -0.70070213 46
2.4720061 3.5900755 -0.77956712 51
2.4684756 3.5849483 -0.85607862 41
2.4753926 3.5949938 -0.93581343 34
1.8296672 2.6572118 -0.74892366 0
1.3029191 1.8922194 -0.57387352 16
1.1669431 1.6947424 -0.70786172 21
1.2007588 1.7438529 -0.98694068 16
2.4481893 3.5028784 1.1281005 19
2.4860561 3.5570588 0.83860451 31
2.4826639 3.5522048 0.60629863 30
2.4974465 3.5733562 0.37850225 27
2.4943769 3.5689642 0.22400509 34
2.5008345 3.5782037 0.14733618 25
8.6658573 10.655732 0.38196531 40
2.1207747 3.5590448 0.090834737 38
2.4927726 3.5666687 0.06972529 25
8.673811 10.665512 0.13916737 50
2.1233132 3.5633047 0.017519843 42
2.5045464 3.5835147 -0.007249047 29
8.6790562 10.671962 -0.10371682 47
2.1313298 3.5767579 -0.055958457 31
2.4926264 3.5664597 -0.084154814 44
8.6714926 10.662663 -0.34692779 3
2.1386766 3.5890872 -0.13005735 35
2.500541 3.5777836 -0.16181195 45
8.6839113 10.677933 -0.5912922 7
2.1228514 3.5625296 -0.20246235 43
2.5008018 3.5781567 -0.23909932 41
8.6684284 10.658895 -0.83307868 26
2.1329482 3.5794737 -0.27726886 44
2.5048552 3.5839565 -0.31687909 40
8.667881 10.658221 -1.0763711 27
2.1342018 3.5815775 -0.3511996 36
2.4967136 3.5723073 -0.39295706 48
8.6948166 10.691341 -1.3235215 26
2.1388645 3.5894027 -0.42596793 41
2.4969425 3.5726349 -0.47012207 49
2.5032189 3.5816152 -0.54876453 42
2.5064492 3.5862374 -0.62690735 37
2.4997931 3.5767133 -0.70324779 42
2.5015204 3.579185 -0.78097552 48
2.5046847 3.5837126 -0.85993832 39
2.5004299 3.5776248 -0.93581343 39
1.8347809 2.6252117 -0.74349672 0
1.3138744 1.8798964 -0.57290411 10
1.1809127 1.6896546 -0.70916289 17
1.2129039 1.7354275 -0.98694068 16
2.4770594 3.4920108 1.1301423 19
2.5176449 3.5492258 0.84088129 28
2.5280297 3.5638657 0.61128646 27
2.5384712 3.5785856 0.38092411 28
2.5215433 3.5547218 0.22421061 31
2.5373185 3.5769608 0.14801081 30
8.7553024 10.613481 0.38263249 33
2.1559246 3.5612574 0.091273129 35
2.5361238 3.5752764 0.070237979 24
8.7786007 10.641723 0.13965327 39
2.1584949 3.5655029 0.017604316 40
2.5433886 3.5855179 -0.0072888406 27
8.7940731 10.660479 -0.10419936 37
2.1645334 3.5754776 -0.056173477 31
2.5244055 3.5587568 -0.084386855 40
8.804245 10.672811 -0.34924939 30
2.1678216 3.5809093 -0.13030626 35
2.5300827 3.5667601 -0.1621083 42
8.7709599 10.632461 -0.59215063 29
2.1559465 3.5612931 -0.20324256 38
2.5372746 3.5768991 -0.2401931 39
8.7832804 10.647396 -0.83695233 42
2.1599522 3.56791 -0.27753443 41
2.5413556 3.5826519 -0.31832471 35
8.8004427 10.6682 -1.0835572 36
2.1694744 3.5836394 -0.35287836 34
2.5285068 3.5645385 -0.39403465 46
8.8199177 10.69181 -1.3311697 24
2.1679924 3.5811911 -0.4267793 40
2.5379293 3.577822 -0.47312465 49
2.5327547 3.5705268 -0.54976141 34
2.5360062 3.5751107 -0.62804204 36
2.5292714 3.5656164 -0.70452064 40
2.5401156 3.5809038 -0.78520083 41
2.5364547 3.5757432 -0.86225408 37
2.5524993 3.5983617 -0.94587594 31
1.871098 2.6377628 -0.75073266 1
1.3269663 1.8706782 -0.57290411 4
1.2014335 1.6937095 -0.71436781 17
1.23338 1.7387458 -0.99370056 15
2.5013778 3.4746327 1.1301423 19
2.5584235 3.5538745 0.84619367 17
2.5574772 3.5525599 0.61239487 13
2.5773621 3.5801816 0.38299999 8
2.5579679 3.5532415 0.22523814 25
2.5715714 3.5721381 0.1485505 24
8.8856335 10.619563 0.38507885 40
2.1933033 3.5665581 0.0917992 34
2.5727053 3.5737131 0.070558406 21
8.9014473 10.638463 0.1404226 37
2.1917157 3.5639765 0.017671894 37
2.5730321 3.574167 -0.007302105 26
8.9221849 10.663247 -0.1048327 33
2.1957273 3.5705001 -0.056334741 29
2.5585351 3.5540292 -0.084696248 38
8.9349928 10.678555 -0.35147005 32
2.2074287 3.5895276 -0.13117746 35
2.5759404 3.5782068 -0.16344193 42
8.8962641 10.632269 -0.59558439 43
2.1849422 3.5529621 -0.20363265 35
2.5761855 3.5785472 -0.24150562 35
8.918891 10.65931 -0.84276283 36
2.1952617 3.5697424 -0.27886236 41
2.5779598 3.581012 -0.31977034 37
8.9284449 10.670729 -1.0901185 36
2.198616 3.5751972 -0.35354987 35
2.5649681 3.5629652 -0.39583063 42
8.9352274 10.678835 -1.3372883 23
2.2012792 3.5795279 -0.42840204 40
2.5721395 3.572927 -0.47484043 49
2.5715325 3.572084 -0.55275196 35
2.5655303 3.5637462 -0.62917674 22
2.5748675 3.5767164 -0.71024847 34
2.5673535 3.5662789 -0.78590506 10
2.5819938 3.5866156 -0.86920154 9
2.561563 3.5582354 -0.94000614 3
1.8803616 2.6119869 -0.74711472 13
1.4102811 1.9590039 -0.60295492 1
1.2176483 1.6914201 -0.71697021 15
1.237016 1.7183236 -0.98694068 16
2.5301366 3.4633312 1.1321841 17
5.0968413 6.9767175 1.6696198 21
5.3069797 7.2643619 1.2585962 16
10.500854 14.3739 1.5454931 15
13.521531 18.508699 1.1792121 13
13.62368 18.648525 0.77945161 24
9.0087128 10.615195 0.38719162 33
2.2308605 3.5715098 0.09232527 31
13.58958 18.601847 0.36913389 18
9.029851 10.640102 0.1412729 37
2.2292576 3.5689437 0.017773263 36
9.0481739 10.661694 -0.10543589 39
2.2333138 3.5754378 -0.056657266 28
2.5927207 3.5489981 -0.085005641 23
9.0636616 10.679942 -0.35358977 36
2.2409065 3.5875931 -0.13167529 36
2.6338694 3.6053238 -0.16551644 7
9.0271635 10.636936 -0.59936154 40
2.2223923 3.5579529 -0.20480296 34
9.0447588 10.657669 -0.84760487 37
2.2285872 3.5678704 -0.27992469 40
9.0569086 10.671987 -1.0966799 38
2.2340798 3.576664 -0.35522866 35
2.6062298 3.5674899 -0.39834496 37
9.0507832 10.664768 -1.3434068 17
2.2388642 3.5843234 -0.43083614 42
2.6087501 3.5709398 -0.47698516 23
2.626843 3.595706 -0.55923146 6
2.5973542 3.5553405 -0.63087875 1
2.6021042 3.5618424 -0.71088487 3
2.6084471 3.5705252 -0.79083455 1
2.5838175 3.5368111 -0.86148214 1
2.6001844 3.5592146 -0.94503742 1
1.8663718 2.5547488 -0.73445171 6
1.7512878 2.3972182 -0.74157637 3
1.2428144 1.7012038 -0.72477752 13
1.2618136 1.7272105 -0.9970805 15
2.5726793 3.470439 1.1403514 18
5.1571169 6.9567394 1.6734145 20
5.3740788 7.2494121 1.2624756 16
10.646034 14.361065 1.5520668 20
13.576668 18.314369 1.1728413 28
13.565459 18.29925 0.76879269 30
9.1452036 10.624776 0.38986036 36
2.2664506 3.5727329 0.092763662 32
13.533332 18.255911 0.36413521 27
9.1613159 10.643496 0.14216371 36
2.2691176 3.5769372 0.017891526 38
9.1797915 10.66496 -0.10609938 39
2.2689331 3.5766463 -0.056926042 31
9.1927805 10.68005 -0.35570949 34
2.2701809 3.5786133 -0.1319242 35
9.1533422 10.634232 -0.6027953 38
2.2557378 3.5558457 -0.20558316 38
11.367001 15.333619 -1.0454307 0
9.1762447 10.66084 -0.85293114 39
2.2662687 3.5724463 -0.28151819 42
10.342141 13.951125 -1.2585536 1
9.1832218 10.668945 -1.1029288 36
2.2739408 3.5845404 -0.35757893 36
8.8659296 11.959776 -1.342304 2
9.1925507 10.679784 -1.3533494 12
2.2723589 3.5820467 -0.43245888 42
7.6948013 10.379972 -1.3936374 3
2.6542449 3.5804679 -0.55972987 0
2.6527658 3.5784724 -0.63825411 0
2.6363139 3.5562794 -0.71343058 13
2.6473794 3.5712066 -0.79505986 15
2.6575294 3.5848982 -0.87769288 3
4.3625255 5.8848686 -1.5705901 5
1.8586373 2.5072255 -0.72450227 2
1.7194479 2.3194647 -0.72121942 0
1.2614182 1.7016016 -0.72868115 12
1.2760001 1.721272 -0.99877048 16
2.6270676 3.4925737 1.1536232 17
5.2244449 6.9456754 1.6794858 22
5.4317021 7.2212152 1.2641382 17
10.77478 14.324609 1.5562185 22
13.560118 18.027596 1.1605108 38
13.563113 18.031578 0.7615068 31
9.2717447 10.620914 0.39208433 37
2.293503 3.5601847 0.092851341 32
13.545053 18.007568 0.36105907 29
9.2932673 10.645568 0.1430545 37
2.3070314 3.5811844 0.017992895 40
11.587132 15.404595 -0.031960804 0
9.3013706 10.654851 -0.10664225 24
2.3068438 3.580893 -0.057248566 30
11.385448 15.136465 -0.36632094 0
9.3065624 10.660798 -0.3572236 6
2.3081002 3.5828435 -0.13267094 34
11.415802 15.17682 -0.70400053 0
9.2851791 10.636303 -0.60657239 41
2.2869983 3.550087 -0.20616831 36
12.498944 16.616812 -1.138839 3
9.3003368 10.653666 -0.85753113 36
2.3019612 3.573314 -0.28284609 45
10.432092 13.869019 -1.2576863 1
9.3256664 10.682682 -1.1110524 35
2.3075445 3.5819809 -0.35892195 33
8.9108925 11.846649 -1.3365569 2
9.2328444 10.576353 -1.3483782 5
2.3123965 3.5895126 -0.43529868 41
7.7431736 10.294217 -1.3893479 3
6.8947644 9.1662941 -1.4404447 3
6.1741433 8.2082586 -1.4716721 3
5.5714078 7.4069476 -1.4936856 3
5.0959673 6.7748704 -1.5161771 4
4.73034 6.288784 -1.5477345 5
4.3893971 5.8355155 -1.5655589 6
1.8878067 2.509758 -0.72902477 1
1.8242451 2.4252558 -0.75805587 0
1.2823616 1.7048448 -0.733886 11
1.2945238 1.7210139 -1.0038403 15
2.670157 3.4987438 1.1617905 21
5.2799549 6.9183984 1.6817626 22
5.489193 7.1925659 1.2658008 16
8.5439215 11.195219 1.2226937 1
13.603243 17.824518 1.1535234 52
13.618332 17.84429 0.75759405 31
13.663332 15.43273 0.57322598 31
2.3292475 3.5608196 0.093289733 33
13.600074 17.820366 0.3592006 25
13.649355 15.416943 0.20844738 36
2.3385451 3.5750334 0.01804358 36
8.5930367 11.259576 -0.023484791 0
13.63906 15.405315 -0.15513793 28
2.3383548 3.5747426 -0.05740983 29
11.549072 15.132911 -0.36817729 0
13.6192 15.382883 -0.51862526 28
2.3418112 3.5800261 -0.13316877 35
11.572404 15.163482 -0.70711231 0
13.709001 15.484312 -0.88848352 33
2.3314102 3.5641258 -0.20792376 34
12.505608 16.386272 -1.1289951 2
12.550483 14.175767 -1.1480556 32
2.3399601 3.5771966 -0.28443959 37
8.6044579 11.274541 -1.0278332 0
10.848614 12.253506 -1.2822719 2
2.3455868 3.585798 -0.36093649 33
9.0078812 11.803152 -1.3387121 2
9.2695045 10.469903 -1.3430244 3
2.3482914 3.5899329 -0.43732709 38
7.812439 10.236748 -1.388919 2
6.9441423 9.0990067 -1.4374541 3
6.2336993 8.1681032 -1.4722395 2
5.6205859 7.3647323 -1.4930491 3
5.162251 6.7641692 -1.5218108 5
4.7812715 6.2649665 -1.5500504 5
4.4300294 5.8047295 -1.5655589 5
1.9171013 2.5120044 -0.73354721 1
1.8458408 2.4186308 -0.75999463 0
1.2988219 1.7018645 -0.73648846 8
1.3263028 1.737873 -1.01905 15
2.7016211 3.4891918 1.1648532 18
5.3329349 6.8875804 1.6832803 24
5.5635252 7.1853919 1.2713429 17
8.5755157 11.075432 1.2161201 21
8.6453199 11.165585 0.72647524 31
8.6469316 11.167667 0.47668386 23
13.658543 15.212009 0.56855565 40
2.3628998 3.5577972 0.093640447 33
8.6409502 11.159942 0.22615859 20
13.655107 15.208182 0.20690872 36
2.3722982 3.5719483 0.018111158 38
8.6175594 11.129732 -0.02333888 19
13.639384 15.190672 -0.15393157 30
2.3743181 3.5749898 -0.057678603 30
8.6649275 11.190908 -0.2737352 11
13.622072 15.171391 -0.51468861 30
2.3822305 3.5869036 -0.13403997 35
8.6557045 11.178997 -0.52411067 9
13.693951 15.251444 -0.88058585 35
2.3650765 3.561075 -0.20870396 35
8.6535788 11.176251 -0.77417427 20
12.569118 13.998677 -1.1407924 32
2.375917 3.5773973 -0.2857675 39
8.6463213 11.166879 -1.0234964 22
8.5787382 9.5544481 -1.006071 0
2.385999 3.5925777 -0.36328676 34
8.7900686 11.35253 -1.2945313 2
9.3397112 10.401972 -1.3426419 3
2.3865058 3.5933406 -0.43976119 40
7.8837142 10.181958 -1.388919 2
7.0245042 9.0722723 -1.4409431 3
6.263906 8.0899467 -1.4659988 2
5.6694465 7.3221912 -1.4924128 3
5.202116 6.7186255 -1.5196981 4
4.820087 6.2252288 -1.5485065 5
4.4824185 5.7891235 -1.5697516 5
1.9608315 2.532449 -0.74349672 1
1.8436739 2.3811378 -0.75223958 1
1.3338282 1.7226629 -0.74950063 3
1.3406225 1.7314379 -1.02074 15
2.7521935 3.5037012 1.1760831 19
5.3687582 6.8347392 1.6794858 24
5.6453643 7.1868749 1.2785475 19
8.5738554 10.915013 1.2050487 27
8.6564331 11.02014 0.72092646 38
8.6530704 11.015858 0.47277108 28
13.670188 15.01281 0.56466371 31
2.4010937 3.5611088 0.094166517 33
8.6420631 11.001844 0.22417194 23
13.650537 14.991228 0.20524859 44
2.4083581 3.5718825 0.018195633 40
8.6258631 10.981222 -0.023153178 27
13.65354 14.994527 -0.15290616 33
2.410398 3.574908 -0.057947375 32
8.6959057 11.07039 -0.27226555 27
13.641503 14.981309 -0.51145858 33
2.4228592 3.5933893 -0.13491116 37
8.6841536 11.055429 -0.52114707 28
2.4055145 3.5676651 -0.21006931 36
8.6573763 11.021339 -0.76761162 37
2.4097588 3.5739601 -0.28682983 43
8.6501369 11.012124 -1.0148227 31
8.4975643 9.3321552 -0.98888659 1
2.4199347 3.5890522 -0.36462981 35
8.7017679 11.077852 -1.2701062 23
9.396018 10.318851 -1.3403475 2
2.4204323 3.5897899 -0.44138393 44
7.9472351 10.11729 -1.3876321 2
7.0631528 8.9918013 -1.4359589 3
6.3128934 8.0366774 -1.4642967 3
5.7301836 7.2948546 -1.4949584 3
5.2488937 6.6821446 -1.5196981 5
4.8513074 6.1759939 -1.5446467 5
4.5154767 5.7484627 -1.5672359 4
1.9929045 2.5370827 -0.74892366 1
1.8674442 2.3773642 -0.75514776 5
1.3785329 1.754952 -0.76771766 0
1.3593961 1.7305896 -1.0258099 15
2.7862279 3.496501 1.1801667 20
5.4212375 6.8032351 1.6810036 27
5.7200875 7.1782684 1.2840896 19
8.5852766 10.77386 1.1960533 26
8.6584721 10.865714 0.7147612 27
8.6600056 10.867639 0.46899322 27
13.671583 14.805381 0.56043816 35
2.4394491 3.56406 0.094692588 35
8.6438847 10.847408 0.22224936 25
13.65446 14.786838 0.20375043 41
2.4400134 3.5648847 0.018246315 41
8.6350107 10.836272 -0.022974107 26
13.652059 14.784237 -0.15172996 36
2.4465921 3.574496 -0.058216147 32
8.6807623 10.893686 -0.2694037 41
13.634534 14.76526 -0.50732011 30
2.4591775 3.5928836 -0.13553345 37
8.6863909 10.90075 -0.5167017 41
8.5699883 9.2807064 -0.54270458 0
2.4393892 3.5639725 -0.21084952 38
8.6619253 10.870048 -0.76126772 36
8.3779764 9.0727701 -0.74882656 5
2.4504311 3.5801048 -0.28868893 43
8.6497307 10.854745 -1.0058599 37
8.4948721 9.1993599 -0.98107547 2
2.4539373 3.5852275 -0.36597282 40
8.7044115 10.923365 -1.2593304 31
9.4840355 10.270555 -1.3426419 2
2.4611683 3.5957918 -0.4442237 47
8.027586 10.074001 -1.3893479 2
7.1307011 8.9484797 -1.4369557 3
6.3688455 7.9924097 -1.4642967 3
5.7686663 7.2392311 -1.4917763 3
5.2978697 6.6484175 -1.5204023 5
4.8943052 6.1419754 -1.5446467 5
4.5530605 5.7137399 -1.5663974 4
2.0518479 2.5749109 -0.76430017 1
1.8598108 2.333919 -0.74545389 6
1.3759633 1.7267277 -1.0291898 16
2.8178637 3.4859874 1.1832294 21
5.4488492 6.7407875 1.6749322 27
5.7800226 7.1504831 1.2863064 18
8.6252108 10.670274 1.1912096 37
8.6587791 10.711802 0.70859593 25
8.65273 10.704318 0.46454075 29
13.681687 14.610345 0.55665743 36
2.4779615 3.5666475 0.095218658 37
8.6439753 10.693487 0.2203268 25
13.656201 14.583128 0.20225227 41
2.4785349 3.5674732 0.018347684 44
8.6501017 10.701066 -0.022814933 37
13.653779 14.580542 -0.15061408 30
2.4851794 3.5770369 -0.058538675 31
8.6836929 10.742622 -0.26716059 38
2.4933252 3.5887613 -0.13603127 38
8.6818686 10.740365 -0.51195997 37
8.4870653 9.0631323 -0.5334335 0
2.4756086 3.563261 -0.21182477 40
8.6698084 10.725446 -0.75536132 10
8.3919878 8.9616022 -0.74446875 2
2.4821968 3.5727437 -0.28948566 48
8.6425352 10.691707 -0.99631876 11
8.5943241 9.1776714 -0.98513722 3
2.4857295 3.5778286 -0.36698008 39
8.7053261 10.769384 -1.2485547 37
9.0275173 9.6402683 -1.2684544 2
2.4952934 3.5915942 -0.44584644 46
8.0752192 9.9898777 -1.3854874 3
7.1780291 8.879961 -1.4339651 3
6.4244871 7.947752 -1.4642967 3
5.8140993 7.1926394 -1.4905034 3
5.3367281 6.6020823 -1.5182897 5
4.9321299 6.1015525 -1.543103 5
4.6026735 5.6939807 -1.5697516 4
2.0942683 2.5908256 -0.77334511 1
1.8370253 2.2725894 -0.72994381 3
1.397101 1.7283578 -1.0359497 16
2.8568451 3.4841747 1.1893549 20
5.4808354 6.6843624 1.6703788 26
5.849896 7.1344638 1.29074 17
8.7348671 10.652941 1.1960533 31
8.7054892 10.617111 0.70633531 30
8.729785 10.646742 0.46467566 30
13.673217 14.398497 0.55220956 33
2.5189331 3.572139 0.095832407 33
8.7310982 10.648344 0.22064722 25
13.653014 14.377222 0.2007136 43
2.519516 3.5729654 0.018465947 39
8.7575693 10.680628 -0.022901151 31
13.645062 14.368849 -0.14940771 33
2.5239208 3.579212 -0.058861203 29
8.7052288 10.616794 -0.26553628 36
8.8747034 9.3454514 -0.32532683 0
2.5298388 3.5876043 -0.13665356 35
8.7084837 10.620764 -0.50914454 5
8.4483099 8.8964405 -0.52708101 1
2.5142388 3.5654819 -0.21299507 40
8.7368774 10.655393 -0.75470507 22
8.4021082 8.8477879 -0.73986876 1
2.518579 3.5716367 -0.2908136 41
8.7473221 10.668131 -0.99978828 38
8.5867891 9.0422649 -0.97701371 4
2.5267258 3.58319 -0.36933035 38
8.7120962 10.62517 -1.2388564 32
9.0507288 9.5308142 -1.2623359 2
2.5248928 3.5805905 -0.44665781 41
8.1422434 9.9301834 -1.3850585 2
7.2222328 8.8081493 -1.4304762 3
6.4722843 7.8935218 -1.4625947 3
5.864172 7.1518745 -1.4905034 3
5.3801932 6.5616202 -1.5175855 5
4.9571867 6.0457263 -1.5376993 5
4.6274333 5.6435633 -1.5647204 5
2.1419511 2.6122983 -0.78419906 0
12.627897 15.400835 -4.9748631 1
1.4114319 1.7213657 -1.0376397 15
2.8909914 3.4760394 1.1934385 21
5.497231 6.6097016 1.6612717 26
5.9122257 7.1086783 1.293511 19
8.8727283 10.668297 1.2047027 31
8.8253756 10.611362 0.71003449 25
8.8550243 10.64701 0.46737415 32
13.65969 14.184604 0.5476504 45
2.5531192 3.5674746 0.096183121 32
8.8614864 10.654779 0.2220571 25
13.661496 14.186479 0.1993774 41
2.5583656 3.5748057 0.018567316 37
8.8754005 10.67151 -0.023013901 27
13.645161 14.169516 -0.14832199 30
2.5581574 3.5745149 -0.05907622 30
8.8277225 10.614182 -0.26700589 46
8.8787088 9.2198992 -0.32310617 0
2.566457 3.5861118 -0.13727584 34
8.851429 10.642687 -0.51314539 40
8.446456 8.7710361 -0.52313221 1
2.5483694 3.5608382 -0.21377528 34
8.8723469 10.667837 -0.75995523 43
8.430439 8.7544031 -0.73696351 0
2.552743 3.5669494 -0.29187593 41
8.8828106 10.680419 -1.0067272 39
8.5888519 8.9189043 -0.97013992 3
2.563278 3.5816696 -0.37100914 36
8.8471985 10.6376 -1.2474771 40
9.1639986 9.5161524 -1.2688369 2
2.5614078 3.5790565 -0.44868624 41
8.2037401 9.8639259 -1.3837717 2
7.2860861 8.7605667 -1.4309746 3
6.5297647 7.8511887 -1.4631621 3
5.9038572 7.0986166 -1.4879578 3
5.4032092 6.4966531 -1.5112475 5
5.0118203 6.0260592 -1.5415591 5
4.6617179 5.6051064 -1.5630432 5
4.3451867 5.2245193 -1.5774431 5
1.8884287 2.2705886 -0.73769885 1
1.5019743 1.8059278 -0.80805534 1
1.4396425 1.7309819 -1.0494695 16
2.9276569 3.4705529 1.1985431 19
5.5660319 6.5981803 1.668102 26
6.0000234 7.1126499 1.3018241 17
8.9983807 10.667014 1.2116224 31
8.9584846 10.619719 0.7147612 26
8.9806929 10.646046 0.4700726 28
13.663401 13.991632 0.54386967 49
2.5873625 3.5625064 0.096533827 31
8.979495 10.644626 0.22314656 26
13.656804 13.984877 0.19787924 38
2.5973635 3.5762765 0.018668685 23
9.0090065 10.679609 -0.023166442 28
13.654322 13.982334 -0.1473569 32
2.6018529 3.5824583 -0.059506256 5
8.9634962 10.625661 -0.26886225 40
8.8702202 9.0833063 -0.32048175 0
8.9719057 10.635629 -0.51581264 44
8.4795618 8.6832628 -0.52141535 0
2.5778625 3.5494258 -0.21416537 30
8.9878101 10.654483 -0.76345527 41
8.4801912 8.6839075 -0.73599511 1
2.5940006 3.5716465 -0.293735 34
9.008605 10.679134 -1.0125097 40
8.5896139 8.7959585 -0.96326613 5
2.6022739 3.5830376 -0.37302366 14
8.9751902 10.639524 -1.2550201 34
9.2830658 9.5060692 -1.2761027 3
2.6120548 3.5965049 -0.45314875 3
8.2698393 9.8033733 -1.3833427 2
7.3470683 8.709487 -1.4309746 3
6.5793114 7.7993593 -1.4620274 3
5.9609089 7.0662823 -1.4898671 3
5.4662051 6.4798417 -1.5161771 4
5.046176 5.9819236 -1.5392432 5
4.7032566 5.5754147 -1.5638818 4
4.3790421 5.1910787 -1.5765387 6
1.9067365 2.2603159 -0.73866826 1
1.5243009 1.8069627 -0.8132602 16
1.4610425 1.7319739 -1.0562294 17
2.9694145 3.4706004 1.2056894 20
5.5915341 6.5352883 1.6620307 26
6.0752859 7.1006894 1.3073661 17
9.1322165 10.673577 1.2195799 33
9.081748 10.61459 0.7186659 31
9.1119738 10.649918 0.47304091 29
13.676343 13.81067 0.54053372 43
13.649242 18.520147 0.50441337 32
9.1237926 10.663731 0.22487688 24
13.661228 13.795407 0.19654304 39
9.1431541 10.68636 -0.023318984 29
13.653096 13.787195 -0.14630134 30
9.0842581 10.617523 -0.27025452 40
8.8546343 8.9416037 -0.31765544 0
9.1109037 10.648667 -0.51951712 44
8.5202913 8.6039762 -0.52021354 0
9.1268864 10.667347 -0.76892418 41
8.5293722 8.6131458 -0.73502666 1
9.1399994 10.682673 -1.0188704 36
8.597497 8.681941 -0.95732969 6
9.1010485 10.637148 -1.2622039 36
9.441659 9.5343933 -1.2887222 2
8.0128164 10.872292 -1.3768907 2
8.3354912 9.7423782 -1.3829138 2
7.4154334 8.6670303 -1.4324698 3
6.6258779 7.7442112 -1.4603254 3
6.0126629 7.0274963 -1.4905034 3
5.4908309 6.4175882 -1.5105433 5
5.0929174 5.9525137 -1.5407871 5
4.7496934 5.5513597 -1.5663974 4
4.4227748 5.1692629 -1.5792521 6
1.9603137 2.2911808 -0.75320899 1
1.5319606 1.790529 -0.8106578 14
1.4778123 1.7272414 -1.0596093 15
3.0163841 3.4760749 1.2148775 21
5.6293006 6.4871945 1.6597539 24
6.1506729 7.0880232 1.3129082 19
9.2561331 10.666749 1.2261535 19
9.2184658 10.623341 0.72359812 26
9.2437439 10.652472 0.47600922 32
13.667595 13.610463 0.53641939 49
13.605767 18.193823 0.49810055 30
9.2556839 10.666231 0.22628677 26
13.652339 13.595271 0.19504488 41
11.484095 15.356692 0.080993369 0
9.2673454 10.67967 -0.023444997 27
13.661154 13.604049 -0.14536642 32
11.372976 15.208103 -0.25522646 0
9.2210665 10.626338 -0.27211088 41
8.8516741 8.8146734 -0.31533384 0
11.339763 15.16369 -0.58942735 0
9.2452784 10.65424 -0.52292526 45
8.557497 8.5217257 -0.51884001 0
11.420289 15.271371 -0.93097574 0
9.2561064 10.666718 -0.77351803 39
8.5298824 8.4942274 -0.7299425 1
10.961684 14.658117 -1.2179645 1
9.2744942 10.687908 -1.0255202 40
8.4714031 8.4359922 -0.93670839 0
9.2857466 12.417031 -1.3060864 2
9.2325287 10.639547 -1.2701062 37
9.8409119 9.7997761 -1.3338466 2
8.0932894 10.82246 -1.377702 2
8.395483 9.6749372 -1.381627 2
7.4575505 8.5940666 -1.4289809 3
6.6849709 7.7037468 -1.46146 3
6.0512247 6.9734187 -1.4879578 3
5.5484033 6.3939686 -1.5140644 4
5.1343493 5.9168139 -1.5407871 5
4.7857699 5.5151114 -1.5655589 4
4.4562016 5.1353173 -1.5783477 5
1.9813483 2.2833018 -0.75514776 1
1.5469024 1.7826473 -0.81195903 15
1.4993391 1.7278353 -1.0663692 16
3.0533535 3.4694488 1.219982 20
5.6978035 6.4742708 1.6665841 25
6.2340293 7.0835705 1.3201127 15
12.623913 14.344234 1.6589746 21
9.3451872 10.618701 0.72770828 2
13.638764 15.497385 0.69674367 32
13.653871 13.408255 0.5321939 51
13.609171 17.935919 0.49362895 45
13.618356 15.474195 0.33029792 17
13.649888 13.404345 0.19366819 41
11.675647 15.387671 0.081584685 0
13.6148 15.470155 -0.034169342 23
13.658761 13.413058 -0.14434101 18
11.539311 15.20799 -0.25657034 0
9.3452272 10.618746 -0.27358049 27
8.8787584 8.7190409 -0.31412259 0
11.496099 15.151039 -0.59204096 0
9.3696079 10.64645 -0.52574068 3
8.5911179 8.4365749 -0.51729482 0
11.54353 15.21355 -0.9323411 0
13.686797 15.551963 -1.1346827 19
8.4921169 8.3393555 -0.72171098 1
11.075811 14.59713 -1.2192924 2
8.4902573 8.3375282 -0.93233413 1
9.3673887 12.345551 -1.3054149 1
9.3592205 10.634646 -1.2772901 28
9.0539732 8.8911037 -1.2187411 0
8.1469984 10.737164 -1.3740509 2
8.441802 9.5922079 -1.3781954 2
7.5199885 8.5447731 -1.4294794 3
6.7307415 7.6479721 -1.459758 3
6.1101956 6.9428616 -1.4905034 3
5.5772972 6.3373427 -1.5098391 4
5.1729379 5.8778791 -1.5400152 5
4.8164039 5.4727583 -1.5630432 4
4.4919438 5.1040826 -1.5783477 5
2.0203147 2.2956328 -0.76387215 1
1.5693054 1.7831622 -0.81716388 15
1.4993891 1.7037181 -1.0579193 18
3.0929523 3.4653604 1.2261075 21
5.7428632 6.4343352 1.6665841 22
6.3255343 7.087163 1.32898 15
11.343902 12.709769 1.4790649 1
13.651165 15.29484 1.0546736 26
13.629496 15.27056 0.69080704 44
13.683952 13.251413 0.52974755 45
13.658432 17.742241 0.49091092 63
13.611537 15.25044 0.32754225 26
13.665555 13.233598 0.19257493 41
8.6156597 11.191703 0.059655316 0
13.613265 15.252377 -0.033897419 25
8.6369171 11.219316 -0.19029102 5
13.693293 15.342039 -0.3977243 32
8.9193039 8.6373711 -0.313416 0
8.6213207 11.199057 -0.43995476 12
13.686453 15.334376 -0.76193869 29
8.6354532 8.3624926 -0.5164364 0
8.6371708 11.219646 -0.69125873 0
13.685994 15.333862 -1.1257137 21
8.5157118 8.2465363 -0.71880573 5
8.6575909 11.246171 -0.94441384 2
11.500246 12.884938 -1.2516146 0
8.5367975 8.2669563 -0.93108439 1
8.6339598 11.215474 -1.1922655 6
9.7515678 10.925709 -1.3203932 4
8.9527864 8.669795 -1.1969438 0
8.2290411 10.689487 -1.375268 2
8.4979696 9.5211716 -1.3764796 2
7.5662446 8.4772615 -1.4269872 3
6.7997894 7.6185212 -1.4631621 3
6.1479988 6.8882508 -1.4879578 3
5.6266475 6.3041263 -1.5112475 4
5.2112331 5.8386941 -1.5392432 4
4.8440757 5.4273291 -1.559689 4
4.5196834 5.0638781 -1.5756341 6
2.0517969 2.2988443 -0.76968843 1
1.5867531 1.7778069 -0.81976628 15
1.5305597 1.7148473 -1.071439 15
3.1274512 3.4551528 1.2301911 22
5.8060923 6.4144678 1.6718966 25
6.4014425 7.0722003 1.334522 16
11.533978 12.742536 1.4922122 2
13.639659 15.068853 1.0456312 26
13.647241 15.07723 0.68635458 34
13.67492 13.058908 0.5258556 46
8.6694174 11.100341 0.30880305 60
13.623734 15.051261 0.32529923 24
13.676613 13.060525 0.19144118 46
8.6664991 11.096604 0.059469476 20
13.620097 15.047242 -0.033652026 25
9.8671722 9.4226875 -0.10287237 0
8.6411762 11.06418 -0.18867838 25
13.692715 15.127469 -0.39463037 59
8.9504671 8.5472765 -0.3124066 0
8.6353111 11.056671 -0.43671888 27
13.696605 15.131766 -0.75660425 39
8.7022934 8.3102827 -0.51695144 14
8.6857777 11.121288 -0.68891811 22
8.5206041 9.413413 -0.69542247 1
8.5644121 8.1786127 -0.71807945 16
8.67202 11.103673 -0.93750864 34
8.4842815 9.3732843 -0.91623163 1
8.5568113 8.1713543 -0.92702258 16
8.6556196 11.082674 -1.1845431 33
9.8008709 10.827828 -1.3168013 4
9.9719944 9.5227871 -1.3242863 0
8.3842974 10.735272 -1.3886555 2
8.5722389 9.470458 -1.3777665 2
7.6145887 8.4124632 -1.4249935 3
6.8368683 7.5532513 -1.459758 3
6.2065377 6.856873 -1.4905034 3
5.6652369 6.2588539 -1.5098391 5
5.2545018 5.8050809 -1.5400152 5
4.8949709 5.4078774 -1.5638818 4
4.5627704 5.0408678 -1.5783477 5
2.1120684 2.3333757 -0.78616792 1
1.616894 1.7863159 -0.82887483 15
1.5376284 1.6987447 -1.0680591 15
3.1724188 3.456028 1.2383584 30
5.8586988 6.3824568 1.6741734 27
6.5149512 7.0973768 1.3478229 17
11.687331 12.73216 1.5005157 3
13.649978 14.870263 1.0384383 27
13.644031 14.863784 0.68095762 33
13.681337 12.883627 0.52263087 56
8.677165 10.951782 0.30634806 30
13.62841 14.846767 0.32292807 26
13.674278 12.87698 0.19014548 46
8.6692362 10.941776 0.058962632 29
13.619321 14.836865 -0.033393368 27
9.6997566 9.1341982 -0.10045965 0
8.6387253 10.903267 -0.18695824 37
13.695222 14.919552 -0.39169115 55
8.9720745 8.448945 -0.3110944 0
8.6328392 10.895838 -0.43273628 32
8.7746439 8.2630253 -0.51780993 25
8.6813307 10.957041 -0.68248147 30
8.4807796 9.2389479 -0.68689102 1
8.6096735 8.1076736 -0.71711099 36
8.6799269 10.955269 -0.93007231 36
8.5090446 9.2697392 -0.9118948 1
8.6223583 8.1196194 -0.92795992 12
8.6733732 10.946998 -1.1764851 30
9.9031639 10.78849 -1.3203932 4
8.8468628 8.3310337 -1.1671157 0
8.635457 9.4074526 -1.3773376 3
7.6785011 8.3649464 -1.4259903 3
6.8947883 7.5111709 -1.4608927 7
6.2462454 6.8046494 -1.4885942 3
5.714119 6.2249513 -1.5112475 4
5.3028631 5.7769299 -1.542331 5
4.9352503 5.3764534 -1.5647204 4
4.5820413 4.9916682 -1.5729207 6
2.1702957 2.3643165 -0.801678 1
1.6421145 1.7889167 -0.83538091 14
1.5862252 1.728031 -1.0934086 14
3.228091 3.4677665 1.2506093 23
5.8736782 6.3097801 1.6658252 27
6.602129 7.0923157 1.3555818 18
11.851958 12.731928 1.5102031 3
13.652749 14.666422 1.0308344 28
13.646682 14.659904 0.67596549 36
13.671329 12.695292 0.51885009 56
8.6782513 10.797427 0.3037177 33
13.614548 14.625384 0.32017237 21
13.684707 12.707715 0.18905222 8
8.665225 10.781219 0.058422003 33
13.629904 14.64188 -0.033167873 25
9.6841507 8.9927711 -0.099645354 0
8.6544971 10.767872 -0.18566813 29
13.692771 14.709415 -0.38867456 38
8.9956789 8.3534508 -0.30988315 0
8.6360598 10.744932 -0.42912701 19
8.6146469 9.2542572 -0.46869159 0
8.6850281 10.805859 -0.67682499 41
8.5477934 9.1824398 -0.68710977 2
8.6660652 8.047369 -0.71711099 48
8.6761847 10.794856 -0.92157364 38
8.4947205 9.1254263 -0.90351021 1
8.681756 8.0619402 -0.92827237 0
8.674674 10.792975 -1.1664125 30
8.9358988 9.5993605 -1.1824632 0
8.8464546 8.21488 -1.1594676 0
8.510931 10.589248 -1.3850044 3
8.6846628 9.3294716 -1.3747638 3
7.725894 8.2995167 -1.4239967 3
6.9335675 7.4483624 -1.458056 3
6.2962885 6.7637677 -1.4892306 4
5.7520719 6.1791449 -1.5098391 4
5.335041 5.7311506 -1.5400152 5
4.9646692 5.3332801 -1.5622047 4
4.6273971 4.9709663 -1.5765387 6
2.2184789 2.3831937 -0.81331056 0
1.6494087 1.771872 -0.83277845 15
1.59578 1.7142615 -1.0917187 16
3.2681513 3.4620199 1.2567346 21
5.9229774 6.274332 1.6673431 26
6.6922717 7.0892611 1.3638948 17
12.02809 12.741605 1.5212746 5
13.656088 14.466175 1.0234361 28
13.636179 14.445085 0.67043364 35
13.674108 12.521234 0.51562536 56
8.6750841 10.640495 0.30099967 38
13.639446 14.448546 0.31837797 26
10.19486 9.3353233 0.1399367 0
8.6846743 10.652258 0.058050316 49
13.630195 14.438746 -0.03292248 25
9.6994963 8.8817244 -0.09916281 0
8.6839676 10.651391 -0.18470055 34
13.704534 14.517495 -0.38612208 38
9.0095406 8.249939 -0.30836904 0
8.700758 10.671986 -0.42862919 8
8.5747747 9.0834351 -0.46306077 0
