# .PCD v0.7 - Point Cloud Data file format
VERSION 0.7
FIELDS x y z intensity
SIZE 4 4 4 4
TYPE F F F F
COUNT 1 1 1 1
WIDTH 1357
HEIGHT 1
VIEWPOINT 0 0 0 1 0 0 0
POINTS 1357
DATA ascii
-7.4399319 -0.032464538 -1.1990216 44
-7.4182205 -0.032369796 -1.326743 37
-7.3824921 -0.032213897 -1.4520143 39
-7.3802094 -0.032203935 -1.5823298 33
-7.4108706 -0.032337725 -1.7203537 5
-8.126235 -0.035459254 -2.0298836 4
-5.7076445 -0.024905607 -1.9635355 6
-1.5698122 -0.0068499586 -0.73175567 13
-2.0575166 0.0053862771 0.5431217 7
-2.6666586 0.0069809221 0.5153054 1
-3.5533826 0.0093022361 0.49712056 5
-5.304029 0.013885172 0.46049953 4
-6.9587736 0.018217051 0.35799712 7
-9.0148363 0.023599522 0.30425194 5
-13.488339 1.0189316 0.376183 16
-10.056896 -0.70501119 0.22103705 17
-16.661804 0.043618169 0.26698121 1
-14.298526 1.0801344 0.14516003 20
-18.35878 -1.2869921 0.07773269 49
-18.363913 0.048074037 -0.030448651 34
-18.371132 1.3877858 -0.13891238 39
-18.333347 -1.2852091 -0.24700204 31
-18.344507 0.048023239 -0.35479608 44
-18.369791 1.3876846 -0.46502659 38
-18.322138 -1.2844234 -0.57175452 39
-18.343338 0.048020177 -0.67999548 49
-18.334799 1.3850412 -0.78993481 44
-18.281309 -1.2815611 -0.89469635 44
-18.33246 0.0479917 -1.0040859 44
-18.345936 1.3858824 -1.1156136 53
-8.6436253 -0.60593766 -0.57658112 1
-8.0428791 0.021055082 -0.58287251 2
-18.315523 1.3835851 -1.439119 42
-7.6778989 -0.53823811 -0.64834267 31
-7.6728497 0.020086398 -0.6918056 1
-18.315296 1.3835679 -1.764058 43
-7.7487221 -0.543203 -0.79189467 1
-7.8544188 0.020561719 -0.84716338 18
-7.5050235 0.019647053 -0.94251931 1
-7.4320717 0.019456077 -1.0648915 38
-7.447876 0.01949745 -1.2002945 41
-7.4222035 0.019430244 -1.3274472 38
-7.3864622 0.019336678 -1.4527862 40
-7.3763437 0.019310189 -1.5814912 33
-7.39533 0.019359892 -1.7167357 3
-8.1185226 0.021253105 -2.0279448 4
-5.696332 0.014912165 -1.9596318 6
-1.5734473 0.0041190549 -0.73344564 14
-2.1270409 0.020418562 0.56149805 48
-4.9011011 0.0470482 0.94712979 13
-8.8612909 0.085064106 1.2397532 19
-6.3916602 0.061356846 0.55495209 7
-18.282978 0.17550775 0.94061589 14
-18.392681 0.17656083 0.6207819 32
-13.492852 1.1140537 0.37651661 16
-10.732079 -0.6770857 0.23576701 5
-11.901924 0.11425271 0.19071917 12
-14.222871 1.1743286 0.14447169 19
-18.371309 -1.1590439 0.07774958 44
-17.187185 0.16498865 -0.028498769 5
-18.360996 1.5159979 -0.13891238 40
-18.341873 -1.1571867 -0.24700204 35
-18.339725 0.1760525 -0.35471871 52
-18.363642 1.5162164 -0.46512753 39
-18.338638 -1.1569828 -0.57200342 40
-18.346552 0.17611802 -0.68014365 46
-18.344597 1.5146439 -0.79079324 43
-18.325697 -1.1561662 -0.89645177 46
-18.32369 0.17589857 -1.0036484 47
-18.343773 1.5145758 -1.1160978 51
-8.5520468 -0.53954774 -0.57020712 2
-8.0824299 0.077587418 -0.58576375 2
-18.329266 1.513378 -1.4409937 45
-7.6774917 -0.48437211 -0.64800692 47
-7.6924405 0.073843703 -0.69360155 1
-18.317097 1.5123733 -1.7652051 40
-7.7245255 -0.4873395 -0.78905493 0
-7.8580604 0.075433575 -0.84759235 25
-7.4927969 0.071927227 -0.94102407 1
-7.4555111 0.071569294 -1.0682955 41
-7.4238648 0.071265511 -1.1964759 41
-7.4297614 0.071322113 -1.3288556 37
-7.3704486 0.07075274 -1.4496984 38
-7.37994 0.070843853 -1.5823298 34
-8.8405104 0.084864624 -2.0523043 3
-8.1104145 0.077856056 -2.0260062 4
-5.6998711 0.054716006 -1.9609331 7
-1.5842562 0.015208093 -0.73851556 12
-2.1307135 0.035331734 0.56251895 25
-5.301188 0.0879049 1.0245395 20
-5.8581367 0.09714029 0.81966698 4
-6.4109988 0.10630791 0.55668199 7
-9.2185402 0.15286289 0.47431538 0
-15.309177 0.25385854 0.51675606 1
-13.492711 1.2089381 0.376739 16
-11.874482 -0.66596496 0.26075533 1
-16.659571 0.2762509 0.26698121 1
-14.126682 1.2657415 0.14358088 11
-14.944382 -0.83813632 0.063220106 10
-18.36545 0.30453798 -0.030455282 33
-18.365902 1.6455729 -0.13903302 42
-18.33353 -1.0282124 -0.24678701 36
-18.346046 0.30421624 -0.35487342 48
-18.376507 1.646523 -0.46573317 40
-18.326309 -1.0278074 -0.57138115 40
-18.352869 0.30432937 -0.68044001 48
-18.345518 1.6437465 -0.79130828 45
-18.301409 -1.0264108 -0.89489138 46
-18.341984 0.30414885 -1.0047421 42
-18.336729 1.6429589 -1.1163399 54
-8.5356798 -0.47871259 -0.56887919 2
-8.1415262 0.13500372 -0.59010059 2
-18.322224 1.6416593 -1.4413061 42
-7.6727266 -0.43031496 -0.64733541 43
-7.6917377 0.12754527 -0.69360155 1
-18.306093 1.640214 -1.7652051 42
-7.5807338 -0.42515567 -0.77404463 0
-7.7897434 0.12917042 -0.84030026 1
-7.5119534 0.12456407 -0.94351619 1
-7.4548297 0.12361684 -1.0682955 45
-7.4389801 0.12335402 -1.1990216 38
-7.4448309 0.12345103 -1.3316724 37
-7.3893967 0.12253182 -1.4535582 39
-7.3831768 0.12242868 -1.5831683 33
-8.8241186 0.14632255 -2.0486863 4
-8.1096735 0.13447553 -2.0260062 4
-5.6842227 0.094256431 -1.9557282 6
-1.5913613 0.026388135 -0.7418955 12
-2.1342814 0.050297178 0.56353986 23
-5.3043709 0.12500454 1.0252984 42
-8.9226046 0.21027303 1.2486205 18
-6.3941646 0.15068698 0.55529809 5
-9.249197 0.21796961 0.47595945 1
-18.368439 0.43287665 0.62010723 29
-13.507821 1.3054131 0.37740618 16
-13.264839 -0.65107816 0.29117972 5
-16.677227 0.39302102 0.26730165 4
-14.037876 1.3566383 0.14277107 4
-15.796842 -0.77535641 0.066801794 6
-18.35088 0.43246284 -0.030435385 52
-18.373873 1.7756746 -0.13918382 39
-18.344257 -0.90039122 -0.24684078 33
-18.347473 0.43238258 -0.35495076 58
-18.356604 1.7740057 -0.46553129 40
-18.33703 -0.90003657 -0.57150561 37
-18.3463 0.43235493 -0.68029183 47
-18.34553 1.7729355 -0.79182339 47
-18.312119 -0.89881378 -0.89508647 62
-18.327435 0.43191034 -1.0040859 45
-18.344683 1.7728537 -1.1175505 54
-8.4830055 -0.41637138 -0.56516105 2
-8.1962233 0.19315487 -0.59414834 1
-18.322226 1.7706834 -1.4422435 44
-7.6954494 -0.37771577 -0.64901417 56
-7.7145562 0.18180376 -0.69575673 1
-18.325901 1.7710385 -1.7682645 40
-7.5755677 -0.37183163 -0.77323323 0
-7.5978122 0.17905253 -0.81971103 0
-7.5148687 0.17709786 -0.94401461 5
-7.4696188 0.17603149 -1.0705649 32
-7.4537296 0.17565703 -1.2015673 41
-7.4280415 0.17505166 -1.3288556 22
-7.388361 0.17411654 -1.4535582 40
-7.3860517 0.17406212 -1.5840068 33
-8.8267775 0.20801474 -2.0495906 3
-8.1124172 0.19117989 -2.0269754 4
-5.6796446 0.13384837 -1.954427 6
-1.5983871 0.037668116 -0.74527544 12
-2.1068182 0.064369276 0.5563935 18
-5.303369 0.16203299 1.0252984 39
-8.9169598 0.27243844 1.2480663 22
-6.4208388 0.19617486 0.55771995 4
-11.531363 0.3523159 0.59351075 4
-18.372961 0.56134617 0.62037712 48
-13.486447 1.3984466 0.3770726 17
-10.600066 -0.44612601 0.23261058 3
-16.686071 0.50980687 0.2674939 47
-15.201709 1.5763068 0.1547159 19
-18.347593 -0.77219695 0.07756374 44
-18.319426 0.5597105 -0.030388961 8
-18.376944 1.9055555 -0.13930444 38
-18.354092 -0.77247041 -0.24689452 35
-18.336014 0.56021732 -0.35479608 47
-18.371613 1.9050027 -0.46623784 39
-18.334879 -0.77166182 -0.5712567 39
-18.358818 0.56091404 -0.68088454 51
-18.340654 1.9017925 -0.79216671 45
-18.317947 -0.77094918 -0.89508647 63
-18.335949 0.56021535 -1.0047421 47
-18.3398 1.9017041 -1.1180347 56
-8.4498158 -0.35562822 -0.56277078 2
-8.5376158 0.2608484 -0.61901289 1
-18.321316 1.8997874 -1.4431808 39
-7.6899343 -0.32364699 -0.64834267 30
-7.7250447 0.23602207 -0.69683433 9
-18.328932 1.9005771 -1.7697941 38
-7.581955 -0.31910247 -0.7736389 0
-7.6281776 0.23306251 -0.82314253 1
-7.537251 0.23028444 -0.94700515 30
-7.4721656 0.22829588 -1.0711322 42
-7.4681106 0.22817199 -1.204113 39
-7.4305744 0.22702515 -1.3295598 34
-7.3948112 0.22593248 -1.4551021 38
-7.3963842 0.22598055 -1.5865225 34
-7.8008366 0.23833773 -1.8117079 2
-7.8160844 0.23880358 -1.9533025 2
-5.6747913 0.17338099 -1.9531257 7
-1.5835901 0.04838318 -0.73851556 11
-2.0869935 0.078350611 0.55128896 15
-5.3060331 0.19920087 1.0260572 44
-8.8990059 0.33408946 1.2458495 19
-6.4193125 0.24099597 0.55771995 4
-11.528623 0.43281138 0.59351075 6
-18.384575 0.69019985 0.62091678 34
-13.516097 1.4969672 0.37818459 15
-10.323162 -0.36229441 0.22647311 5
-18.376692 0.68990391 0.29466626 23
-15.214188 1.6850382 0.15495884 21
-18.352537 -0.64408773 0.07756374 45
-18.379028 0.68999159 -0.030495076 37
-18.375118 2.0351253 -0.13939492 40
-18.343048 -0.64375472 -0.24667951 33
-18.343645 0.68866324 -0.35502812 53
-18.369789 2.0345349 -0.46654066 39
-18.335823 -0.64350116 -0.57113224 37
-18.350458 0.68891907 -0.68073636 52
-18.350763 2.0324278 -0.79319686 49
-18.314898 -0.64276677 -0.89469635 24
-18.339573 0.68851042 -1.0051796 43
-18.341951 2.0314519 -1.1190031 55
-8.1609163 -0.2864098 -0.54338318 1
-18.311045 0.68743932 -1.3279432 43
-18.323462 2.0294039 -1.4444306 44
-7.6880221 -0.26981342 -0.64800692 48
-7.759038 0.2912924 -0.70006704 28
-18.335005 2.0306823 -1.7717062 38
-7.5720668 -0.26574391 -0.7724219 0
-7.642261 0.28690833 -0.82485831 1
-7.5632219 0.283941 -0.95049411 37
-7.5139141 0.28208986 -1.0773729 15
-7.4544969 0.27985922 -1.2022038 200
-7.4288082 0.27889478 -1.3295598 34
-7.4048195 0.27799422 -1.4574178 39
-7.3985348 0.27775827 -1.587361 33
-7.5575762 0.28372905 -1.7556291 5
-7.554399 0.28360978 -1.8883541 5
-5.6885614 0.21356186 -1.9583306 6
-1.568722 0.058893487 -0.73175567 13
-2.0825319 0.092746593 0.55026805 16
-5.3045135 0.23623912 1.0260572 35
-6.4174738 0.28580537 0.55771995 5
-9.290493 0.4137567 0.47842556 1
-18.395283 0.81924295 0.6214565 39
-13.465607 1.586612 0.3770726 1
-11.692572 -0.32864779 0.25645909 2
-15.25492 0.67938542 0.24467938 17
-15.213969 1.7926162 0.15508032 20
-15.081909 -0.42391324 0.063726947 4
-18.36577 0.81792867 -0.030481812 22
-18.384298 2.1661665 -0.13957588 40
-18.351093 -0.51580155 -0.24673326 34
-18.342386 0.81688726 -0.35510546 51
-18.374994 2.1650701 -0.46704537 39
-18.343866 -0.51559836 -0.5712567 41
-18.349195 0.81719053 -0.68088454 47
-18.340096 2.1609583 -0.79336858 47
-18.314945 -0.51478547 -0.89450127 47
-18.33831 0.8167057 -1.0053984 48
-18.351112 2.1622565 -1.1204557 52
-8.3981037 -0.23604886 -0.55905259 2
-18.321743 0.81596786 -1.3290997 47
-18.324688 2.1591427 -1.4456804 45
-7.6897187 -0.21613799 -0.64800692 37
-18.319458 0.81586611 -1.6533651 30
-18.304564 2.1567717 -1.7701765 39
-7.5657821 -0.21265446 -0.7716105 0
-7.6798019 0.34202379 -0.82914776 16
-7.5848451 0.33779481 -0.95348465 23
-7.5157175 0.3347162 -1.0779402 6
-7.5588799 0.33663848 -1.2193872 58
-7.4266801 0.33075088 -1.3295598 34
-7.4340663 0.33107981 -1.4635934 77
-7.4042301 0.32975104 -1.5890381 32
-7.4542055 0.33197674 -1.7321122 17
-7.5444813 0.33599722 -1.8864152 6
-5.6793747 0.25293377 -1.9557282 7
-1.5755166 0.070166409 -0.73513561 12
-2.0625217 0.10628695 0.54516351 15
-3.6044476 0.1857463 0.69744575 33
-3.5961599 0.18531922 0.50377101 20
-6.4113421 0.33039269 0.55737394 5
-14.808741 0.76313186 0.7628504 5
-14.77597 0.76144302 0.49935094 30
-13.450234 1.6800854 0.37696141 2
-13.365806 -0.28230947 0.29310861 3
-14.754525 0.76033801 0.23673274 14
-15.220928 1.9012649 0.15528277 27
-18.355743 -0.38770577 0.077546842 37
-18.383579 0.94735235 -0.030521605 21
-18.372696 2.2949562 -0.13960604 37
-18.350248 -0.38758972 -0.24667951 43
-18.344223 0.94532418 -0.35526016 50
-18.387205 2.2967684 -0.46775195 36
-18.343021 -0.38743708 -0.57113224 36
-18.355019 0.94588053 -0.68132907 52
-18.35232 2.2924109 -0.79457039 45
-18.306108 -0.38665742 -0.89391613 55
-18.324184 0.94429153 -1.0049609 47
-18.367266 2.2942779 -1.1223925 51
-8.4155083 -0.17775042 -0.56011492 2
-18.331537 0.94467044 -1.3302561 38
-18.336866 2.2904806 -1.4478674 37
-7.6751003 -0.1621117 -0.6466639 28
-18.309336 0.94352639 -1.653006 49
-10.035475 1.2535435 -0.97132176 10
-7.5949321 -0.16041841 -0.7744503 0
-9.6630592 0.49796185 -1.0436195 3
-7.6893177 0.39624998 -0.96694207 6
-7.5211058 0.38758159 -1.079075 9
-7.4774694 0.38533288 -1.2066587 2
-7.439919 0.38339785 -1.3323767 36
-7.4472518 0.38377571 -1.4666811 154
-7.421277 0.38243717 -1.5932308 255
-7.5342007 0.3882564 -1.8844765 6
-5.6850252 0.29296371 -1.9583306 4
-1.5641263 0.080603383 -0.7300657 13
-2.0694511 0.12113547 0.54720533 16
-3.5952218 0.21044655 0.69592792 5
-3.6026878 0.21088359 0.50487942 2
-6.4128575 0.37537709 0.55771995 5
-9.3236895 0.54576284 0.48048064 1
-18.394022 1.0766954 0.62186128 35
-13.450069 1.7755145 0.37729499 2
-13.403439 -0.18950048 0.29389772 5
-16.697271 0.97737598 0.26800659 7
-15.223146 2.0095744 0.15544473 19
-18.369999 -0.25971872 0.077597529 42
-18.380512 1.0759045 -0.030528238 34
-18.376053 2.4257829 -0.13975683 37
-18.336512 -0.25924525 -0.24646449 32
-18.341169 1.0736016 -0.3553375 45
-18.38658 2.4271724 -0.46815568 39
-18.345278 -0.25936919 -0.57113224 39
-18.339989 1.0735326 -0.68103272 48
-18.343794 2.4215243 -0.79491377 47
-18.312357 -0.25890374 -0.89411116 48
-18.333094 1.0731289 -1.0058359 49
-18.354759 2.422972 -1.1226346 50
-8.3846169 -0.11854338 -0.55799025 2
-18.348391 1.0740243 -1.3319908 40
-18.332289 2.4200058 -1.4488047 39
-7.6760449 -0.10852545 -0.6466639 36
-18.30628 1.0715594 -1.6533651 45
-7.6038246 -0.10750438 -0.77526164 0
-9.6434669 0.56448102 -1.0419037 0
-18.292753 1.0707676 -2.3012226 48
-7.7079511 0.45118546 -1.1063071 3
-7.541616 0.44144905 -1.2174779 27
-7.4567151 0.43647936 -1.3358978 36
-7.4365549 0.43529925 -1.4651372 32
-7.4457579 0.43583795 -1.5991006 26
-7.5110793 0.43966156 -1.7465841 5
-7.5119357 0.43971169 -1.8796296 5
-5.6715136 0.33198243 -1.954427 4
-1.5997182 0.093639612 -0.74696535 11
-2.0646961 0.13532707 0.54618442 16
-5.3258352 0.34907302 1.0313697 22
-5.7278094 0.37541977 0.80304086 0
-6.4140573 0.42039874 0.55806589 6
-9.3475552 0.61267 0.48191923 1
-13.46343 0.88243818 0.45536596 3
-13.476951 1.8748735 0.37840697 3
-10.889104 -0.077922493 0.23874807 6
-13.820568 0.90584618 0.22192894 5
-15.228555 2.1185515 0.15564719 20
-15.04348 -0.10765123 0.063541107 4
-18.344612 1.2023672 -0.030481812 13
-18.378481 2.5567598 -0.13990763 41
-18.35387 -0.1313404 -0.24667951 37
-18.34919 1.2026672 -0.35564691 42
-18.37711 2.5565691 -0.46835756 37
-18.350639 -0.13131729 -0.5712567 36
-18.35199 1.2028507 -0.6817736 55
-18.350191 2.5528243 -0.79594386 44
-18.309723 -0.13102448 -0.89391613 66
-18.353054 1.2029204 -1.0073673 42
-18.349262 2.552695 -1.123361 52
-8.4131784 -0.060204752 -0.55984938 2
-18.344427 1.2023549 -1.33228 41
-18.326797 2.5495698 -1.4497421 35
-7.684587 -0.054990947 -0.64733541 35
-18.314255 1.2003773 -1.6548018 49
-9.9933329 1.3902429 -0.96902728 0
-7.7317262 -0.055328276 -0.78824353 2
-9.5877018 0.62840998 -1.0363275 0
-18.276915 1.19793 -2.3002257 69
-15.986085 1.0477813 -2.2954454 1
-7.6171627 0.49925426 -1.2302064 12
-7.5242105 0.49316189 -1.3485737 15
-7.4920807 0.491056 -1.4767163 20
-7.5752268 0.49650568 -1.627611 2
-7.5311556 0.49361706 -1.7520111 3
-7.5241728 0.49315941 -1.8835071 6
-5.6803808 0.37231112 -1.9583306 4
-1.5700839 0.10290854 -0.73344564 13
-2.0675581 0.15001795 0.54720533 16
-5.2880149 0.38368797 1.0245395 24
-5.6736856 0.41167146 0.79583627 3
-6.3831439 0.46314839 0.55564404 6
-9.3510189 0.67849153 0.48233023 1
-12.440194 0.90263605 0.42096055 18
-13.471446 1.9700719 0.37862936 3
-10.48548 -0.001829826 0.22989255 4
-13.789973 1.0005733 0.22154441 13
-15.229224 2.2271302 0.15580915 27
-18.363836 -0.0032046817 0.07756374 39
-18.35173 1.3315655 -0.030508341 36
-18.379972 2.6878974 -0.14005843 39
-18.354342 -0.0032030246 -0.24667951 43
-18.336357 1.3304501 -0.35556954 44
-18.378597 2.6876965 -0.46886227 37
-18.343115 -0.0032010656 -0.57100779 37
-18.339159 1.3306533 -0.68162543 48
-18.347738 2.6831837 -0.79663062 46
-18.306198 -0.0031946232 -0.8937211 46
-18.344208 1.3310196 -1.0073673 42
-18.350748 2.6836236 -1.1245714 54
-8.4493141 -0.0014744938 -0.56223959 2
-18.347523 1.3312601 -1.3331474 41
-10.030246 1.4668288 -0.79423374 0
-7.6807981 -0.0013403797 -0.64699966 33
-18.309401 1.3284942 -1.655161 45
-9.8218527 1.4363533 -0.95334846 0
-7.7756977 -0.0013569406 -0.79270607 2
-9.6068802 0.69705635 -1.0389011 0
-18.27602 1.3260721 -2.3012226 67
-15.942838 1.156781 -2.2903395 1
-11.974026 0.86881179 -2.1471546 1
-10.627913 0.77114046 -2.0958102 1
-9.6351328 0.69910628 -2.0712001 2
-7.5508428 0.54787433 -1.7574381 0
-7.5205464 0.54567605 -1.8835071 7
-5.6587801 0.41058996 -1.9518245 4
-1.5910228 0.11544149 -0.74358547 12
-2.0510392 0.16322134 0.5431217 15
-5.3008671 0.4218421 1.0275751 40
-5.5837965 0.44435754 0.78364378 19
-6.4075623 0.50991267 0.55806589 6
-9.3619823 0.74502498 0.48315227 2
-12.43359 0.98946291 0.42096055 29
-13.465269 2.0652847 0.37885177 3
-13.412466 0.091298223 0.29407308 10
-13.814547 1.0993593 0.2220571 10
-15.225165 2.3352153 0.15593062 21
-18.359411 0.12497192 0.077546842 42
-18.377872 1.462508 -0.030568032 33
-18.368666 2.8173611 -0.14011875 39
-18.357916 0.12496174 -0.24673326 35
-18.342569 1.4596984 -0.35587895 43
-18.359386 2.815938 -0.46886227 39
-18.354683 0.12493973 -0.57138115 38
-18.353331 1.4605548 -0.68251449 47
-18.34831 2.814239 -0.79748905 42
-18.317757 0.12468838 -0.89430624 44
-18.350395 1.4603212 -1.0082422 42
-18.343405 2.8134866 -1.1252978 47
-8.5089846 0.057920385 -0.56622338 2
-18.345736 1.4599506 -1.3337256 39
-9.6334763 1.4775696 -0.76361418 0
-7.6846056 0.052308865 -0.64733541 36
-18.287766 1.4553373 -1.6540835 76
-9.2448521 1.4179629 -0.8982814 0
-7.7596002 0.052819349 -0.79108334 3
-18.29571 1.4559695 -1.9795742 50
-18.282143 1.4548897 -2.3032162 40
-15.902797 1.2655418 -2.2858007 1
-13.616702 1.0836148 -2.2013884 2
-11.924492 0.94894904 -2.1394081 2
-10.62227 0.84531844 -2.0958102 2
-9.602725 0.76418322 -2.0653303 3
-8.7547932 0.69670492 -2.0387368 2
-7.5126848 0.59785813 -1.8825377 10
-5.644464 0.44918549 -1.9479209 5
-1.5901783 0.1265461 -0.74358547 12
-2.0498497 0.17753632 0.5431217 14
-5.2977934 0.45883885 1.0275751 40
-5.6002917 0.48503807 0.7864148 20
-6.4157567 0.55566508 0.55910385 7
-9.3923721 0.81346798 0.48500186 2
-12.442309 1.0776213 0.42150024 28
-13.462366 2.1611412 0.37918535 4
-11.908006 0.1642008 0.26110604 23
-13.802551 1.1954311 0.22199301 12
-15.228238 2.4446201 0.15613309 24
-15.526385 0.21409503 0.065585367 11
-18.367214 1.5907741 -0.030568032 42
-18.388042 2.95187 -0.14042033 41
-18.344601 0.2529557 -0.246572 33
-18.33193 1.5877181 -0.35587895 41
-18.370867 2.9491127 -0.46966979 40
-18.341372 0.25291118 -0.57100779 39
-18.346668 1.5889945 -0.68266267 52
-18.347944 2.9454329 -0.79834747 72
-18.320436 0.25262249 -0.89450127 43
-18.339752 1.5883956 -1.0082422 46
-9.6741428 1.5530097 -0.59412235 2
-8.6001616 0.11858857 -0.57233179 2
-18.339069 1.5883365 -1.3340148 40
-9.2803755 1.4897976 -0.73643148 0
-7.6840534 0.10595626 -0.64733541 33
-18.300974 1.585037 -1.6562387 65
-8.9752588 1.4408166 -0.87304235 0
-7.6516094 0.10550888 -0.78012985 0
-18.312836 1.5860643 -1.9825768 51
-18.291309 1.5841999 -2.3057084 38
-15.893575 1.3765335 -2.2858007 1
-13.61274 1.1789917 -2.2020247 1
-11.897963 1.0304759 -2.1358871 3
-10.60829 0.91877794 -2.0942662 2
-9.6166391 0.8328917 -2.0695229 3
-8.7380705 0.75679934 -2.0360231 2
-7.5237932 0.65163147 -1.8864152 8
-5.6638012 0.4905386 -1.9557282 6
-1.5675843 0.13576759 -0.73344564 13
-2.040859 0.19112144 0.54107994 10
-4.6610022 0.43649146 0.90463036 13
-5.6204338 0.52633983 0.78974003 9
-6.4037857 0.59969884 0.5584119 3
-9.3864641 0.87901932 0.48500186 2
-12.438463 1.1648316 0.42163515 34
-13.48244 2.2610252 0.38018614 4
-13.429874 0.27897334 0.29451147 6
-13.821743 1.2943723 0.22244161 12
-15.226579 2.5535197 0.15629505 20
-15.320558 0.31824777 0.064723738 3
-18.375574 1.7208275 -0.030601192 35
-18.390656 3.0841401 -0.14060129 38
-18.342386 0.381019 -0.246572 41
-18.344292 1.7178979 -0.35634303 46
-18.389265 3.0839067 -0.47067916 41
-18.343155 0.38103494 -0.57113224 39
-18.351046 1.7185305 -0.68325543 52
-18.346642 3.0767586 -0.79920596 68
-18.318226 0.3805171 -0.89450127 46
-18.332193 1.7167649 -1.008461 42
-9.4386168 1.5828699 -0.58032244 2
-8.6669588 0.18003523 -0.57684666 2
-18.323563 1.7159568 -1.3337256 42
-9.0141125 1.5116799 -0.71612263 0
-7.6950812 0.15984681 -0.64834267 34
-18.309296 1.7146207 -1.6580346 66
-8.7529316 1.4678795 -0.8523922 0
-7.6427293 0.15875933 -0.77931851 1
-18.317154 1.7153566 -1.9842925 52
-18.287708 1.712599 -2.3067052 36
-15.87175 1.4863504 -2.2840986 1
-13.580585 1.2717885 -2.1982062 1
-11.898319 1.1142485 -2.1372955 3
-10.585985 0.9913516 -2.0911784 4
-9.6028013 0.89927882 -2.0678458 3
-8.728694 0.81742084 -2.0351188 3
-7.4997416 0.70233238 -1.8815683 7
-5.6489401 0.5290094 -1.9518245 7
-1.5557692 0.14569397 -0.72837573 14
-2.0279307 0.2042022 0.53801721 1
-4.4780927 0.45092094 0.86972016 4
-5.7388086 0.57786858 0.80692029 2
-6.4192677 0.64638734 0.5601418 5
-9.4238186 0.94893014 0.48726246 2
-12.449917 1.2536427 0.42230976 26
-13.474205 2.356473 0.38040853 4
-13.435595 0.37294027 0.29468682 3
-13.836246 1.393239 0.22282614 13
-15.23202 2.6638935 0.15653799 25
-15.225999 0.42263764 0.06433516 3
-18.398932 1.8526779 -0.030660883 32
-18.384436 3.2152123 -0.14072192 44
-18.343279 0.50916594 -0.24662575 31
-18.355724 1.8483273 -0.35680711 49
-18.379105 3.2142799 -0.47098199 39
-18.348042 0.50929815 -0.57138115 39
-18.354511 1.848205 -0.68384814 57
-18.34046 3.2075214 -0.79989266 70
-18.315123 0.50838441 -0.89450127 72
-18.351551 1.8479071 -1.010211 47
-9.1520281 1.6005774 -0.56337517 2
-8.6894283 0.24119794 -0.57844019 1
-18.354801 1.8482342 -1.336906 39
-8.7833614 1.5361022 -0.69862574 0
-7.7376056 0.2147776 -0.65203595 17
-18.300842 1.8428009 -1.6583937 71
-8.4836092 1.4836792 -0.82715315 0
-7.6454124 0.21221852 -0.77972418 0
-18.308689 1.843591 -1.9847215 57
-18.291101 1.84182 -2.3086989 36
-15.837349 1.5947397 -2.2806947 1
-13.555659 1.3649852 -2.1956606 1
-11.905921 1.1988652 -2.1401124 3
-10.582711 1.0656247 -2.0919504 4
-9.5846148 0.96512157 -2.0653303 4
-8.7150221 0.87755793 -2.0333097 3
-7.5178227 0.75700617 -1.8873847 6
-5.6338191 0.56729668 -1.9479209 6
-1.5727502 0.15836787 -0.73682559 14
-2.0687535 0.22291254 0.54924715 2
-5.2948313 0.57052916 1.0290929 14
-5.7464504 0.61919206 0.8085829 8
-6.418561 0.69161338 0.56048775 4
-9.504343 1.0241128 0.49178365 15
-12.452786 1.3418138 0.42271453 29
-13.488894 2.4562135 0.38129812 5
-13.428667 0.46659043 0.29459915 2
-13.822206 1.4893718 0.22276205 12
-15.240598 2.7751839 0.15682143 24
-14.603058 0.50739563 0.061716475 3
-18.377596 1.9802245 -0.030647617 33
-18.373346 3.3456309 -0.1408124 41
-18.351267 0.63763034 -0.24678701 35
-18.346352 1.9768578 -0.35688448 45
-18.403425 3.3511078 -0.47219327 39
-18.336048 0.63710153 -0.57113224 38
-18.357058 1.9780115 -0.68444085 54
-18.341209 3.3397791 -0.80092281 74
-18.311129 0.63623571 -0.89450127 64
-18.350117 1.9772637 -1.0108674 43
-8.8420973 1.6100712 -0.54497534 6
-18.336361 0.63711244 -1.2208859 45
-18.341452 1.9763298 -1.336906 40
-8.5174122 1.5509486 -0.67831683 0
-7.8713565 0.27349696 -0.66345161 2
-18.311296 1.9730806 -1.6605489 58
-8.2810974 1.5079178 -0.80841506 0
-7.6755605 0.26669389 -0.78296965 0
-18.311188 1.973069 -1.9864373 52
-18.301474 1.9720222 -2.3116894 37
-11.204058 1.2072607 -1.6146411 1
-13.549726 1.4600114 -2.1962969 1
-11.881602 1.2802676 -2.1372955 3
-10.575014 1.13948 -2.0919504 2
-9.565979 1.0307543 -2.0628147 5
-8.6815653 0.93545687 -2.0269783 3
-7.5084968 0.80905628 -1.8864152 6
-5.6334825 0.60701954 -1.9492221 7
-1.557188 0.16779028 -0.7300657 13
-2.0557027 0.23530774 0.54618442 5
-5.2987351 0.60652423 1.0306108 26
-5.7422175 0.65728784 0.8085829 3
-6.4019556 0.73280531 0.55944985 4
-10.049005 1.1502678 0.52034944 11
-12.43567 1.4234595 0.4224447 28
-13.468379 2.5448792 0.38118693 5
-13.433269 0.55597359 0.2947745 1
-13.982887 1.600563 0.22551773 19
-15.245439 2.8806584 0.15706438 23
-14.667312 0.60704798 0.062003687 3
-18.372005 2.1029673 -0.030660883 33
-18.378267 3.4726131 -0.14102352 41
-18.362619 0.75998867 -0.24700204 39
-18.352705 2.1007578 -0.35727122 48
-18.396513 3.4760606 -0.472597 42
-18.343403 0.7591933 -0.57150561 38
-18.351479 2.1006176 -0.68473721 50
-18.342218 3.4658017 -0.80195296 70
-18.318481 0.75816184 -0.89508647 46
-18.344536 2.099823 -1.0113049 44
-8.6193705 1.6286485 -0.53190172 7
-18.311792 0.75788498 -1.219558 49
-18.335867 2.0988307 -1.3374842 40
-8.2796688 1.5644611 -0.66019505 0
-18.311417 0.75786948 -1.543801 43
-18.3176 2.0967395 -1.6623449 61
-7.9892182 1.50958 -0.78088152 5
-7.7889266 0.32236663 -0.79473448 3
-18.309553 2.0958185 -1.9877241 44
-10.802418 1.2365079 -1.5579073 5
-11.06014 1.2660083 -1.7940774 2
-10.933976 1.2515669 -1.9682838 1
-10.582822 1.2113718 -2.0950382 3
-9.5472746 1.0928369 -2.0602989 4
-8.6829128 0.99389702 -2.0287871 3
-7.5068212 0.85927469 -1.8873847 5
-5.629333 0.64436638 -1.9492221 6
-1.5848566 0.18141195 -0.74358547 12
-2.0539224 0.25037044 0.54618442 7
-5.2980452 0.64582473 1.0313697 41
-5.7883649 0.70559406 0.81578755 0
-6.4043231 0.78067857 0.5601418 5
-10.06013 1.2263166 0.52137697 6
-12.440775 1.5165141 0.42298439 23
-13.476826 2.648937 0.38196531 15
-13.436821 0.65481859 0.29494986 1
-13.978718 1.7039874 0.2256459 22
-15.235686 2.9946496 0.15718584 26
-15.605341 0.76049733 0.065990843 2
-18.395803 2.2424242 -0.030727204 33
-18.387642 3.614182 -0.14129494 43
-18.36055 0.89476734 -0.24705578 30
-18.352692 2.2371688 -0.3575806 45
-18.405849 3.6177609 -0.47350547 39
-18.345331 0.89402574 -0.57175452 42
-18.355427 2.2375023 -0.68547809 49
-18.339848 3.6047881 -0.80298305 73
-18.312431 0.89242238 -0.89508647 48
-18.344509 2.2361717 -1.0121799 43
-8.4348202 1.6579057 -0.52124918 5
-18.305744 0.89209652 -1.219558 50
-18.347712 2.2365618 -1.3395081 38
-8.0801582 1.5881952 -0.64519775 9
-18.333237 0.89343631 -1.5461512 41
-18.305691 2.2314396 -1.6627041 58
-7.8411956 1.5412259 -0.76749712 14
-9.6703415 0.47126618 -0.9870286 1
-10.666719 1.300259 -1.1590053 4
-10.341615 1.2606292 -1.3083624 6
-10.254588 1.2500209 -1.4801822 6
-10.548799 1.2858846 -1.7126153 2
-10.553192 1.2864202 -1.9013832 2
-10.550282 1.2860655 -2.0904067 2
-9.5428896 1.1632656 -2.0611374 2
-8.6831293 1.058462 -2.0305963 5
-7.5195818 0.91662717 -1.8922316 5
-5.6244583 0.68561405 -1.9492221 6
-1.5510947 0.18907639 -0.72837573 13
-2.0406172 0.26321912 0.5431217 18
-5.2973022 0.68329877 1.0321286 48
-8.8438883 1.1407727 1.2475121 19
-6.3947649 0.82486039 0.5597958 5
-9.7819147 1.2617687 0.50740236 15
-17.16791 2.2144878 0.58421767 33
-13.559872 2.7637138 0.38485646 6
-14.72161 0.82048821 0.32326996 6
-13.986315 1.804094 0.22596633 20
-15.230087 3.1041298 0.15734781 24
-15.519776 0.86497289 0.065652952 4
-18.371767 2.3697734 -0.03071394 33
-18.37764 3.7456503 -0.14141558 40
-18.353857 1.0229263 -0.24705578 32
-18.356459 2.3677986 -0.35796735 43
-18.376228 3.7453625 -0.47340453 38
-18.350618 1.022746 -0.57212788 39
-18.355217 2.3676383 -0.6860708 48
-18.357309 3.7415066 -0.80487162 48
-18.321712 1.0211349 -0.89586663 42
-18.344299 2.36623 -1.0130548 42
-8.2978497 1.6912315 -0.51350182 1
-18.31501 1.0207614 -1.2206203 52
-18.339563 2.3656194 -1.3400863 38
-18.310635 1.0205175 -1.5448081 38
-10.063465 1.2980858 -0.91486442 11
-9.6231108 0.53633052 -0.98256606 0
-10.330009 1.3324672 -1.123403 6
-9.9271326 1.2805003 -1.2570248 5
-9.8372021 1.2689002 -1.4211792 4
-10.19882 1.3155452 -1.6572464 5
-10.450231 1.3479747 -1.884482 1
-10.541047 1.359689 -2.0904067 2
-9.5267782 1.2288586 -2.0594604 2
-8.6793928 1.1195544 -2.0315008 5
-7.5129995 0.96910143 -1.8922316 5
-5.6120319 0.72389567 -1.9466196 6
-1.5785023 0.20361093 -0.7418955 12
-2.0463941 0.27850196 0.54516351 16
-5.2962942 0.72079378 1.0328876 48
-8.8357086 1.2024869 1.2475121 16
-6.4006963 0.87109631 0.56083375 4
-10.089526 1.3731238 0.52384311 7
-16.906435 2.3008642 0.57585245 30
-13.469827 2.8434467 0.38285491 5
-13.426369 0.8423636 0.29494986 0
-13.985268 1.9033108 0.22615859 20
-15.24718 3.2186418 0.15775272 24
-15.585217 0.97780859 0.065957054 11
-18.374592 2.5006714 -0.030747101 35
-18.386265 3.8812947 -0.14168701 35
-18.362236 1.1520373 -0.24727081 37
-18.347404 2.4969714 -0.35812205 43
-18.396582 3.8834724 -0.47461581 38
-18.355001 1.1515834 -0.57250124 38
-18.362003 2.4989583 -0.68695986 52
-18.362022 3.8761773 -0.80624515 43
-18.322111 1.1495199 -0.89625674 55
-18.343163 2.4963939 -1.0139298 42
-8.2897463 1.7499448 -0.51374394 3
-18.315405 1.1490992 -1.2211515 49
-18.358179 2.4984379 -1.3426884 39
-7.8699102 1.6613184 -0.63020039 0
-18.31102 1.1488241 -1.5454797 39
-10.192319 1.3871133 -0.92743617 29
-7.7643714 1.6390395 -0.76214343 0
-9.6032457 0.60250276 -0.98094332 1
-9.8791065 1.344487 -1.0753614 3
-9.5325584 1.2973239 -1.2081792 5
-9.4318409 1.2836168 -1.3638781 5
-9.696352 1.3196152 -1.577057 4
-9.7187757 1.322667 -1.754202 0
-10.515741 1.4311291 -2.0873189 2
-9.5024652 1.2932284 -2.0561063 2
-8.6443396 1.1764426 -2.0251691 2
-7.9597979 1.0832806 -2.0066185 6
-5.6068411 0.76305741 -1.9466196 7
-1.57345 0.21413708 -0.74020553 12
-2.0444 0.29278168 0.54516351 14
-5.2989087 0.75886488 1.0344054 36
-5.956625 0.85305744 0.84183514 4
-6.1853867 0.88581878 0.5424968 4
-10.139009 1.4520233 0.52692574 8
-16.700008 2.3916337 0.56937611 31
-13.476991 2.9433866 0.38363329 7
-13.731329 0.95778131 0.30178878 8
-13.979558 2.0020339 0.22628677 16
-15.228246 3.3258622 0.15779321 22
-15.777524 1.1005065 0.066801794 5
-18.396282 2.6345599 -0.030813424 35
-18.386074 4.0155349 -0.14189813 40
-18.349754 1.2799236 -0.24721706 29
-18.341404 2.6267006 -0.35835409 45
-18.388556 4.0160766 -0.47512048 37
-18.346514 1.2796975 -0.57250124 37
-18.355982 2.6287882 -0.68740445 49
-18.346228 4.0068321 -0.80676019 73
-18.317625 1.2776824 -0.89645177 68
-18.349009 2.6277897 -1.0152425 47
-8.2578239 1.8035159 -0.51253343 4
-18.302954 1.2766591 -1.2208859 51
-18.340288 2.6265411 -1.3426884 35
-7.9048715 1.7264309 -0.6339497 0
-18.310505 1.2771858 -1.5461512 36
-10.158725 1.4548467 -0.92528099 0
-7.7255096 1.687258 -0.75946653 0
-18.288542 1.2756538 -1.8689851 42
-9.4954863 1.3598632 -1.0346117 4
-9.1893253 1.3160175 -1.1658132 6
-9.081646 1.3005966 -1.3145198 5
-9.3116236 1.333532 -1.5159605 8
-9.3000412 1.3318732 -1.6802593 8
-10.489954 1.5022825 -2.0842311 2
-9.4699755 1.3562098 -2.051075 2
-8.6243448 1.2351056 -2.0224557 3
-7.9481997 1.138274 -2.0056491 9
-5.6051216 0.8027181 -1.9479209 6
-1.5790944 0.22614455 -0.74358547 13
-2.0346572 0.30589718 0.5431217 16
-5.2934818 0.79583979 1.0344054 37
-5.6214633 0.84514958 0.79528207 0
-6.3839688 0.95978731 0.56048775 7
-10.156278 1.5269288 0.5283643 5
-16.441753 2.4719083 0.56114578 26
-13.502918 3.047967 0.38496765 6
-13.632601 1.0465802 0.29977217 15
-13.98897 2.1031487 0.22667128 16
-15.243672 3.4409013 0.15819812 21
-15.657786 1.2020545 0.066328742 12
-18.385351 2.7641153 -0.030826688 33
-18.3771 4.1481996 -0.14204893 39
-18.356323 1.4092222 -0.24743207 37
-18.342392 2.7576566 -0.35874084 46
-18.391275 4.1513987 -0.47592801 37
-18.361052 1.4095852 -0.57324797 38
-18.356947 2.7598448 -0.68814534 50
-18.352892 4.1427345 -0.80830538 55
-18.332161 1.4073672 -0.89762211 45
-18.357862 2.7599826 -1.0167737 43
-8.2138739 1.8540894 -0.51059657 4
-18.321451 1.4065452 -1.2227449 50
-7.8965168 1.7824533 -0.63426214 0
-18.33691 1.4077319 -1.549173 38
-9.7070894 1.4593964 -0.88505137 0
-7.7213101 1.7429047 -0.76023138 0
-18.310932 1.4057376 -1.8722305 45
-9.1868734 1.3811853 -1.002012 6
-8.8894854 1.336475 -1.1289299 8
-8.7551851 1.3162838 -1.2685655 5
-8.9896746 1.3515377 -1.4650465 6
-8.9439716 1.3446667 -1.6175841 4
-10.483091 1.576063 -2.0850029 1
-9.4834824 1.4257786 -2.0561063 2
-8.6270714 1.2970228 -2.0251691 2
-7.7903914 1.1712335 -1.9678433 5
-5.6031218 0.84239209 -1.9492221 6
-1.5631365 0.23500717 -0.73682559 13
-2.0515742 0.32310271 0.54822624 16
-5.291676 0.83338678 1.0351644 35
-8.7851086 1.3835679 1.2441869 20
-6.4125414 1.009912 0.56360161 4
-9.4863749 1.4940104 0.49404427 1
-16.198999 2.5511827 0.55345517 25
-13.512464 3.1494217 0.38585725 7
-13.648871 1.1437318 0.30029824 15
-13.997651 2.2044921 0.22705579 15
-15.23486 3.5508699 0.15836008 23
-15.569293 1.3046569 0.065990843 5
-18.393265 2.8967578 -0.030873114 33
-18.386648 4.2854743 -0.14235051 44
-18.357994 1.5383413 -0.24759333 34
-18.342445 2.8887541 -0.35912755 49
-18.396893 4.2878618 -0.47683647 40
-18.350763 1.5377352 -0.57324797 39
-18.353025 2.8904207 -0.68873805 53
-18.35466 4.2780185 -0.80967885 54
-18.333832 1.5363164 -0.89820725 45
-18.365765 2.892427 -1.0183049 46
-8.1812878 1.9068564 -0.50938606 5
-18.319139 1.5350852 -1.2232761 49
-9.5095425 1.4976592 -0.69765443 0
-7.8799963 1.8366327 -0.6339497 0
-18.330608 1.5360463 -1.5495087 36
-9.3857727 1.4781666 -0.85667515 0
-7.6934433 1.7931519 -0.75870174 0
-18.312569 1.5345347 -1.8734475 38
-8.90201 1.4019789 -0.97198594 8
-8.6094246 1.3558995 -1.0945386 8
-8.4015837 1.3231666 -1.2186399 4
-8.5743189 1.3503708 -1.3988585 5
-8.5531874 1.3470426 -1.548571 1
-8.5565844 1.3475776 -1.7036659 1
-8.3799276 1.3197559 -1.8187988 1
-8.5947123 1.3535824 -2.0197423 2
-7.7743578 1.2243847 -1.9659045 4
-5.5896311 0.88031179 -1.9466196 6
-1.5686203 0.24704222 -0.74020553 13
-2.0607171 0.33930257 0.55128896 16
-5.3128552 0.87477583 1.0404767 39
-8.7244215 1.4364992 1.2369822 20
-6.401403 1.054008 0.56325561 4
-9.4875393 1.5621486 0.49466079 1
-15.97173 2.6297879 0.54630423 27
-13.50181 3.246484 0.38619083 10
-13.668433 1.2415167 0.30091199 17
-13.997705 2.3047595 0.22731213 13
-15.225255 3.6608829 0.15852204 19
-16.017916 1.4549224 0.067933738 3
-18.404169 3.0302956 -0.030926172 35
-18.395172 4.4230838 -0.14265209 39
-18.362741 1.6679052 -0.24780835 35
-18.345509 3.020637 -0.35959166 72
-18.397614 4.4236708 -0.47764397 39
-18.351528 1.6668866 -0.57362133 36
-18.352121 3.0217257 -0.68947893 53
-18.339888 4.40979 -0.81036562 58
-18.334597 1.6653488 -0.89879239 47
-18.345125 3.0205736 -1.0183049 32
-8.1406021 1.9573921 -0.50769138 5
-18.327852 1.664736 -1.2246041 54
-9.2036152 1.5153998 -0.6759702 0
-7.8592277 1.8897361 -0.63332486 0
-18.323408 1.6643325 -1.5498445 33
-9.1157856 1.5009383 -0.83296841 0
-7.6884799 1.8486801 -0.75946653 0
-18.313299 1.6634142 -1.8746647 40
-8.6644087 1.426618 -0.9471072 10
-8.3373699 1.3727702 -1.0611442 8
-8.1186552 1.3367581 -1.1789262 9
-8.4672689 1.3941584 -1.3829479 3
-8.2949219 1.3657809 -1.5035012 1
-8.2449007 1.3575449 -1.6434548 0
-8.1621161 1.3439142 -1.7735175 3
-8.4658689 1.3939279 -1.9917028 2
-7.7656207 1.2786301 -1.9659045 5
-5.5758848 0.91808432 -1.9440173 6
-1.5918986 0.26211035 -0.75203526 12
-2.0582983 0.35367981 0.55128896 16
-5.3221021 0.91450304 1.0435123 41
-8.6829472 1.4920011 1.2325486 9
-6.393889 1.0986695 0.56325561 3
-11.716566 2.0132713 0.61159557 20
-15.759925 2.7080464 0.539693 25
-13.509865 3.3483605 0.38708043 8
-13.667393 1.3376892 0.30108735 15
-13.993101 2.4044509 0.22750439 15
-15.23815 3.7767084 0.15892695 23
-15.812303 1.5476211 0.067105897 13
-18.386511 3.1593757 -0.030932805 35
-18.391024 4.5581346 -0.14286321 38
-18.366573 1.7976191 -0.24802338 44
-18.339741 3.1513393 -0.35990104 76
-18.39345 4.5587358 -0.47835055 40
-18.343422 1.7953532 -0.57374579 43
-18.354218 3.1538267 -0.690368 54
-18.347445 4.5473337 -0.81208253 63
-18.330477 1.7940861 -0.8991825 47
-9.388134 1.6131741 -0.5217309 2
-8.1112375 2.0103347 -0.50672293 7
-18.3277 1.7938143 -1.2254008 50
-8.9490337 1.5377229 -0.65804458 0
-7.8574557 1.947436 -0.63426214 0
-18.335144 1.7945429 -1.551859 36
-8.8341703 1.5179859 -0.80818409 0
-7.6869807 1.9051844 -0.76061374 0
-18.328962 1.793938 -1.8775045 41
-8.4269085 1.4480056 -0.92222852 10
-8.0928936 1.3906114 -1.0312388 10
-7.9335184 1.3632258 -1.1533961 16
-8.1109419 1.3937128 -1.3263062 0
-7.9863753 1.3723083 -1.4492766 2
-7.9335098 1.3632244 -1.5832437 1
-7.8403106 1.3472098 -1.7055955 2
-8.0258398 1.3790895 -1.8903992 1
-7.7832785 1.33741 -1.9726901 5
-5.5767961 0.95826739 -1.9466196 7
-1.5721647 0.27014691 -0.74358547 13
-2.0481646 0.36667767 0.54924715 16
-5.3271847 0.95371222 1.0457891 32
-5.424099 0.97106254 0.77089709 4
-6.4017529 1.1460894 0.56463951 3
-11.737615 2.1013551 0.61344516 19
-15.62258 2.7968702 0.53564531 26
-13.50553 3.4475405 0.38763642 8
-13.669653 1.434325 0.30135038 18
-14.007469 2.5077212 0.22801708 12
-15.242416 3.8909132 0.15925089 25
-15.888631 1.6671572 0.067477584 6
-18.399441 3.2940047 -0.030992495 32
-18.397509 4.69631 -0.1431648 39
-18.36153 1.9266328 -0.24813087 33
-18.356659 3.2863455 -0.36067453 54
-18.388298 4.6939588 -0.47905713 37
-18.370203 1.9275428 -0.57499039 39
-18.363228 3.2875216 -0.69155347 50
-18.346228 4.6832194 -0.813456 54
-18.329424 1.923264 -0.89976764 46
-9.1093016 1.6308148 -0.50685555 2
-8.0853996 2.0639501 -0.50599664 9
-18.326637 1.9229716 -1.2261976 47
-8.6749649 1.5530566 -0.63867331 0
-7.8629875 2.0071754 -0.63582438 0
-18.322168 1.9225026 -1.551859 39
-8.572382 1.5346916 -0.78519577 0
-7.6542029 1.9538791 -0.75870174 0
-18.327866 1.9231004 -1.8787215 38
-8.2247734 1.47246 -0.90121025 11
-7.9110923 1.4163026 -1.0093081 11
-7.7990847 1.3962501 -1.1352413 15
-7.8094707 1.3981096 -1.2785745 14
-7.74017 1.3857027 -1.4063194 17
-7.6958594 1.3777699 -1.5376993 5
-7.8114643 1.3984663 -1.7014028 3
-7.8702703 1.4089943 -1.8560283 1
-7.758472 1.3889793 -1.9688126 6
-5.5588002 0.99517769 -1.942716 7
-1.5559653 0.27856046 -0.73682559 14
-2.0569613 0.38309199 0.55230987 17
-5.3049531 0.98800349 1.0427535 35
-5.2107816 0.97046483 0.74152428 5
-6.3975139 1.1914839 0.56498551 3
-11.73444 2.185442 0.61406165 18
-15.453328 2.8780541 0.53051823 23
-13.512072 3.5498641 0.38852599 10
-13.695074 1.5337279 0.30213949 17
-14.021075 2.6113091 0.22852977 12
-15.230356 4.0012884 0.15941285 22
-15.84878 1.7749239 0.067359321 12
-18.403522 3.4275036 -0.031038919 35
-18.391356 4.8317394 -0.14337592 36
-18.367506 2.0569992 -0.24839966 39
-18.345064 3.4166162 -0.36090657 104
-18.397625 4.8333864 -0.48016745 36
-18.372192 2.057524 -0.57548821 38
-18.355549 3.4185686 -0.69214618 50
-18.347874 4.8203158 -0.81500119 57
-18.331432 2.0529594 -0.90054786 46
-8.8935156 1.6563435 -0.4954803 1
-8.078517 2.1223717 -0.50648081 11
-18.324665 2.0522015 -1.2269943 52
-8.4403515 1.5719454 -0.62219328 0
-7.837214 2.0589769 -0.63488704 0
-18.324144 2.0521431 -1.553202 35
-8.3382177 1.5529239 -0.76472175 0
-7.6596317 2.0123229 -0.76061374 0
-18.310038 2.0505633 -1.8783158 43
-8.0383568 1.4970772 -0.88190782 16
-7.7254338 1.438798 -0.98687905 3
-7.6957245 1.4332649 -1.1216252 29
-7.7102275 1.4359659 -1.2639368 25
-7.6528883 1.425287 -1.392235 24
-7.6281767 1.4206846 -1.5261203 22
-7.6784706 1.4300514 -1.6745694 0
-7.8602419 1.4639049 -1.8560283 3
-7.7791071 1.4487941 -1.9765677 4
-5.559154 1.0353463 -1.9453185 6
-1.5718036 0.29273537 -0.74527544 13
-2.0390484 0.3945044 0.54822624 17
-5.3056383 1.026507 1.0442713 30
-4.9238501 0.95264065 0.70162165 23
-6.3851271 1.2353609 0.56463951 3
-11.777727 2.278693 0.61714429 19
-15.389685 2.9775155 0.52903408 14
-13.510119 3.6503673 0.38919318 12
-13.973915 1.6638153 0.30854002 25
-14.05355 2.7190073 0.22936288 9
-15.248387 4.1200385 0.15989874 15
-15.967075 1.9011323 0.06791684 5
-18.398783 3.5597 -0.031072082 32
-18.384207 4.9673214 -0.14358702 39
-18.368584 2.1870699 -0.24861467 32
-18.348249 3.5499232 -0.36144802 69
-18.394316 4.9700527 -0.48097497 38
-18.361349 2.1862085 -0.57561266 38
-18.37048 3.554224 -0.69362795 53
-18.352356 4.9587154 -0.81671804 59
-18.328554 2.1823037 -0.901133 46
-8.6307726 1.6698365 -0.48147997 1
-8.1020479 2.1891332 -0.50890189 14
-18.329706 2.182441 -1.2283223 52
-8.1941576 1.5853626 -0.60484588 9
-7.841897 2.1188416 -0.63644928 0
-18.325203 2.1819048 -1.554545 38
-8.0612049 1.5596397 -0.74029666 1
-7.6569281 2.0688639 -0.76176101 0
-10.977166 1.3070049 -1.1269895 1
-7.8676238 1.5221865 -0.86432111 13
-7.6645455 1.4828961 -0.98039955 29
-7.6388812 1.4779307 -1.1148171 48
-7.6263485 1.4755058 -1.2518448 32
-7.5538373 1.4614768 -1.3760381 24
-7.5371523 1.4582486 -1.5099096 33
-7.5799823 1.4665352 -1.655283 1
-7.8498306 1.518744 -1.8560283 3
-7.7840433 1.5060159 -1.9804453 5
-5.5480766 1.0734128 -1.9440173 6
-1.5554838 0.30094683 -0.73851556 13
-2.0514121 0.41177458 0.55230987 17
-5.3214455 1.0681598 1.0488248 41
-4.952035 0.99400902 0.70660949 24
-6.3802547 1.2806917 0.56498551 3
-11.773281 2.36322 0.61776084 17
-13.977085 2.8055837 0.48113632 0
-13.526686 3.756366 0.39041635 9
-13.969893 1.762332 0.30871537 27
-13.975406 2.8052466 0.22840159 11
-15.250084 4.2349544 0.16022266 17
-15.897854 2.0055482 0.067680314 11
-18.408777 3.6951458 -0.031131772 38
-18.395329 5.1083899 -0.14394894 36
-18.352869 2.3152535 -0.24861467 33
-18.346544 3.6826539 -0.3619121 45
-18.409258 5.112258 -0.48228717 35
-18.361506 2.3163431 -0.57611048 39
-18.364815 3.6863213 -0.69436884 53
-18.344244 5.0942035 -0.81791991 59
-18.344584 2.3142083 -0.90269339 44
-8.5092602 1.7080414 -0.47535482 1
-8.0865669 2.2456429 -0.50890189 14
-18.333824 2.312851 -1.2296501 46
-8.0303411 1.6119093 -0.59357005 17
-7.8269134 2.1735368 -0.63644928 0
-18.329298 2.3122799 -1.5562239 33
-7.9251299 1.5907905 -0.72880244 11
-7.6461344 2.1233344 -0.76214343 0
-10.261066 1.2944555 -1.0543721 7
-7.6696453 1.5395077 -0.84373182 1
-7.7201571 1.5496469 -0.98887271 5
-7.6167307 1.5288863 -1.1131152 43
-7.5810151 1.5217173 -1.2461169 61
-7.5588923 1.5172766 -1.378855 1
-7.538332 1.5131496 -1.5122254 160
-7.500536 1.5055629 -1.6401892 2
-7.8734183 1.5804106 -1.8641688 2
-7.7809496 1.5618496 -1.982384 6
-5.5478649 1.1136084 -1.9466196 7
-1.5426812 0.30965835 -0.73344564 14
-2.0447009 0.42529851 0.55128896 17
-5.3330841 1.1092833 1.0526195 40
-4.9410963 1.0277497 0.70605528 22
-6.3594532 1.3227684 0.56394756 4
-11.729118 2.4396605 0.61632228 12
-15.053064 3.1310425 0.51891482 7
-13.507822 3.8529015 0.39063877 12
-13.977071 1.8624585 0.30915377 31
-14.033794 2.919034 0.22968331 11
-15.250918 4.3500934 0.16054659 23
-16.034132 2.136564 0.068322316 6
-18.398197 3.8268313 -0.0311583 36
-12.031769 3.4318798 -0.094337374 1
-18.36401 2.4470224 -0.24899095 28
-18.343882 3.8155336 -0.36237618 47
-12.001361 3.4232063 -0.31503102 7
-18.360739 2.4465866 -0.5766083 40
-18.362112 3.8193257 -0.69525796 45
-18.346663 5.2331076 -0.81963676 55
-18.320059 2.4411659 -0.90230328 62
-8.680913 1.8056328 -0.48563632 3
-8.0822115 2.3053284 -0.50962818 11
-18.31723 2.440789 -1.2296501 50
-7.8383932 2.2357829 -0.63863641 0
-18.332464 2.4428189 -1.5579026 40
-7.6540985 2.1832156 -0.76443785 0
-10.090055 1.3445097 -1.037739 1
-7.6898589 1.5994933 -0.84716338 2
-7.7091498 1.6035058 -0.98887271 9
-7.5903645 1.5787984 -1.1108458 45
-7.5702066 1.5746056 -1.2461169 47
-7.5249853 1.5651995 -1.3746296 72
-7.4699459 1.5537513 -1.5006464 255
-7.4324045 1.5459427 -1.627611 3
-8.4725523 1.7622937 -2.0088882 2
-7.7660565 1.6153424 -1.9814146 7
-5.5325484 1.150772 -1.9440173 6
-1.5475807 0.3218973 -0.73682559 14
-2.0530245 0.44200483 0.55435169 16
-5.3021736 1.1415286 1.0480659 48
-4.9454188 1.0647213 0.7077179 24
-6.3500638 1.3671336 0.56394756 4
-11.700085 2.5189636 0.61570573 4
-12.928241 2.7833788 0.44632611 7
-11.89577 3.4830747 0.34471396 16
-13.971647 1.961103 0.30932912 30
-14.056083 3.026197 0.23038825 6
-11.853697 3.4707553 0.12503603 20
-15.979215 2.2428913 0.068153366 9
-18.394493 3.9602327 -0.031198094 32
-11.781032 3.4494791 -0.092557989 14
-18.362324 2.5773916 -0.24920598 34
-18.355894 3.9519224 -0.36314967 42
-11.723887 3.4327474 -0.30836904 18
-18.355089 2.5763762 -0.57698166 38
-18.366264 3.954155 -0.69644338 48
-11.923921 3.491317 -0.53377688 23
-18.322353 2.5717814 -0.90327853 47
-8.6251459 1.8569462 -0.48322999 3
-8.0697527 2.3628187 -0.50987029 12
-18.327412 2.5724914 -1.2315092 53
-7.8315444 1.6860882 -0.58055949 1
-7.8264198 2.2915711 -0.63894886 0
-10.187697 1.4299762 -0.86658335 5
-7.8086767 1.6811649 -0.72018182 0
-7.6424909 2.2377169 -0.76482028 0
-9.7060518 1.362371 -0.99919909 1
-7.6629539 1.6497916 -0.8454476 3
-7.5774903 1.6313918 -0.97342157 20
-7.5868998 1.6334175 -1.1119804 39
-7.5474477 1.6249237 -1.2442076 40
-7.4792309 1.610237 -1.3682917 13
-7.4896116 1.6124719 -1.5068219 38
-7.4558425 1.6052016 -1.6351579 4
-8.4333782 1.8156598 -2.0025568 2
-7.7545905 1.6695204 -1.9814146 7
-5.5169849 1.1877763 -1.9414148 6
-1.5382073 0.33116752 -0.73344564 15
-2.0385635 0.45380577 0.55128896 17
-5.3132424 1.1827838 1.0518605 32
-4.9494653 1.1018033 0.70938051 27
-6.3637033 1.4166276 0.56602347 3
-11.385869 2.5346148 0.60008705 3
-12.86557 2.8640118 0.44484195 7
-11.618423 3.4901159 0.3373749 18
-13.474956 1.987402 0.29863235 26
-14.093172 3.137289 0.23134954 9
-11.561029 3.4728749 0.12220167 19
-16.073967 2.3707266 0.068626426 6
-18.417154 4.0998535 -0.031284314 32
-11.500001 3.4545422 -0.090537332 16
-18.375536 2.7101817 -0.24963601 32
-18.355183 4.0860577 -0.36369112 45
-11.462198 3.4431865 -0.30211082 17
-18.360388 2.7079475 -0.57772845 39
-18.36162 4.0874906 -0.69733244 49
-11.612205 3.4882476 -0.52090025 22
-18.319763 2.7019556 -0.90405875 61
-8.5807819 1.9101728 -0.48147997 2
-8.0721798 2.4248421 -0.5110808 13
-18.336645 2.7044456 -1.2333683 47
-7.8429475 1.7459229 -0.58229429 0
-7.8369651 2.3541849 -0.64113593 0
-9.7437115 1.4370861 -0.82965028 0
-7.8006377 1.7365043 -0.72054106 0
-7.6457496 2.2967446 -0.76673234 0
-9.3538046 1.3795793 -0.96390462 1
-7.6512494 1.703249 -0.8454476 3
-7.6046557 1.6928768 -0.97840583 34
-7.5753112 1.6863443 -1.1119804 45
-7.5513382 1.6810077 -1.2467533 46
-7.4793377 1.6649796 -1.3704044 45
-7.47051 1.6630144 -1.505278 40
-7.5131721 1.6725115 -1.6502516 2
-7.7465334 1.7244602 -1.982384 7
-5.5085578 1.2262632 -1.9414148 7
-1.5500131 0.34504929 -0.74020553 14
-2.0541914 0.47236007 0.5563935 9
-5.312511 1.2216088 1.0533783 23
-4.9493747 1.1381058 0.71048892 27
-6.3653097 1.4636992 0.56706142 4
-10.970799 2.5227289 0.57912511 5
-12.786821 2.9403219 0.44281811 5
-11.337749 3.492281 0.32992461 17
-13.480514 2.0844822 0.29907075 17
-14.102109 3.2427716 0.23186222 5
-11.29568 3.4793229 0.11965074 18
-16.092602 2.4883873 0.068778478 6
-18.411474 4.2337079 -0.031324107 31
-11.223307 3.4570305 -0.088546842 22
-18.371979 2.8408461 -0.24985102 35
-18.357389 4.221271 -0.36430991 54
-11.185658 3.4454336 -0.29544884 35
-18.364742 2.8397272 -0.57847518 39
-18.348221 4.2191625 -0.69792515 44
-11.335499 3.4915881 -0.50956887 23
-18.332041 2.8346703 -0.90561914 47
-8.508852 1.9566054 -0.47819865 2
-8.0741329 2.4870141 -0.51229131 13
-9.8291893 1.5198805 -0.66183329 6
-7.7994628 1.7934819 -0.57998127 0
-7.8470163 2.4170573 -0.64332306 0
-9.4458895 1.4606112 -0.8051402 0
-7.7689123 1.7864568 -0.71874505 0
-7.6599708 2.3594429 -0.7697916 0
-9.0686607 1.4022806 -0.93550676 1
-7.6275449 1.7539494 -0.8441608 2
-7.5617099 1.7388107 -0.97441846 79
-7.563354 1.7391888 -1.1119804 44
-7.5355701 1.7328 -1.2461169 45
-7.4560194 1.7145073 -1.3682917 40
-7.462543 1.7160074 -1.5060499 42
-7.5584874 1.7380698 -1.6628299 3
-8.046463 1.8502795 -1.9166296 4
-7.7721267 1.787196 -1.9920778 7
-5.4961767 1.2638426 -1.9401135 6
-1.5475664 0.35586199 -0.74020553 13
-2.069659 0.49115363 0.56149805 13
-4.1574874 0.98661911 0.82570291 7
-4.9490175 1.1744581 0.71159732 26
-6.3626914 1.5099391 0.56775337 4
-10.669188 2.5319195 0.56412292 4
-12.734866 3.0221288 0.44173872 3
-11.175824 3.5280156 0.32592151 44
-13.489318 2.182375 0.29959682 16
-14.086911 3.3429842 0.2319904 9
-11.179572 3.5291986 0.11867896 48
-16.090633 2.6032298 0.068846054 5
-18.404823 4.3676739 -0.031363901 36
-11.187456 3.5316875 -0.088456362 47
-18.367493 2.9715924 -0.25006604 34
-18.354712 4.355782 -0.36485133 65
-11.168959 3.5258482 -0.29565072 48
-18.379992 2.9736145 -0.57959527 38
-18.361101 4.3572984 -0.69955516 48
-11.146976 3.5189087 -0.5021863 76
-18.323637 2.9644971 -0.90620428 47
-8.4833279 2.0131903 -0.47754237 2
-8.1098766 2.5601487 -0.51568079 13
-9.5504227 1.5451192 -0.64377367 0
-7.7789893 1.8460428 -0.57940304 0
-7.8375564 2.4741819 -0.64394796 0
-9.1560974 1.481323 -0.78130156 0
-7.7329946 1.8351276 -0.71658993 0
-7.6509061 2.4152594 -0.77055645 0
-8.8150959 1.426154 -0.91035438 1
-7.6151147 1.8071533 -0.8441608 1
-7.549387 1.7915555 -0.97441846 4
-7.5471759 1.7910308 -1.1114131 42
-7.527133 1.7862743 -1.2467533 44
-7.4553628 1.7692424 -1.3704044 54
-7.4427447 1.766248 -1.504506 37
-7.553781 1.7925982 -1.6645069 2
-7.8551693 1.864121 -1.8741182 4
-7.7481337 1.8387202 -1.9891696 7
-5.4872198 1.3021797 -1.9401135 6
-1.5520996 0.3683309 -0.74358547 14
