# .PCD v0.7 - Point Cloud Data file format
VERSION 0.7
FIELDS x y z intensity
SIZE 4 4 4 4
TYPE F F F F
COUNT 1 1 1 1
WIDTH 1333
HEIGHT 1
VIEWPOINT 0 0 0 1 0 0 0
POINTS 1333
DATA ascii
-6.5697536 -7.1570797 -2.0829396 2
-5.8388748 -6.3608613 -2.0043659 4
-5.5451446 -6.0408721 -2.0483019 4
-3.8750827 -4.2215095 -1.9713428 6
-2.780184 -3.0287285 -1.9164225 7
-3.5838399 -3.8499284 1.3884314 23
-2.3949621 -2.5727804 0.6792317 5
-3.9110732 -4.201458 0.80304086 10
-5.5743575 -5.9882355 0.71029717 20
-6.3963237 -6.8712301 0.48294675 7
-6.8996091 -7.4118829 0.34176061 17
-7.9607811 -7.392436 0.3021251 15
-11.160974 -13.886414 0.39060691 2
-10.044681 -10.790465 0.23622005 5
-11.298896 -10.492233 0.15609258 5
-13.275988 -16.5179 0.089508317 56
-13.787978 -14.811691 -0.033552542 39
-14.508641 -13.472824 -0.14928707 51
-16.131342 -20.070515 -0.34607163 17
-13.799044 -14.823579 -0.39169115 54
-14.495643 -13.460754 -0.4993459 38
-13.224594 -16.453957 -0.65713185 7
-13.78398 -14.807397 -0.74993616 63
-14.507398 -13.471669 -0.85054052 48
-13.267821 -16.50774 -1.0339624 29
-13.76192 -14.783698 -1.1062446 51
-14.491231 -13.456656 -1.1991394 44
-13.266813 -16.506485 -1.4091843 1
-13.741059 -14.761289 -1.4615182 44
-14.470569 -13.43747 -1.5472248 41
-16.143286 -20.085373 -2.1706553 12
-13.751294 -14.772285 -1.8196714 68
-6.3343182 -5.8820915 -0.83021241 0
-7.9126234 -9.8448362 -1.2876402 11
-13.738297 -14.758322 -2.1747434 62
-13.077502 -14.048465 -2.4103773 3
-10.872481 -11.679729 -2.2863681 1
-9.2345562 -9.9201918 -2.1842048 1
-8.1773853 -8.7845306 -2.1464503 2
-7.3460441 -7.8914642 -2.120512 2
-6.6222239 -7.1139026 -2.0837781 2
-5.8380065 -6.2714601 -1.9889894 6
-5.5951152 -6.0105343 -2.0512099 4
-3.90446 -4.1943536 -1.9713428 6
-2.8012607 -3.0092454 -1.9164225 7
-3.6265593 -3.8416889 1.3945569 22
-2.4236488 -2.5674212 0.68226737 6
-3.9375899 -4.1711702 0.80248666 24
-5.5777297 -5.9086041 0.70545346 20
-6.3920364 -6.7712164 0.47904208 3
-6.9923491 -7.4071398 0.34378445 15
-8.0741215 -7.3933873 0.30446026 15
-11.341038 -13.91044 0.3935003 4
-10.092312 -10.690994 0.23557919 7
-11.478065 -10.510343 0.15755026 9
-13.337901 -16.359709 0.089153528 56
-13.822402 -14.642356 -0.033386737 52
-14.561044 -13.333394 -0.14886485 41
-16.427763 -20.149603 -0.34940439 17
-13.844544 -14.665811 -0.39006683 56
-14.545025 -13.318725 -0.49783179 38
-13.308826 -16.324047 -0.6556384 20
-13.834884 -14.655578 -0.74712074 57
-14.553933 -13.326882 -0.84779352 73
-13.804477 -14.623366 -1.101432 53
-14.546539 -13.320112 -1.195992 50
-16.40056 -20.116238 -1.7270875 18
-13.783526 -14.601173 -1.4551574 46
-16.436752 -20.160629 -2.1911364 21
-13.802129 -14.62088 -1.8128468 71
-6.3811007 -5.8431063 -0.83097726 0
-8.0918007 -9.9250622 -1.3054904 3
-13.791855 -14.609996 -2.1670225 60
-13.207953 -13.991457 -2.4163585 3
-10.978218 -11.629453 -2.2914741 1
-9.3117189 -9.8640957 -2.1861143 1
-8.2520285 -8.7415438 -2.1499715 2
-7.3982635 -7.8371329 -2.1197402 2
-6.6878357 -7.0845623 -2.0888095 3
-5.8308282 -6.1767168 -1.9718039 4
-5.6396036 -5.9741483 -2.0521793 4
-3.9336467 -4.1669931 -1.9713428 6
-2.8271785 -2.9948883 -1.9198024 7
-3.6639888 -3.8274524 1.3986405 3
-2.4360824 -2.5447645 0.68074954 4
-3.9857903 -4.1636105 0.80636609 22
-5.6160884 -5.8666415 0.70510745 19
-6.4004798 -6.6860275 0.47616497 2
-7.0825939 -7.3985734 0.34567335 12
-8.1848946 -7.3904319 0.30668423 16
-9.758379 -11.800049 0.3357203 0
-10.116921 -10.568273 0.23442565 6
-11.684752 -10.550578 0.15937236 14
-13.388057 -16.189135 0.088731162 61
-13.86067 -14.479043 -0.033234194 38
-14.618149 -13.199246 -0.14850295 39
-16.749002 -20.253265 -0.35322097 17
-13.896814 -14.5168 -0.38867456 51
-14.590165 -13.17398 -0.49621677 36
-13.305256 -16.08901 -0.64991337 26
-13.88158 -14.500886 -0.74415714 56
-14.59916 -13.182101 -0.84504652 45
-13.379888 -16.179258 -1.0249901 0
-13.856518 -14.474706 -1.0974944 46
-14.582872 -13.167394 -1.1913921 50
-16.703379 -20.198097 -1.7440848 19
-13.829951 -14.446954 -1.4493749 43
-6.5558867 -5.9195433 -0.6920644 0
-16.754906 -20.260405 -2.2146392 17
-13.851525 -14.46949 -1.806022 49
-6.3626332 -5.745048 -0.82332903 0
-13.278564 -16.056736 -2.1241601 10
-13.830265 -14.447282 -2.1571567 62
-13.3108 -13.904641 -2.4173553 3
-11.053664 -11.546807 -2.2903395 1
-9.4022036 -9.8216696 -2.1912055 1
-8.3128557 -8.6837206 -2.1499715 2
-7.4663672 -7.799468 -2.1235998 2
-6.7506552 -7.051826 -2.0930021 3
-5.8387809 -6.0992694 -1.9600455 4
-5.6704397 -5.923418 -2.0483019 4
-3.9678731 -4.1448941 -1.9739453 6
-2.8379898 -2.9646025 -1.9130425 8
-3.6825385 -3.7934544 1.3955778 17
-2.4401109 -2.5136056 0.67695493 7
-4.0009642 -4.1214709 0.80359507 20
-5.6541324 -5.8244319 0.70476151 20
-6.3969159 -6.5895872 0.47246578 1
-7.1981177 -7.4149208 0.34877661 12
-8.3079605 -7.3969226 0.30935299 16
-9.8353825 -11.725509 0.33554494 3
-10.159811 -10.465818 0.2337207 7
-12.003085 -10.686845 0.16269261 14
-13.439058 -16.021725 0.088325687 60
-13.925194 -14.344612 -0.033147976 35
-14.656166 -13.048994 -0.14796008 37
-13.40969 -15.986713 -0.28043735 39
-13.944895 -14.364906 -0.38720495 47
-14.633996 -13.029255 -0.49460176 37
-13.383854 -15.955912 -0.64829546 45
-13.926792 -14.346259 -0.74119359 54
-14.646061 -13.039996 -0.84247124 62
-13.400083 -15.97526 -1.0179682 23
-13.907155 -14.32603 -1.0935568 50
-14.635676 -13.03075 -1.1882447 53
-13.368484 -15.937589 -1.3842195 56
-13.883232 -14.301387 -1.4444598 44
-6.5493994 -5.831202 -0.6870653 1
-13.345643 -15.910357 -1.7492828 46
-13.905029 -14.32384 -1.7999158 49
-6.4917994 -5.7799187 -0.83480132 2
-13.334078 -15.89657 -2.1152351 49
-13.880927 -14.299012 -2.1494358 52
-13.418606 -13.822766 -2.419349 3
-11.142281 -11.47788 -2.2920413 1
-9.4842958 -9.7699566 -2.1943877 2
-8.3842468 -8.636775 -2.1527884 2
-7.5124345 -7.7387047 -2.121284 2
-6.7861004 -6.9904938 -2.0888095 3
-5.8567934 -6.0331964 -1.951905 3
-5.7197638 -5.8920398 -2.0512099 4
-3.9914441 -4.1116638 -1.9713428 5
-2.8636677 -2.9499197 -1.9164225 8
-3.7035046 -3.7621415 1.393536 17
-2.4575992 -2.4965098 0.67695493 5
-4.0518713 -4.1160235 0.8080287 20
-5.6974506 -5.7876573 0.70510745 20
-8.1438303 -8.2727699 0.59720993 21
-7.3029928 -7.4186196 0.35134014 12
-8.4104815 -7.3835869 0.31124336 15
-11.834582 -13.910504 0.40042689 7
-10.184928 -10.346184 0.23263125 5
-12.09243 -10.615981 0.16289507 20
-13.488377 -15.854393 0.087920211 53
-13.968873 -14.190039 -0.033015329 39
-14.698815 -12.904135 -0.14747754 42
-13.463954 -15.825687 -0.27925473 35
-13.994336 -14.215905 -0.3858127 50
-14.688541 -12.895115 -0.49339047 37
-13.440516 -15.798138 -0.64568186 43
-13.970521 -14.191713 -0.73822999 54
-14.68869 -12.895246 -0.83972418 74
-13.45433 -15.814375 -1.0136771 46
-13.961996 -14.183054 -1.0900567 50
-14.687285 -12.894012 -1.1850973 52
-13.432872 -15.789152 -1.3794391 48
-13.929555 -14.150099 -1.4389665 44
-6.5390043 -5.7406116 -0.6817537 1
-13.402154 -15.753046 -1.7422321 51
-13.951585 -14.172478 -1.7930912 51
-6.8970428 -6.054935 -0.88145536 0
-13.385424 -15.733381 -2.1059043 47
-13.916242 -14.136575 -2.13957 57
-13.58995 -13.805117 -2.4328063 3
-11.238803 -11.416744 -2.2954454 1
-9.5384178 -9.6894369 -2.1912055 2
-8.4526224 -8.5864515 -2.154901 2
-7.5635219 -7.6832738 -2.120512 2
-6.8374801 -6.9457364 -2.089648 4
-5.9233694 -6.0171533 -1.9600455 2
-5.755312 -5.8464346 -2.0492713 5
-4.033318 -4.0971766 -1.9778489 6
-2.8816481 -2.9272728 -1.9147326 8
-3.7242148 -3.7307205 1.3914942 9
-2.4610953 -2.4653945 0.67316037 5
-4.0609169 -4.0680108 0.80414927 22
-5.7011185 -5.7110777 0.70060974 10
-8.2662992 -8.2807398 0.60193664 24
-7.4026203 -7.4155521 0.35363385 14
-8.5585623 -7.4084334 0.31480169 14
-6.45294 -7.4784403 0.21656545 0
-10.217352 -10.235201 0.23173405 5
-12.111811 -10.484184 0.16216624 33
-13.541245 -15.693216 0.087548532 58
-14.019558 -14.044048 -0.032902583 42
-14.755275 -12.77241 -0.14714579 40
-13.508787 -15.655602 -0.27791089 40
-14.039558 -14.064085 -0.38434306 49
-14.729832 -12.750386 -0.49177545 36
-13.490407 -15.6343 -0.64281934 44
-14.035369 -14.059888 -0.7364518 60
-14.736053 -12.755772 -0.83732057 60
-13.506986 -15.653513 -1.0093859 46
-14.001417 -14.025876 -1.0854628 50
-14.725622 -12.746742 -1.1809816 51
-13.485411 -15.62851 -1.3735962 61
-13.968813 -13.993215 -1.4328949 46
-6.431181 -5.566937 -0.66644394 4
-13.459725 -15.598742 -1.7355169 45
-13.991083 -14.015524 -1.7855481 52
-6.3250074 -5.4750314 -0.80344373 0
-13.437744 -15.573268 -2.0969794 49
-13.96964 -13.994043 -2.1327071 59
-13.688802 -13.712715 -2.4333048 4
-6.1850262 -6.1958308 -1.254382 0
-6.18255 -6.1933503 -1.4103141 124
-6.1450353 -6.1557698 -1.5556132 2
-6.177876 -6.1886683 -1.7198766 1
-6.9161987 -6.9282808 -2.0988719 5
-6.2873063 -6.2982898 -2.0658717 3
-5.8151798 -5.8253384 -2.056057 4
-4.056479 -4.0635657 -1.9752464 6
-2.8994529 -2.9045181 -1.9130425 8
-3.7474179 -3.7019114 1.3904732 0
-2.394428 -2.3653514 0.65039283 10
-4.1061277 -4.0562654 0.80747449 22
-5.7210054 -5.6515331 0.69818783 1
-8.3807459 -8.2789755 0.6060468 20
-7.5167789 -7.4254999 0.35660216 13
-8.680027 -7.4082022 0.31735924 14
-6.5234256 -7.4542751 0.21717919 1
-7.6082983 -7.5159073 0.17136528 0
-12.123865 -10.347438 0.1613564 32
-13.587248 -15.526058 0.087143056 64
-14.063194 -13.89242 -0.032776568 39
-14.789323 -12.622344 -0.14660293 47
-13.55717 -15.491688 -0.27667454 37
-14.077655 -13.906705 -0.38271877 46
-14.769826 -12.605704 -0.49016044 36
-13.530766 -15.461515 -0.63958347 41
-14.073466 -13.902567 -0.73334008 54
-14.782193 -12.61626 -0.83491695 57
-13.560681 -15.495701 -1.0052899 53
-14.039327 -13.868841 -1.080869 51
-14.765665 -12.602153 -1.1771079 15
-13.533732 -15.464906 -1.3674878 54
-14.020753 -13.850493 -1.4282689 46
-6.4365249 -5.4934249 -0.66300708 9
-13.515795 -15.444409 -1.7288018 47
-14.040408 -13.869909 -1.7794418 80
-6.3297634 -5.4023066 -0.79923719 0
-13.496343 -15.422181 -2.0892713 44
-14.021729 -13.851458 -2.125844 56
-13.781378 -13.614024 -2.4328063 4
-6.1323562 -6.0578885 -1.2350926 4
-6.1638308 -6.0889807 -1.3963128 255
-6.089819 -6.0158682 -1.5309656 3
-6.0589852 -5.9854088 -1.6751043 0
-6.4858227 -6.4070625 -1.9546427 1
-6.3338957 -6.2569809 -2.066776 2
-5.8557067 -5.7845988 -2.056057 4
-4.08744 -4.0378046 -1.9765476 6
-2.9299767 -2.8943968 -1.9198024 8
-2.216253 -2.1589777 0.81672442 4
-2.3968172 -2.3348753 0.64659822 15
-4.1428585 -4.0357928 0.80913711 21
-8.5377207 -8.3170767 1.0348265 23
-8.5070143 -8.2871647 0.61097902 22
-7.6285715 -7.4314232 0.35943553 12
-8.795783 -7.4014874 0.3196944 13
-6.6151252 -7.4534154 0.21849437 3
-7.6920967 -7.4933071 0.17207022 1
-12.14072 -10.216189 0.16062757 32
-13.652826 -15.382957 0.086872742 56
-14.09394 -13.729706 -0.032624029 75
-14.843417 -12.490459 -0.14627118 37
-13.611892 -15.336835 -0.27559945 40
-14.128565 -13.763435 -0.3814812 53
-14.808517 -12.46109 -0.48854539 21
-13.590608 -15.312854 -0.63734323 43
-14.10719 -13.742613 -0.73008013 50
-14.817929 -12.469011 -0.83199829 73
-13.607534 -15.331926 -1.0008038 53
-14.087171 -13.72311 -1.0771501 50
-7.0386605 -5.9229016 -0.55780679 0
-13.583081 -15.304375 -1.361645 53
-14.062809 -13.699379 -1.4227756 46
-6.4442072 -5.4226804 -0.65988261 9
-13.562434 -15.281111 -1.7210795 43
-14.068409 -13.704834 -1.7708212 97
-5.2827468 -4.445333 -0.66309917 3
-13.527078 -15.241273 -2.0775065 45
-14.069661 -13.706054 -2.118552 54
-6.1889448 -6.0290017 -1.0850685 4
-6.0837388 -5.9265146 -1.2169378 5
-6.1467862 -5.9879327 -1.3829479 1
-6.0385942 -5.8825369 -1.5077264 4
-6.0219064 -5.8662801 -1.6534899 2
-6.3623018 -6.1978788 -1.90433 2
-6.3997512 -6.2343602 -2.074012 3
-5.8903885 -5.7381611 -2.0541182 5
-4.1101108 -4.0038919 -1.9739453 7
-2.9371274 -2.861222 -1.9113526 8
-2.2424273 -2.1541703 0.82080799 5
-2.4215553 -2.3262482 0.648875 15
-4.1680746 -4.0040283 0.8085829 25
-8.693284 -8.3511362 1.0465899 26
-8.6453228 -8.3050623 0.61673331 22
-7.7350407 -7.4306068 0.36199906 11
-5.3206515 -4.414155 0.19226143 2
-6.7098045 -7.4546084 0.21989723 5
-7.7961369 -7.4892983 0.17322376 2
-5.3224359 -4.4156356 0.070008844 31
-13.703691 -15.224833 0.086517952 56
-14.146174 -13.589413 -0.032524545 48
-5.3133221 -4.4080744 -0.052054442 35
-13.659765 -15.17603 -0.27441683 39
-14.175274 -13.617367 -0.38016626 49
-5.2994709 -4.3965831 -0.17381719 35
-13.638337 -15.152224 -0.63460517 39
-14.153779 -13.596718 -0.72756106 51
-5.2931981 -4.3913789 -0.29547441 31
-13.655439 -15.171225 -0.99651265 46
-14.139424 -13.582929 -1.0738688 46
-5.2975855 -4.3950191 -0.41738668 26
-13.630855 -15.14391 -1.3558022 57
-14.117824 -13.562178 -1.4187279 46
-5.2849622 -4.3845463 -0.53802931 62
-13.618121 -15.129764 -1.7147001 44
-14.126391 -13.570409 -1.7661517 53
-5.2615557 -4.3651276 -0.65659821 37
-13.595881 -15.105056 -2.0718269 44
-6.2665577 -6.0199199 -0.93724149 3
-6.150743 -5.9086633 -1.0711126 4
-6.0849881 -5.8454967 -1.2089951 5
-6.1001544 -5.8600659 -1.3632188 5
-6.0198822 -5.7829533 -1.4929379 3
-6.006104 -5.7697172 -1.6380513 4
-6.3715682 -6.1207976 -1.8942676 2
-6.4459276 -6.1922302 -2.0749166 3
-5.9386992 -5.7049651 -2.0570264 5
-4.1434178 -3.9803421 -1.9765476 6
-2.9570301 -2.8406479 -1.9113526 7
-2.2630272 -2.1437824 0.82284981 6
-2.4690993 -2.3389962 0.65722311 17
-4.2074299 -3.9857297 0.81079972 22
-8.8497372 -8.3834219 1.0583532 27
-8.7900944 -8.3269215 0.62289858 21
-7.8505774 -7.4369102 0.36496738 11
-5.3265777 -4.3566504 0.19137184 31
-6.7967324 -7.4459805 0.22103705 8
-7.9150128 -7.4979506 0.17469774 3
-5.300499 -4.3353209 0.069320492 46
-13.744926 -15.057891 0.086112477 56
-14.237798 -13.487572 -0.03251791 25
-5.3068123 -4.3404841 -0.051692538 36
-13.714148 -15.024172 -0.27339551 36
-14.214831 -13.465816 -0.37869665 49
-5.2959871 -4.3316302 -0.17270686 35
-13.687183 -14.994631 -0.63199162 43
-14.201928 -13.453591 -0.72519016 55
-5.3144464 -4.3467283 -0.29495937 45
-13.717925 -15.028309 -0.99339187 49
-14.184615 -13.437191 -1.0701499 36
-5.3034148 -4.3377056 -0.41544986 40
-13.685122 -14.992373 -1.350756 60
-14.238229 -13.48798 -1.42133 25
-5.2907486 -4.3273458 -0.53552973 38
-13.658922 -14.96367 -1.706642 46
-14.171621 -13.424882 -1.7600454 53
-5.2764907 -4.3156843 -0.65468615 40
-13.644664 -14.94805 -2.0633075 42
-6.221817 -5.8939734 -0.92437321 2
-6.1370993 -5.8137197 -1.0616426 4
-6.0566597 -5.7375188 -1.195379 7
-6.0864458 -5.7657351 -1.3511268 6
-6.0143714 -5.6974587 -1.4816705 4
-6.0234442 -5.7060533 -1.6318758 3
-6.451056 -6.1111331 -1.9051687 2
-6.5031438 -6.1604767 -2.0794392 3
-5.9840178 -5.6687045 -2.058965 5
-4.1711049 -3.9513185 -1.9765476 6
-2.9925814 -2.8348947 -1.9214923 8
-2.2920694 -2.1411319 0.82795435 7
-2.5054579 -2.3404682 0.66253549 21
-4.2467327 -3.9670763 0.81301653 21
-8.9808502 -8.3894424 1.0670027 28
-8.9443455 -8.3553419 0.6296804 22
-7.9724183 -7.4474177 0.36820555 10
-5.3288493 -4.2967701 0.19037107 34
-6.8865819 -7.4394341 0.22226454 9
-8.0022383 -7.4752736 0.17546676 6
-5.3181815 -4.288168 0.069158532 43
-13.787219 -14.894053 0.085723899 56
-14.492378 -13.538025 -0.032882687 34
-5.3089614 -4.2807341 -0.051421106 40
-13.767079 -14.872295 -0.27237418 39
-14.375712 -13.429041 -0.38047567 28
-5.3043089 -4.2769823 -0.17200027 36
-13.726349 -14.828296 -0.62900466 44
-14.45032 -13.498735 -0.73304367 37
-5.3166637 -4.2869444 -0.29341418 43
-13.760085 -14.864739 -0.98890567 47
-14.47071 -13.517783 -1.0845878 46
-5.3118114 -4.2830319 -0.41375515 40
-13.735229 -14.837888 -1.3454444 60
-14.44866 -13.497185 -1.4328949 46
-5.292891 -4.267776 -0.5327177 40
-13.706195 -14.806523 -1.6995912 45
-14.378536 -13.431679 -1.7740539 6
-5.2816944 -4.2587481 -0.65162688 39
-13.697328 -14.796944 -2.0555997 38
-6.2163143 -5.8069568 -0.91751009 1
-6.1282325 -5.7246752 -1.0531694 5
-6.0415916 -5.6437402 -1.1845996 8
-6.0948062 -5.69345 -1.3441261 10
-6.0137177 -5.6177015 -1.4718114 6
-6.0229793 -5.6263533 -1.6210686 3
-6.705061 -6.2635183 -1.9672208 3
-6.5402994 -6.1096067 -2.07763 3
-6.0206108 -5.6241407 -2.0579958 5
-4.2096448 -3.9324307 -1.9817525 6
-3.0017023 -2.804034 -1.9147326 8
-2.3211844 -2.1381795 0.83305889 6
-2.5275135 -2.3282413 0.66405332 28
-4.2859788 -3.9480672 0.81523335 19
-9.1476479 -8.4264364 1.0798039 28
-9.1052933 -8.3874216 0.63687319 23
-8.1036062 -7.4647083 0.37184846 6
-5.3211555 -4.2296066 0.1890367 36
-6.9794044 -7.4349117 0.22357972 13
-8.1130629 -7.4734197 0.17674848 7
-5.3229399 -4.2310252 0.068834603 41
-13.833369 -14.736197 0.08536911 49
-14.542408 -13.395867 -0.032783203 31
-5.3105369 -4.2211661 -0.051149674 41
-13.804871 -14.705838 -0.27108407 33
-14.563241 -13.415058 -0.38295081 45
-5.293345 -4.2075009 -0.17068808 39
-13.791224 -14.6913 -0.62726223 46
-14.535387 -13.3894 -0.73259914 50
-5.3089218 -4.2198825 -0.29135391 44
-13.814302 -14.715885 -0.98539478 51
-14.517728 -13.373133 -1.0810877 44
-5.3009515 -4.2135468 -0.41060778 44
-13.783847 -14.683442 -1.3401327 61
-14.498521 -13.35544 -1.4285581 31
-5.2882185 -4.2034259 -0.52928084 42
-13.760121 -14.658169 -1.6935476 47
-6.4521661 -5.94347 -0.79094285 1
-5.2832456 -4.1994729 -0.64818519 39
-13.743097 -14.640034 -2.0470803 43
-6.2099023 -5.7203064 -0.91064703 0
-6.1184244 -5.6360407 -1.0446962 6
-6.042985 -5.5665493 -1.1772243 9
-6.0995507 -5.6186552 -1.3364891 23
-6.0325174 -5.5569067 -1.466882 7
-6.0072646 -5.5336447 -1.6064018 3
-6.6968451 -6.1688581 -1.952127 1
-6.5885243 -6.069077 -2.0794392 3
-6.0625825 -5.5846014 -2.058965 5
-4.2286496 -3.8952579 -1.9778489 6
-3.0238714 -2.785466 -1.9164225 8
-2.3188777 -2.1063206 0.82693344 6
-2.5669622 -2.3316648 0.67012471 49
-4.3280978 -3.9313679 0.81800437 20
-9.2858944 -8.4347143 1.0891454 29
-9.255291 -8.4069157 0.64324397 26
-8.2176628 -7.4644008 0.37468186 6
-5.3253746 -4.1726255 0.1881471 36
-7.0669851 -7.4236593 0.22471954 16
-8.2212868 -7.4676924 0.17796612 9
-5.3240123 -4.1715584 0.068470187 38
-13.889025 -14.590012 0.085081898 57
-14.588198 -13.250988 -0.032677084 32
-5.3209853 -4.1691861 -0.050968722 36
-13.863075 -14.562753 -0.27022398 40
-14.597331 -13.259284 -0.38140383 40
-5.294261 -4.1482472 -0.16977961 37
-13.838319 -14.536746 -0.62477309 45
-14.584122 -13.247286 -0.73037648 46
-5.3099413 -4.160533 -0.28980872 43
-13.853344 -14.552529 -0.98090863 49
-14.566386 -13.231175 -1.0778064 43
-5.3019524 -4.1542735 -0.40842885 41
-13.833735 -14.531931 -1.3350867 57
-6.55299 -5.9523182 -0.64156455 0
-5.2860451 -4.1418095 -0.52615643 41
-13.807155 -14.504009 -1.6868324 47
-6.4374714 -5.8473883 -0.78411818 0
-5.2716899 -4.1305618 -0.64321387 39
-13.792837 -14.488969 -2.0393722 46
-6.2143588 -5.6447272 -0.9054997 0
-6.1370564 -5.5745106 -1.0412072 8
-6.0406647 -5.4869547 -1.1692815 9
-6.0889325 -5.530798 -1.3256699 29
-6.0391026 -5.4855356 -1.4591355 7
-6.0166965 -5.4651833 -1.5986824 3
-6.5747275 -5.9720631 -1.90433 1
-6.6480374 -6.0386529 -2.084866 3
-5.8313956 -5.2968678 -1.9678433 5
-4.2585397 -3.8681858 -1.9791501 7
-3.0432432 -2.7642882 -1.9164225 8
-2.2586229 -2.0229914 0.80038989 8
-2.6153579 -2.34251 0.67847282 17
-4.4026518 -3.9433441 0.82687163 21
-9.4187632 -8.4361486 1.0977949 25
-9.411953 -8.4300489 0.65002578 25
-8.3410435 -7.4708624 0.37792003 3
-5.3322239 -4.118238 0.18736872 35
-7.1686344 -7.4259315 0.22629775 17
-8.3328047 -7.4634833 0.17924783 9
-5.3213496 -4.1098394 0.068065278 38
-13.943316 -14.44377 0.084794685 56
-14.629699 -13.103452 -0.032564338 31
-5.3088088 -4.1001534 -0.050576653 37
-13.900514 -14.399431 -0.26898763 33
-14.641879 -13.114362 -0.38016626 42
-5.2977748 -4.0916319 -0.1689721 36
-13.889483 -14.388006 -0.6225329 42
-14.62861 -13.102477 -0.72800559 50
-5.3167186 -4.1062627 -0.28860691 44
-13.90743 -14.406596 -0.97759277 49
-14.613774 -13.08919 -1.074525 40
-5.3087063 -4.1000743 -0.40673414 41
-13.876637 -14.374698 -1.3295094 58
-6.487401 -5.8106017 -0.63115609 0
-5.2958951 -4.0901799 -0.52428174 41
-13.861013 -14.358513 -1.6811247 45
-6.4603319 -5.7863564 -0.78196305 1
-5.2720375 -4.071754 -0.63977218 41
-13.835613 -14.332202 -2.0308528 45
-6.2269535 -5.5773253 -0.90163922 0
-6.0930467 -5.4573884 -1.0272514 12
-6.0434308 -5.4129486 -1.1624734 10
-6.0920968 -5.4565377 -1.3180327 23
-6.0625868 -5.4301062 -1.4556144 7
-6.0283923 -5.3994789 -1.591735 5
-6.2258687 -5.576354 -1.7919654 2
-6.6842279 -5.9868946 -2.0830572 3
-5.8595605 -5.248261 -1.9649351 8
-4.2882581 -3.8408849 -1.9804513 5
-3.0462639 -2.7284617 -1.9062827 9
-2.2263095 -1.9662113 0.78405541 12
-2.6345916 -2.3267941 0.6792317 7
-4.4449205 -3.9256237 0.82964265 20
-9.5043116 -8.3939295 1.1009088 16
-9.5604019 -8.4434671 0.65619105 26
-8.4739008 -7.4839005 0.38156295 1
-5.332211 -4.059114 0.18636793 36
-7.2594671 -7.4157114 0.22752525 18
-8.4386673 -7.4527831 0.18040137 10
-5.3149037 -4.045939 0.067619875 39
-13.243548 -13.528586 0.07996279 2
-14.687843 -12.971872 -0.032491382 33
-5.3086596 -4.0411859 -0.050305221 41
-13.95034 -14.25059 -0.26802006 37
-14.682119 -12.966817 -0.37885135 64
-5.2975745 -4.0327477 -0.16806366 35
-13.925267 -14.224977 -0.61967039 44
-14.674785 -12.96034 -0.72578293 53
-5.3134575 -4.0448384 -0.28689003 42
-13.946183 -14.246344 -0.97330165 48
-14.668875 -12.95512 -1.0719 46
-5.3086085 -4.0411468 -0.4045552 39
-13.920815 -14.220429 -1.3241978 59
-6.4739838 -5.7176328 -0.62595189 0
-5.2957635 -4.0313687 -0.52146971 39
-13.90794 -14.207278 -1.6747453 47
-6.5244584 -5.7622104 -0.78483659 0
-5.2749896 -4.0155549 -0.63671291 38
-13.893579 -14.192607 -2.0247676 43
-6.2240071 -5.4968605 -0.895634 0
-6.1161237 -5.4015808 -1.0247593 4
-6.0751376 -5.3653836 -1.1613388 8
-6.0974827 -5.385118 -1.3110321 29
-6.0590301 -5.3511577 -1.4457555 7
-6.0188727 -5.3156919 -1.579384 5
-6.1415234 -5.4240136 -1.7567465 4
-6.7112594 -5.9271874 -2.0785346 3
-5.8320651 -5.1507092 -1.9436088 5
-4.3064632 -3.8033421 -1.9765476 6
-3.0733905 -2.7143285 -1.9113526 8
-2.2195654 -1.9328419 0.77690905 13
-2.6330009 -2.2928698 0.67467821 14
-4.4961176 -3.9153087 0.83407629 24
-6.0976362 -5.3099432 0.70199364 3
-9.74263 -8.4840765 0.66461694 25
-8.652564 -7.5348253 0.38722974 0
-5.3284359 -3.9977932 0.18525596 40
-7.3617721 -7.4159374 0.22910345 16
-8.5568457 -7.4514718 0.18181126 12
-5.3238239 -3.9943328 0.067376934 41
-14.019629 -14.12278 0.084051318 42
-14.723747 -12.821733 -0.032372002 30
-5.3143468 -3.9872227 -0.050094109 39
-13.995946 -14.098923 -0.26699871 55
-14.733078 -12.829858 -0.37784582 50
-5.2968125 -3.9740672 -0.16715521 38
-13.973534 -14.076345 -0.61743015 42
-14.722704 -12.820825 -0.72370839 48
-5.3127971 -3.9860597 -0.28534484 43
-13.989004 -14.091929 -0.96940064 54
-14.710768 -12.810431 -1.0683999 41
-5.3015604 -3.9776294 -0.40189207 41
-13.963511 -14.06625 -1.3188862 57
-6.4656038 -5.6303768 -0.62132591 0
-5.2918811 -3.970367 -0.5183453 42
-13.956237 -14.058921 -1.6687018 51
-6.6035838 -5.7505326 -0.78950608 2
-5.274231 -3.9571245 -0.63327122 42
-13.927837 -14.030313 -2.0154369 42
-6.1662579 -5.3697004 -0.88190782 0
-6.1147747 -5.3248677 -1.0182798 9
-6.0706415 -5.2864356 -1.1533961 6
-6.10217 -5.3138914 -1.3040315 28
-6.0546684 -5.2725258 -1.4358964 8
-6.0410366 -5.2606549 -1.5755243 5
-6.0612597 -5.278266 -1.7232049 4
-6.7759824 -5.9006605 -2.0857706 3
-5.8503213 -5.0945764 -1.9377924 7
-4.3500252 -3.7880886 -1.984355 5
-3.086797 -2.6880443 -1.9079727 7
-2.2065961 -1.8946247 0.76772094 7
-2.6668215 -2.289783 0.6792317 12
-4.5503912 -3.9070511 0.83906412 20
-9.5722065 -8.2188759 1.095373 28
-9.9228535 -8.5199471 0.67283732 27
-10.606699 -9.10711 0.47182661 4
-5.3208489 -3.9343491 0.18403278 35
-7.461597 -7.4122734 0.23059398 17
-8.6723804 -7.4462681 0.18315706 8
-5.3290653 -3.9404244 0.067093492 41
-14.07248 -13.979456 0.083781004 49
-14.758271 -12.671727 -0.032252621 30
-5.3195381 -3.9333801 -0.049882997 37
-14.048635 -13.955768 -0.26613864 36
-14.779806 -12.690218 -0.37676296 82
-5.2987041 -3.9179747 -0.1663477 39
-14.020409 -13.927729 -0.61518991 42
-14.763325 -12.676066 -0.7213375 49
-5.3147869 -3.929867 -0.28397134 44
-14.041693 -13.948873 -0.96627986 51
-14.745296 -12.660587 -1.0644623 43
-5.3035159 -3.9215326 -0.39995524 40
-14.016069 -13.923418 -1.3146368 58
-6.4956722 -5.5773053 -0.62045854 0
-5.2906108 -3.9119904 -0.51553327 42
-13.997492 -13.904963 -1.6619866 43
-6.4259443 -5.517436 -0.76364416 0
-5.269711 -3.8965368 -0.6294471 44
-13.980279 -13.887865 -2.0089459 41
-6.1885076 -5.3135681 -0.87976307 0
-6.1337328 -5.2665377 -1.0152892 11
-6.0653415 -5.2078156 -1.1454533 4
-6.1091566 -5.2454362 -1.2976673 30
-6.0763917 -5.2173038 -1.4323753 8
-6.0329485 -5.1800022 -1.5639452 3
-6.0297108 -5.1772227 -1.7039185 5
-6.8199668 -5.855751 -2.0866752 3
-5.8680787 -5.0384421 -1.9319762 8
-4.3677549 -3.750236 -1.9804513 5
-3.1192403 -2.6782382 -1.9164225 8
-2.2345283 -1.8916681 0.77282548 12
-2.6947322 -2.2812593 0.68226737 8
-4.6077914 -3.9007838 0.84460616 21
-7.2539492 -6.1409221 0.82516253 2
-10.085754 -8.5382223 0.67982465 26
-10.767658 -9.1154966 0.47614413 5
-5.3320284 -3.8853328 0.18347679 38
-7.5531564 -7.3991799 0.23182148 18
-8.7852039 -7.4372253 0.18443877 14
-5.3273511 -3.8819246 0.066729076 45
-14.124014 -13.836085 0.083510689 50
-14.806688 -12.534788 -0.032166403 32
-5.3274727 -3.8820133 -0.049702041 47
-14.091436 -13.804173 -0.26511732 31
-14.825307 -12.55055 -0.37568009 55
-5.3194637 -3.8761773 -0.16614582 46
-14.074461 -13.787542 -0.61332309 40
-14.799596 -12.528784 -0.71881849 45
-5.313025 -3.8714855 -0.28242615 43
-14.081652 -13.794587 -0.96237886 46
-14.796743 -12.52637 -1.0618372 40
-5.3178568 -3.8750064 -0.39898682 51
-14.058761 -13.772162 -1.3095907 57
-6.4918208 -5.4957328 -0.61641079 0
-5.3113465 -3.8702626 -0.51490837 50
-14.048668 -13.762276 -1.6566145 43
-6.446063 -5.456996 -0.76148903 0
-5.2967854 -3.8596523 -0.6294471 47
-14.028568 -13.742586 -2.0020494 42
-6.1799221 -5.2316909 -0.87332892 0
-6.1461172 -5.203073 -1.0113018 11
-6.062264 -5.1320858 -1.138078 3
-6.1185012 -5.1796942 -1.2919394 12
-6.0916305 -5.1569462 -1.4274459 7
-6.0420046 -5.1149349 -1.5569978 1
-6.0477967 -5.1198382 -1.6988871 5
-6.8636551 -5.8105135 -2.0875795 3
-5.8912625 -4.9873228 -1.9280987 9
-4.3938298 -3.7196522 -1.9804513 5
-3.1350946 -2.6540539 -1.9147326 8
-2.2239265 -1.8561962 0.76465821 10
-2.7316988 -2.2800071 0.68757981 6
-4.6714072 -3.8989811 0.85125661 22
-5.3141599 -4.4354534 0.60096747 21
-10.276991 -8.5776711 0.68866152 23
-10.993699 -9.1758699 0.48329508 5
-5.3557754 -3.8456817 0.18336558 45
-7.6679049 -7.4073949 0.2337504 18
-5.3027611 -4.4259396 0.11067608 8
-5.3575711 -3.8469713 0.06676957 34
-14.165603 -13.68434 0.083189689 51
-5.3065057 -4.4290648 -0.011460524 30
-5.3771877 -3.861057 -0.049913153 29
-14.13856 -13.658216 -0.26420349 33
-14.863441 -12.405743 -0.37444252 58
-5.3691316 -3.8552723 -0.16685238 27
-14.11574 -13.636171 -0.6109584 42
-14.852946 -12.396983 -0.71718848 12
-5.3464155 -3.8389611 -0.28276953 46
-14.131638 -13.651528 -0.95925802 51
-5.2863059 -4.4122052 -0.37713379 23
-5.341536 -3.8354576 -0.3987447 31
-14.114377 -13.634855 -1.3058726 60
-5.2865071 -4.4123731 -0.49902675 26
-5.3576717 -3.8470438 -0.51678306 29
-14.089937 -13.611245 -1.6502352 40
-5.2911911 -4.4162827 -0.62140375 0
-5.3721156 -3.8574147 -0.63518322 28
-14.086962 -13.608371 -1.9967754 35
-5.2759132 -4.4035311 -0.74121433 12
-5.2742963 -4.4021816 -0.86277151 52
-5.2559061 -4.3868318 -0.98092562 37
-5.2843924 -4.4106083 -1.109286 12
-5.2629256 -4.3926907 -1.22604 40
-5.2519574 -4.3835363 -1.345487 37
-5.239645 -4.37326 -1.4632567 36
-5.2528234 -4.3842592 -1.5882971 26
-5.2317476 -4.3666682 -1.7022328 39
-4.4138832 -3.6840394 -1.9778489 5
-3.1646807 -2.6413949 -1.9214923 8
-2.221899 -1.8283378 0.75955367 13
-2.7141907 -2.2334306 0.6792317 8
-4.716867 -3.8813763 0.85458183 9
-5.3173018 -4.3754568 0.5978536 28
-5.3364248 -4.3911929 0.35553101 28
-5.3280931 -4.3843369 0.23287752 30
-5.4183974 -3.833601 0.18458878 27
-7.7744436 -7.4060922 0.23541629 18
-5.3026481 -4.363399 0.11003523 32
-5.4365401 -3.8464372 0.06741742 29
-14.21445 -13.540973 0.082919374 57
-5.3187647 -4.3766608 -0.011420731 32
-5.4529905 -3.8580763 -0.050365541 29
-14.184335 -13.512284 -0.26328966 36
-5.2961607 -4.3580604 -0.13265212 67
-5.4546738 -3.859267 -0.16866928 29
-14.158484 -13.487658 -0.60871816 42
-5.2996879 -4.3609633 -0.2544241 37
-5.4252839 -3.8384733 -0.28551653 33
-14.180311 -13.508451 -0.95613724 54
-5.3015599 -4.3625035 -0.37604001 42
-5.4366293 -3.8465004 -0.40382889 27
-14.151423 -13.480932 -1.3005608 57
-5.2925372 -4.3550787 -0.49671379 42
-5.4429955 -3.8510044 -0.52240705 30
-14.129782 -13.460316 -1.6438558 44
-5.294208 -4.3564539 -0.61817104 21
-5.4606719 -3.8635111 -0.64244902 29
-5.2850308 -4.3489022 -0.73821175 91
-5.2803836 -4.3450785 -0.85878414 41
-5.2588863 -4.3273883 -0.97581959 40
-5.275414 -4.3409886 -1.1010123 47
-5.2539382 -4.3233171 -1.2168852 37
-5.2581873 -4.3268132 -1.3393115 40
-5.2428679 -4.3142076 -1.4557098 39
-5.2562256 -4.3251991 -1.5801566 33
-5.2381325 -4.3103108 -1.6944778 37
-4.4511786 -3.6627486 -1.9830537 5
-3.1718459 -2.6100223 -1.9147326 8
-2.216588 -1.7981623 0.75342828 14
-2.7053173 -2.194634 0.67316037 6
-4.1162581 -3.3392313 0.74152428 5
-5.3198657 -4.3156333 0.59473979 28
-5.3390303 -4.3311806 0.35368145 28
-5.3244205 -4.3193288 0.23139337 32
-5.5073519 -3.8391244 0.18670154 28
-7.8813381 -7.4036589 0.23708218 21
-5.3174505 -4.3136744 0.10971479 24
-5.519042 -3.8472736 0.068105765 26
-14.302808 -13.43593 0.082885578 32
-5.311913 -4.3091822 -0.011341144 34
-5.5454187 -3.8656604 -0.050968722 30
-14.342455 -13.473175 -0.26447225 25
-5.3109274 -4.3083825 -0.13226537 42
-5.5438104 -3.8645394 -0.17058714 28
-14.427138 -13.552726 -0.61618561 26
-5.3020658 -4.3011937 -0.2530905 43
-5.4978471 -3.8324988 -0.28792015 34
-14.253889 -13.389977 -0.95477188 29
-5.2977672 -4.2977066 -0.37363371 41
-5.5124817 -3.8427005 -0.40746045 29
-14.335371 -13.46652 -1.3087939 29
-5.2980261 -4.2979169 -0.4944008 41
-5.5253615 -3.8516788 -0.5277186 31
-14.365759 -13.495066 -1.6603079 28
-5.296648 -4.2967987 -0.61493832 42
-5.5495725 -3.868556 -0.64971483 29
-6.2473826 -5.8687358 -0.87384284 0
-5.2967324 -4.2968669 -0.73563808 48
-5.2890143 -4.290606 -0.85529518 41
-5.2612939 -4.2681184 -0.97071356 40
-5.2626557 -4.2692232 -1.0921024 37
-5.2564712 -4.2642064 -1.2105473 37
-5.2608342 -4.2677455 -1.332364 38
-5.2455225 -4.2553244 -1.4481629 35
-5.2590594 -4.2663059 -1.5720161 34
-5.2439861 -4.2540779 -1.6867228 38
-4.479578 -3.6339672 -1.984355 5
-3.1843591 -2.5832469 -1.9113526 8
-2.2170057 -1.7729818 0.74934465 14
-2.7359083 -2.187958 0.67695493 7
-4.1765952 -3.3401027 0.74817473 6
-5.3156304 -4.2510109 0.59093404 32
-5.3472991 -4.2763371 0.35224289 29
-5.3263464 -4.2595806 0.23017906 30
-5.593348 -3.841327 0.18870309 29
-7.9827065 -7.3946557 0.23857272 18
-5.3130774 -4.2489696 0.10900985 24
-5.6117096 -3.8539371 0.068915583 28
-14.545916 -13.474381 0.083747216 56
-5.3168759 -4.252007 -0.011288086 31
-5.618432 -3.8585539 -0.051390946 29
-14.515389 -13.446104 -0.26592362 35
-5.3096423 -4.2462225 -0.1314919 41
-5.6299872 -3.8664899 -0.17240404 28
-14.500872 -13.432656 -0.61531436 39
-5.3069901 -4.2441015 -0.25190505 46
-5.6002369 -3.8460581 -0.29186898 31
-14.505294 -13.436752 -0.96530461 70
-5.2964497 -4.2356715 -0.37144616 41
-5.6017084 -3.8470685 -0.41206041 30
-14.496379 -13.428494 -1.3149023 43
-5.2873974 -4.2284327 -0.49064219 42
-5.6145735 -3.8559041 -0.53365505 30
-6.4680853 -5.9916096 -0.74268979 2
-5.3078485 -4.2447877 -0.61278313 44
-5.622396 -3.8612761 -0.65506858 29
-6.3232341 -5.857429 -0.87871104 1
-5.2986479 -4.2374296 -0.73177761 47
-5.2847438 -4.2263107 -0.84981251 40
-5.2662244 -4.2114997 -0.9661749 38
-5.2799954 -4.2225132 -1.0895568 40
-5.2584372 -4.2052722 -1.2042093 38
-5.2690434 -4.2137547 -1.3269604 37
-5.2415028 -4.19173 -1.438939 33
-5.2613287 -4.2075849 -1.5638757 34
-5.2462802 -4.19555 -1.6779984 39
-4.4930224 -3.5931559 -1.9791501 5
-3.2108099 -2.5677459 -1.9164225 8
-2.2111061 -1.7430947 0.7432192 15
-2.741864 -2.1615105 0.67467821 6
-4.9184465 -3.8773887 0.87619573 19
-5.3201427 -4.1940603 0.58816618 33
-5.3362408 -4.2067513 0.34957126 29
-5.3276987 -4.200017 0.22896476 31
-5.6796408 -3.8425143 0.19070466 27
-8.0931892 -7.3926868 0.24032627 21
-5.3174849 -4.1919651 0.10849717 23
-5.7047358 -3.8594918 0.069725409 29
-14.598283 -13.334735 0.083510689 50
-5.3150187 -4.190021 -0.011221764 31
-5.7148042 -3.8663037 -0.052024286 28
-14.567564 -13.306675 -0.26517105 36
-5.3140321 -4.1892433 -0.13087311 42
-5.7164588 -3.8674231 -0.17422095 29
-14.541162 -13.282558 -0.61307418 37
-5.3145165 -4.1896253 -0.25086778 46
-5.6699805 -3.8359787 -0.29410091 32
-14.560398 -13.300129 -0.96276891 52
-5.3039351 -4.1812835 -0.36991486 40
-5.6846476 -3.8459015 -0.41617617 29
-14.533784 -13.275819 -1.3098563 48
-5.2885909 -4.1691871 -0.48804006 43
-5.7008085 -3.8568351 -0.53927904 28
-6.4979854 -5.935555 -0.74134678 1
-5.2998104 -4.1780314 -0.60847282 43
-5.7184706 -3.8687842 -0.66309917 28
-6.4109826 -5.8560824 -0.88520193 0
-5.2906237 -4.1707897 -0.72663027 48
-5.2798362 -4.1622853 -0.84432983 44
-5.2644029 -4.1501188 -0.96050149 37
-5.2783332 -4.1611004 -1.0831926 38
-5.2660217 -4.1513953 -1.1992799 38
-5.2644286 -4.1501389 -1.3184692 38
-5.246067 -4.135664 -1.4322306 35
-5.2630358 -4.1490412 -1.5557352 32
-5.2358236 -4.1275887 -1.6653965 37
-4.5150275 -3.5593591 -1.9778489 5
-3.228658 -2.5452676 -1.9164225 8
-2.2201667 -1.7252437 0.74219829 14
-2.7568865 -2.1423171 0.67467821 8
-4.9860582 -3.8745584 0.88340038 20
-5.3304114 -4.142148 0.58609033 32
-5.3339343 -4.1448855 0.34751615 27
-5.3253222 -4.1381931 0.22761552 30
-5.7662191 -3.8426816 0.19270623 27
-8.1951141 -7.3815064 0.2418168 23
-5.3213544 -4.1351099 0.10798448 22
-5.7847953 -3.8550608 0.070373259 29
-14.640491 -13.186988 0.083223477 53
-5.3251882 -4.1380892 -0.01118197 33
-5.7949128 -3.8618033 -0.052506831 28
-14.603638 -13.153793 -0.26414973 36
-5.3210421 -4.1348672 -0.13033167 43
-5.8065419 -3.8695533 -0.17613879 25
-14.583033 -13.135235 -0.6109584 37
-5.3089151 -4.1254435 -0.24923782 46
-5.7598076 -3.8384087 -0.29736298 33
-14.599457 -13.150028 -0.95925802 46
-5.307765 -4.1245499 -0.36816484 42
-5.7811308 -3.8526187 -0.42126036 30
-14.578661 -13.131296 -1.305607 46
-5.2986655 -4.1174788 -0.48630533 44
-5.7906456 -3.8589594 -0.54521549 29
-6.5037236 -5.8580365 -0.73731768 0
-5.3036819 -4.121377 -0.60559928 44
-5.8049803 -3.8685124 -0.66998255 28
-6.6232009 -5.965652 -0.90873164 0
-5.2944884 -4.114233 -0.72319871 49
-5.2805591 -4.1034088 -0.83984405 41
-5.2713599 -4.0962601 -0.95653015 38
-5.2729521 -4.0974975 -1.0761919 38
-5.2544551 -4.0831242 -1.190125 40
-5.259182 -4.0867968 -1.3099778 38
-5.2531919 -4.0821424 -1.4263608 33
-5.258028 -4.0859003 -1.5457858 37
-5.2399955 -4.0718875 -1.6576414 38
-4.5457382 -3.5323954 -1.9804513 5
-3.2463474 -2.5226667 -1.9164225 8
-2.2168052 -1.6979436 0.73709375 14
-2.7780113 -2.1277945 0.67619604 7
-5.0538702 -3.8709698 0.89060503 20
-5.3370538 -4.087872 0.58366847 31
-5.3437128 -4.0929723 0.34628311 28
-5.3191714 -4.0741749 0.22613136 33
-5.8597603 -3.8462138 0.19493018 26
-8.315218 -7.3851929 0.24383341 23
-5.3151665 -4.0711074 0.10727954 23
-5.8817878 -3.8606722 0.071223572 27
-12.121315 -10.765593 0.068474367 4
-5.3063149 -4.0643277 -0.011082486 35
-5.8952975 -3.8695397 -0.053170327 28
-14.659228 -13.01965 -0.26350468 33
-5.3116798 -4.0684371 -0.12940349 45
-5.9002738 -3.8728061 -0.17815757 26
-14.632529 -12.995936 -0.60921597 36
-5.3090267 -4.0664048 -0.24790421 48
-5.8532825 -3.8419619 -0.30079675 32
-14.637138 -13.000031 -0.95574713 69
-5.2952099 -4.0558219 -0.36532101 43
-5.8612919 -3.847219 -0.425134 28
-14.613281 -12.978842 -1.3005608 47
-5.3051114 -4.063406 -0.48428148 43
-5.8841205 -3.8622034 -0.55146438 29
-6.4937997 -5.7674928 -0.73160988 0
-5.3070235 -4.0648704 -0.60272574 43
-5.8950911 -3.8694043 -0.67724836 30
-6.3522806 -5.6418023 -0.86613482 0
-5.3009815 -4.0602427 -0.72019613 48
-5.2870221 -4.0495505 -0.83635509 41
-5.2589645 -4.02806 -0.94915473 40
-5.2700787 -4.0365729 -1.0698277 40
-5.2609515 -4.029582 -1.1851956 39
-5.2657743 -4.0332756 -1.3045743 38
-5.2505126 -4.0215864 -1.4179754 36
-5.2616787 -4.030139 -1.5385498 35
-5.2528906 -4.0234079 -1.6527945 38
-4.5702887 -3.5005744 -1.9804513 5
-3.2696366 -2.5043509 -1.9198024 8
-2.228605 -1.682426 0.73709375 14
-2.7927983 -2.1083486 0.67619604 8
-5.1218724 -3.866621 0.89780968 23
-5.3241162 -4.0192995 0.5791707 32
-5.3370862 -4.0290909 0.34402251 27
-5.3219595 -4.0176716 0.22505198 33
-5.9502678 -3.846457 0.19704294 25
-8.4207258 -7.3743849 0.24541162 21
-5.3211141 -4.0170331 0.10683093 23
-5.9690585 -3.8586037 0.07195241 27
-12.18113 -10.66753 0.0683899 6
-5.3058276 -4.0054932 -0.011022796 32
-5.9792724 -3.8652065 -0.053683031 9
-14.707639 -12.880099 -0.26275212 45
-5.3176103 -4.0143881 -0.12886205 44
-15.326676 -9.9076891 -0.46068621 46
-14.689815 -12.864491 -0.60784698 35
-5.3149538 -4.0123825 -0.24686696 47
-5.947083 -3.844398 -0.30423048 30
-14.688464 -12.863308 -0.95321149 53
-5.2978945 -3.9995043 -0.36357096 44
-5.9550672 -3.8495595 -0.42997608 21
-14.667503 -12.844952 -1.2973739 7
-5.2951407 -3.9974253 -0.48081198 44
-5.9678712 -3.8578362 -0.55677593 0
-5.3034768 -4.0037184 -0.59913385 44
-6.2687726 -5.4898286 -0.84950179 0
-5.2974577 -3.9991744 -0.71590668 50
-5.2898235 -3.9934111 -0.83236766 41
-5.2648358 -3.9745474 -0.9451834 39
-5.2823715 -3.9877856 -1.0666455 42
-5.2606711 -3.9714034 -1.1788576 39
-5.2687435 -3.9774973 -1.2983987 40
-5.2503667 -3.9636245 -1.4104285 37
-5.2679176 -3.9768739 -1.5322182 34
-5.2529755 -3.9655938 -1.64407 39
-4.5885777 -3.4640243 -1.9778489 6
-3.2783597 -2.4749103 -1.9147326 8
-2.218576 -1.6506659 0.72994745 13
-2.813751 -2.0934882 0.67771387 12
-5.1868806 -3.8591452 0.90446013 20
-5.3200746 -3.9582443 0.57571089 29
-5.3394451 -3.9726565 0.34237844 30
-5.3274269 -3.9637146 0.22410752 32
-14.827758 -9.4390516 0.48882663 32
-8.5446472 -7.3781433 0.2475159 22
-5.3201494 -3.9583001 0.10625416 23
-11.654288 -7.4188848 0.13985573 20
-12.279528 -10.603143 0.068525054 4
-5.317616 -3.9564152 -0.010989635 33
-15.386441 -9.7946978 -0.13752507 50
-14.751794 -12.737898 -0.26194578 36
-5.3198376 -3.9580679 -0.12824327 41
-15.358365 -9.7768259 -0.45957586 49
-14.70967 -12.701525 -0.60498446 32
-5.3235941 -3.9608631 -0.24597788 45
-15.369328 -9.7838039 -0.7827239 59
-14.74767 -12.734338 -0.95126098 47
-5.3000517 -3.9433472 -0.36182094 44
-6.7364817 -5.8168259 -0.59225053 1
-5.2941117 -3.9389277 -0.47820988 44
-7.6800251 -4.8889489 -0.7133106 0
-5.292944 -3.9380586 -0.59482348 44
-7.5238461 -4.7895288 -0.85659873 0
-6.3129702 -5.4511313 -0.85031313 0
-5.2933412 -3.9383543 -0.71161723 51
-5.2761793 -3.9255855 -0.82588816 41
-5.2670412 -3.9187865 -0.94064468 40
-5.2847362 -3.931952 -1.0615542 39
-5.2693143 -3.9204779 -1.1746323 42
-5.2680435 -3.9195323 -1.2914513 40
-5.2528076 -3.9081962 -1.4037201 38
-5.2642922 -3.9167414 -1.5231733 35
-5.2493973 -3.905659 -1.6343762 42
-4.6126494 -3.4319055 -1.9778489 5
-3.2955577 -2.4519625 -1.9147326 8
-2.2144511 -1.6237025 0.72484291 16
-2.815629 -2.0645044 0.67467821 10
-5.239254 -3.8415794 0.90889376 29
-5.3282971 -3.9068685 0.57363504 33
-5.3444991 -3.9187481 0.34093985 30
-5.3324018 -3.909878 0.22316305 31
-15.130448 -9.4839554 0.49661049 31
-8.6659822 -7.3779359 0.24953251 18
-5.3315277 -3.9092376 0.10593373 23
-11.824415 -7.4116921 0.1412729 22
-12.170512 -10.361579 0.067511372 2
-5.3257532 -3.9050033 -0.010949842 36
-15.495115 -9.712533 -0.13788697 26
-14.791634 -12.593116 -0.26108572 33
-5.3215394 -3.9019136 -0.12762448 42
-15.615982 -9.7882948 -0.46522847 24
-14.776674 -12.58038 -0.60411328 35
-5.3188815 -3.8999648 -0.24449608 48
-15.410168 -9.6592875 -0.78135043 78
-14.778415 -12.581862 -0.94755501 45
-5.3049064 -3.8897178 -0.36028963 44
-7.9027243 -4.953527 -0.56555414 0
-6.7191858 -5.7204962 -0.58720446 0
-5.3021779 -3.8877172 -0.47647515 50
-7.7105908 -4.8330951 -0.71299815 1
-6.4583788 -5.4984541 -0.71448636 0
-5.2978187 -3.884521 -0.59230918 45
-7.6920476 -4.8214722 -0.87189513 0
-6.466012 -5.5049524 -0.86572915 0
-5.2950501 -3.8824909 -0.70818567 50
-5.2874541 -3.8769212 -0.82339603 48
-5.2814984 -3.8725545 -0.93837535 47
-5.2833958 -3.8739457 -1.0558263 40
-5.2743287 -3.8672974 -1.1697028 43
-5.2731233 -3.8664134 -1.2860478 48
-5.2768097 -3.8691165 -1.4028816 44
-5.2600861 -3.8568542 -1.5141283 37
-5.2608881 -3.8574424 -1.6295294 47
-4.6395469 -3.4018562 -1.9791501 5
-3.3067484 -2.4246078 -1.9113526 8
-2.2320023 -1.6127334 0.72688472 14
-3.055989 -2.2081051 0.7285614 2
-5.2884216 -3.8211493 0.91277319 19
-5.3586721 -3.8719087 0.57398099 26
-5.349061 -3.8649645 0.33950129 34
-5.3433657 -3.8608491 0.22248843 37
-15.448086 -9.5334845 0.50483918 25
-8.7938538 -7.3815327 0.25172445 23
-5.3489637 -3.8648942 0.10574148 26
-12.001811 -7.4066834 0.14277107 23
-12.178215 -10.222355 0.067156583 2
-5.3593698 -3.8724127 -0.010963106 25
-15.688488 -9.6818438 -0.13900286 40
-14.833238 -12.450973 -0.26027942 28
-5.3194757 -3.8435874 -0.12692834 51
-15.694146 -9.6853361 -0.46553129 38
-5.2946234 -4.4442897 -0.21518579 2
-5.3297782 -3.8510315 -0.24375518 57
-15.671075 -9.6710978 -0.79113662 88
-14.82611 -12.444989 -0.94501936 43
-5.338407 -3.8572662 -0.36072716 43
-8.0288525 -4.9548492 -0.57209092 0
-6.7039328 -5.6272597 -0.58242393 0
-5.3356571 -3.8552794 -0.4770534 31
-7.8730998 -4.8587298 -0.72487104 0
-5.272388 -4.4256258 -0.57984865 1
-5.3215795 -3.8451076 -0.59194994 52
-7.7695699 -4.7948384 -0.87686646 0
-5.2546339 -4.4107232 -0.69939882 19
-5.3252492 -3.847759 -0.70861465 53
-5.3176079 -3.8422377 -0.82389444 31
-5.3404994 -3.858778 -0.9440487 29
-5.3103123 -3.8369663 -1.0558263 47
-5.30439 -3.8326874 -1.1704071 29
-5.3222556 -3.8455961 -1.2914513 29
-5.3322239 -3.8527987 -1.4104285 26
-5.2900419 -3.82232 -1.5150328 34
-5.3065634 -3.8342576 -1.6353456 28
-4.6631832 -3.3693833 -1.9791501 5
-3.3324103 -2.4078331 -1.9164225 7
-2.2243032 -1.5836529 0.72075927 15
-3.1929035 -2.2732739 0.75740027 7
-5.3020611 -3.7749457 0.91055638 18
-5.4440055 -3.8760068 0.58020866 21
-5.3889303 -3.8367944 0.34032333 22
-5.4157825 -3.8559127 0.22437736 23
-15.527936 -9.4337091 0.50528395 40
-5.3206592 -4.4031944 0.15142046 16
-5.4181705 -3.8576128 0.10657459 18
-12.196799 -7.4099393 0.14447169 21
-5.3188086 -4.4016628 0.029160317 39
-5.4416676 -3.8743424 -0.011075854 23
-15.72835 -9.5554676 -0.13876158 42
-5.3029695 -4.388555 -0.092511535 29
-5.3820157 -3.8318715 -0.12777919 31
-15.727205 -9.5547724 -0.46452188 37
-5.28548 -4.3740811 -0.21356785 33
-5.3956084 -3.8415494 -0.24553333 34
-15.714301 -9.5469322 -0.78993481 65
-5.3063731 -4.3913717 -0.33626693 35
-5.4107561 -3.852334 -0.36378974 33
-15.720434 -9.5506582 -1.1153715 43
-5.2855959 -4.3741775 -0.45653749 31
-5.4176917 -3.8572719 -0.48196849 31
-8.0772343 -4.9071741 -0.7404933 0
-5.2816615 -4.3709211 -0.57749838 34
-5.377502 -3.8286576 -0.59518272 35
-7.8947325 -4.7962985 -0.88719153 0
-5.2607732 -4.3536348 -0.69615334 46
-5.4005771 -3.8450868 -0.71504879 36
-5.4024978 -3.8464541 -0.83286607 29
-5.4253688 -3.8627379 -0.95426077 30
-5.3755736 -3.8272848 -1.0634634 31
-5.3855472 -3.8343859 -1.1823786 29
-5.3969321 -3.8424916 -1.3030304 29
-5.4131551 -3.8540423 -1.4246837 25
-5.3800793 -3.830493 -1.5331228 28
-5.3743 -3.8263779 -1.6479475 27
-4.6804295 -3.3323584 -1.9765476 4
-3.3520923 -2.3866127 -1.9181124 8
-2.2289729 -1.5636436 0.71871746 16
-3.1958358 -2.2419062 0.75436461 9
-5.2893701 -3.7105386 0.90390593 24
-5.5296545 -3.8791001 0.58643627 22
-5.4744496 -3.8403735 0.34402251 21
-5.4982061 -3.857039 0.22667105 24
-15.555669 -9.3025007 0.50406075 39
-5.3357744 -4.3533044 0.15098207 43
-5.5071793 -3.8633335 0.10779222 17
-12.385545 -7.4067235 0.14609133 23
-5.3277111 -4.3467255 0.029042054 42
-5.5177021 -3.8707156 -0.011175338 24
-15.777514 -9.4351664 -0.1386108 40
-5.3117824 -4.3337302 -0.092135251 31
-5.4642944 -3.8332493 -0.12909409 32
-15.762641 -9.4262733 -0.46361342 38
-5.2880054 -4.3143311 -0.21244775 36
-5.4779267 -3.8428125 -0.24805239 34
-15.746271 -9.4164839 -0.7882179 74
-5.3059425 -4.3289657 -0.33431643 39
-5.4996433 -3.858047 -0.36794606 30
-15.766168 -9.4283819 -1.1139189 52
-5.2850776 -4.3119421 -0.45388168 41
-5.5065432 -3.8628874 -0.48746184 33
-8.2276611 -4.9202528 -0.75111639 0
-5.2811613 -4.3087468 -0.57414085 39
-5.4660659 -3.8344922 -0.60200739 33
-8.0134563 -4.7921553 -0.89675176 0
-5.2663698 -4.296679 -0.69290787 41
-5.4728699 -3.8392651 -0.72105402 36
-5.4779558 -3.842833 -0.84034246 32
-5.5008259 -3.8588767 -0.96277082 28
-5.4571214 -3.8282175 -1.0742826 30
-5.4669838 -3.8351362 -1.1943504 28
-5.4878869 -3.8497999 -1.3184692 29
-5.4847555 -3.8476031 -1.4364233 25
-5.4545374 -3.8264048 -1.5466902 25
-5.4453597 -3.8199666 -1.6615189 28
-4.7128696 -3.3061185 -1.9804513 5
-3.3627365 -2.3589885 -1.9147326 8
-2.2175629 -1.5326529 0.71157116 17
-3.1984849 -2.2106102 0.75132895 10
-5.2988496 -3.662262 0.90113491 22
-5.618885 -3.8834524 0.59300989 23
-5.5537047 -3.8384035 0.34731066 21
-5.580905 -3.8572028 0.22896476 22
-13.263243 -7.8064094 0.42800131 8
-5.3286424 -4.285871 0.14992993 36
-5.5899463 -3.8634517 0.10888168 17
-12.585175 -7.4073157 0.14783244 18
-5.3329921 -4.2893696 0.028906895 40
-5.5972376 -3.8684909 -0.011281454 23
-15.811974 -9.3065281 -0.13833936 38
-5.3138585 -4.2739801 -0.091651462 31
-5.5534291 -3.8382132 -0.13056372 32
-15.81428 -9.3078852 -0.46320969 39
-5.2930732 -4.2572622 -0.2114521 35
-5.5736732 -3.8522046 -0.25116417 34
-15.787519 -9.2921352 -0.78701609 108
-5.298677 -4.2617698 -0.33197585 39
-5.575726 -3.8536234 -0.37122738 31
-15.790314 -9.2937794 -1.1110137 54
-5.2839518 -4.2499261 -0.45122585 41
-5.5924501 -3.8651822 -0.49266604 32
-8.299613 -4.884943 -0.75455326 0
-5.2831602 -4.2492895 -0.57111901 40
-5.5385818 -3.8279514 -0.60703605 32
-8.1668167 -4.8067822 -0.9101361 0
-5.2652297 -4.2348676 -0.688851 42
-5.5715122 -3.8507111 -0.73049074 37
-5.5732117 -3.8518856 -0.85080934 31
-5.5895185 -3.8631558 -0.97355026 31
-5.5421882 -3.8304439 -1.0857382 30
-5.5324926 -3.8237431 -1.202801 30
-5.556601 -3.8404052 -1.3285043 28
-5.5790472 -3.8559189 -1.4540328 24
-5.542017 -3.8303256 -1.5638757 24
-5.5421276 -3.8304021 -1.6828452 27
-4.7358336 -3.2731378 -1.9804513 5
-3.3880696 -2.3416402 -1.9198024 8
-2.2090278 -1.5040741 0.70544571 17
-3.1781309 -2.163913 0.74298084 11
-5.2948174 -3.6051142 0.89614707 19
-5.6985636 -3.8800151 0.59854561 21
-5.6497083 -3.8467507 0.35162634 20
-5.6671782 -3.8586457 0.23139337 23
-15.618298 -9.0463247 0.501948 35
-5.3239641 -4.2212358 0.14896546 37
-5.6895132 -3.873853 0.11029156 17
-12.795793 -7.4114919 0.14969502 21
-5.3220615 -4.2197275 0.028687265 41
-5.6902356 -3.8743448 -0.011414099 23
-15.84887 -9.1798744 -0.13809809 43
-5.3059583 -4.2069592 -0.091006406 31
-5.6329813 -3.835362 -0.13180129 33
-15.837353 -9.1732035 -0.4619984 41
-5.291337 -4.1953664 -0.21020752 37
-5.6466885 -3.8446946 -0.25323868 35
-15.827798 -9.1676693 -0.78581429 63
-5.3032556 -4.2048168 -0.33041543 41
-5.6652203 -3.8573127 -0.37538373 31
-15.830627 -9.1693087 -1.109319 56
-5.2916007 -4.1955757 -0.44936675 41
-5.6753592 -3.8642159 -0.49758115 31
-8.4163322 -4.8748507 -0.76205194 0
-5.2877107 -4.1924915 -0.56843299 39
-5.6343241 -3.8362763 -0.61457914 33
-8.3069839 -4.8115149 -0.92199087 0
-5.2790751 -4.1856446 -0.68682259 43
-5.6442819 -3.843056 -0.73649597 36
-5.6590176 -3.8530893 -0.85978097 32
-5.6719923 -3.8619235 -0.98319501 28
-5.6275511 -3.8316643 -1.0971938 30
-5.637166 -3.8382111 -1.2197021 28
-5.6546493 -3.8501151 -1.345487 28
-5.6640229 -3.8564973 -1.4691265 26
-5.6233749 -3.8288209 -1.5792521 24
-5.6264744 -3.8309314 -1.7002941 29
-4.7585692 -3.2399957 -1.9804513 5
-3.4133251 -2.3240511 -1.9248723 8
-2.2226863 -1.4907697 0.70646662 14
-3.1996837 -2.1460481 0.74449867 11
-5.3034072 -3.5570285 0.89337605 22
-5.795013 -3.8867517 0.60581118 22
-5.7361431 -3.8472674 0.35532552 21
-5.7570605 -3.8612969 0.23395692 23
-15.653276 -8.921236 0.5010584 37
-5.3312483 -4.1667266 0.14835171 38
-5.7662425 -3.8674552 0.11125285 17
-13.000121 -7.4091291 0.15147662 17
-5.3261786 -4.1627641 0.028552106 43
-5.7802625 -3.8768585 -0.011540111 24
-15.898666 -9.0610905 -0.13797745 45
-5.3099885 -4.1501107 -0.090576373 32
-5.7293692 -3.8427238 -0.13342559 31
