# .PCD v0.7 - Point Cloud Data file format
VERSION 0.7
FIELDS x y z intensity
SIZE 4 4 4 4
TYPE F F F F
COUNT 1 1 1 1
WIDTH 1334
HEIGHT 1
VIEWPOINT 0 0 0 1 0 0 0
POINTS 1334
DATA ascii
4.7096934 -0.45515099 -0.20327815 87
4.7925158 0.23523147 -0.23425557 54
4.7395782 -0.1116946 -0.2596623 36
4.685524 -0.45281523 -0.28544021 54
4.7995949 0.23557894 -0.31976217 50
4.7542086 -0.11203939 -0.34463492 10
4.6956654 -0.45379531 -0.36962175 62
4.7773094 0.2344851 -0.40290585 2
4.7275052 -0.11141009 -0.42636201 13
4.6845188 -0.45271808 -0.45200878 80
4.7814317 0.23468743 -0.48803756 63
4.7034073 -0.11084219 -0.50744015 3
4.7096882 -0.1109902 -0.59162897 8
4.7066116 -0.11091771 -0.67456365 62
4.7178001 -0.11118137 -0.76052588 44
4.6961594 -0.11067139 -0.84012967 8
4.7123852 -0.11105376 -0.92709684 9
4.7037692 -0.11085071 -1.0087667 59
4.6938515 -0.11061699 -1.0899191 79
4.9892726 -0.11757899 -1.2466239 16
4.7947998 -0.11299597 -1.6499424 6
1.6998721 -0.040059797 -0.79259449 8
4.260025 -0.13015549 1.1250379 17
6.1512799 -0.18793854 1.1892247 14
7.4083619 -0.22634585 1.0369148 7
13.753819 -0.42021704 1.1946694 34
13.739411 -0.41977686 0.70715737 30
13.785715 -0.42119154 0.46548522 37
13.760869 -1.4269025 0.38474527 38
13.760509 0.57914263 0.30196413 36
13.779801 -0.42101085 0.22090356 26
13.789354 -1.4298563 0.14034161 43
13.779678 0.57994944 0.058253054 48
13.789547 -0.42130861 -0.022874624 34
13.801605 -1.4311266 -0.10462159 41
4.8073096 0.20232669 -0.064666688 3
4.740901 -0.14484757 -0.091734931 55
4.7171969 -0.4891392 -0.11971381 83
4.7894378 0.2015745 -0.1492237 3
4.7385325 -0.14477521 -0.17574082 60
4.702426 -0.48760757 -0.20310646 89
4.7940412 0.20176825 -0.23425557 50
4.7386832 -0.14477982 -0.2596623 46
4.7060771 -0.48798615 -0.28689283 56
4.7891598 0.20156281 -0.31896541 54
4.7174215 -0.14413022 -0.34203282 60
4.6923828 -0.48656616 -0.36962175 68
4.7589183 0.20029002 -0.40122706 15
4.7345767 -0.14465435 -0.42708039 59
4.6772838 -0.48500049 -0.45162636 96
4.7789774 0.20113425 -0.48763189 8
4.7104692 -0.14391781 -0.50829804 17
4.7206993 -0.14423037 -0.59312427 24
4.7255116 -0.14437738 -0.67740035 63
4.7050676 -0.14375277 -0.75861663 61
4.7110157 -0.1439345 -0.84294653 9
4.6879568 -0.14322999 -0.92246521 4
4.6989717 -0.14356652 -1.0079281 55
4.6851754 -0.14314501 -1.0881101 92
5.0542722 -0.15442193 -1.2631034 14
4.7938943 -0.14646667 -1.6499424 7
1.7067986 -0.052147396 -0.79597443 6
4.2512827 -0.15960272 1.1229961 21
6.1184216 -0.2296993 1.1831533 11
7.3828492 -0.27716878 1.0335896 6
13.758513 -0.51652557 1.1953613 37
13.748121 -0.51613539 0.70777386 32
13.782438 -0.51742369 0.46548522 37
13.762495 -1.5242556 0.38507885 41
13.768212 0.48320237 0.30205181 38
13.772529 -0.5170517 0.22083947 26
13.783012 -1.526528 0.1403821 35
13.771398 0.48331416 0.058202371 40
4.764637 -0.17887518 -0.0079056397 11
13.811156 -1.5296451 -0.10477239 44
4.8086047 0.1687604 -0.064666688 40
4.731781 -0.1776417 -0.091580234 64
4.7017441 -0.52073842 -0.11941099 80
4.7867332 0.1679928 -0.14909923 50
4.7374063 -0.17785288 -0.17574082 85
4.7068515 -0.52130407 -0.20344985 87
4.7673836 0.16731372 -0.23289022 20
4.7335658 -0.1777087 -0.25944355 17
4.6668401 -0.51687264 -0.28471389 12
4.7824726 0.16784328 -0.31843424 4
4.7322474 -0.1776592 -0.34318933 11
4.6809444 -0.51843476 -0.36899686 46
4.764184 0.16720143 -0.40156284 57
4.7254887 -0.17740548 -0.42636201 122
4.6658692 -0.51676512 -0.45086154 83
4.7723112 0.16748667 -0.48682052 12
4.7133236 -0.17694877 -0.50872695 29
4.7116451 -0.17688575 -0.59212744 19
4.716475 -0.17706707 -0.67626566 59
4.7078953 -0.17674498 -0.75925308 64
4.6980915 -0.17637692 -0.8408339 8
4.7025309 -0.17654359 -0.92555296 12
4.7095795 -0.17680821 -1.0104437 57
4.6723809 -0.17541169 -1.0853966 110
6.3871126 -0.23978657 -1.5965704 6
4.8003144 -0.1802146 -1.6525447 6
1.6810325 -0.063109741 -0.78414464 4
4.2501307 -0.18779439 1.1229961 21
6.1049929 -0.2697525 1.1808766 7
7.4085517 -0.32735097 1.037469 4
13.73488 -0.60688329 1.1936314 37
13.756369 -0.60783279 0.70839041 34
13.77471 -0.60864317 0.4653503 33
13.771938 -1.6178313 0.38563484 42
13.771114 0.39187872 0.30205181 24
13.776788 -0.60873502 0.22096765 23
13.784502 -1.6193073 0.14050357 41
13.786296 0.39231074 0.058253054 25
4.7593493 -0.2102945 -0.0078990078 5
13.804679 -1.6216775 -0.10480255 41
4.7896285 0.13629641 -0.064397916 41
4.7384896 -0.20937279 -0.091734931 69
4.6981869 -0.55191022 -0.11941099 67
4.7837453 0.13612899 -0.14897478 50
4.7481027 -0.20979756 -0.17618535 69
4.6913834 -0.55111104 -0.20293479 72
4.7683883 0.13569199 -0.23289022 2
4.7362728 -0.20927486 -0.2596623 45
4.6672745 -0.54827893 -0.28495601 60
4.7595429 0.13544029 -0.31684074 2
4.7349501 -0.2092164 -0.34347844 53
4.6813636 -0.54993397 -0.36930931 75
4.7492509 0.13514741 -0.4002198 64
4.7281885 -0.20891763 -0.42672122 99
4.6742024 -0.54909271 -0.45200878 29
4.7653613 0.13560586 -0.48600915 26
4.7120466 -0.2082044 -0.50872695 56
4.7103682 -0.20813024 -0.59212744 25
4.7151971 -0.2083436 -0.67626566 56
4.698729 -0.20761596 -0.75798023 65
4.6928844 -0.2073577 -0.84012967 8
4.7012568 -0.20772764 -0.92555296 5
4.7043962 -0.20786636 -1.0096052 2
4.6672225 -0.20622382 -1.0844922 91
6.3815045 -0.28197032 -1.595601 5
4.7990136 -0.21204709 -1.6525447 8
1.6914427 -0.074737333 -0.78921455 3
4.2409916 -0.21706595 1.1209543 19
6.1264944 -0.3135713 1.18543 6
7.4100428 -0.37926695 1.0380232 2
13.750208 -0.70377451 1.1953613 35
13.75179 -0.70385551 0.70839041 33
13.77811 -0.70520258 0.46562013 36
13.768244 -1.7149249 0.38585725 40
4.9576659 0.10644516 0.10872111 2
13.784186 -0.7055136 0.22115991 27
13.788737 -1.7174774 0.14066555 42
4.9468155 0.10621219 0.020898789 1
4.7497759 -0.24310698 -0.0078857429 4
13.812868 -1.7204831 -0.10495334 42
4.7864642 0.10276932 -0.064344168 48
4.7289248 -0.24203973 -0.091580234 70
4.7021556 -0.58568424 -0.11961287 18
4.780582 0.10264302 -0.14885032 53
4.726562 -0.24191882 -0.17544445 99
4.6834559 -0.58335507 -0.2027631 43
4.7692194 0.10239905 -0.23289022 3
4.7307081 -0.24213101 -0.25944355 18
4.6831436 -0.58331621 -0.28616652 89
4.7563825 0.10212343 -0.31657517 4
4.7254057 -0.24185963 -0.34290019 21
4.6694961 -0.58161628 -0.36868441 66
4.7540636 0.10207365 -0.40055555 53
4.7226362 -0.24171788 -0.42636201 78
4.662353 -0.58072656 -0.45124397 14
4.7622137 0.10224864 -0.48560345 29
4.7104783 -0.2410956 -0.50872695 29
4.6969104 -0.24040115 -0.59063214 50
4.6938558 -0.24024481 -0.67342901 7
4.6932216 -0.24021234 -0.75734377 10
4.6834579 -0.23971263 -0.83872128 58
4.6918526 -0.24014229 -0.92400908 60
4.6833005 -0.23970456 -1.0054125 4
4.6773429 -0.23939964 -1.0872056 5
6.3755054 -0.32631639 -1.5946316 6
4.7898612 -0.24515866 -1.6499424 6
1.7089835 -0.087470606 -0.7976644 3
4.2123456 -0.24509528 1.1138079 21
5.2890434 -0.30774292 1.0237806 6
7.4151235 -0.43144888 1.0391316 2
13.764851 -0.80090767 1.1970912 37
13.750529 -0.8000744 0.70859593 31
13.776841 -0.80160534 0.46575505 33
13.759901 -1.8115256 0.38596845 41
4.9143033 0.071194895 0.10775666 1
13.770938 -0.8012619 0.22103173 25
13.788308 -1.8152655 0.14078701 41
4.9474363 0.071674913 0.020898789 28
4.763936 -0.27718958 -0.0079122717 0
13.804486 -1.8173953 -0.1049835 43
4.7870655 0.069351569 -0.064344168 59
4.7231269 -0.27481508 -0.09150289 70
4.6979523 -0.61849725 -0.11961287 21
4.7691894 0.069092587 -0.14847696 57
4.7367296 -0.27560657 -0.175889 32
4.6911559 -0.61760247 -0.20327815 24
4.7458491 0.068754457 -0.23171991 5
4.724915 -0.27491912 -0.2592248 58
4.69875 -0.61860222 -0.28737703 112
4.7569795 0.06891571 -0.31657517 3
4.7156367 -0.27437925 -0.34232196 69
4.6771832 -0.61576295 -0.36962175 85
4.7546606 0.068882108 -0.40055555 51
4.6969709 -0.2732932 -0.42420685 6
4.6463423 -0.61170262 -0.45009673 18
4.7667904 0.069057837 -0.48600915 44
4.6967697 -0.27328148 -0.50744015 55
4.7030411 -0.27364641 -0.59162897 79
4.6881108 -0.27277768 -0.67286164 20
4.6796031 -0.27228263 -0.75543451 14
4.6698775 -0.27171677 -0.83660859 61
4.6939802 -0.27311918 -0.92478102 54
4.6737037 -0.2719394 -1.0037354 7
4.6522188 -0.27068928 -1.0817786 5
6.3846946 -0.37149337 -1.5975398 5
4.7955852 -0.27903107 -1.6525447 6
1.6829957 -0.097925082 -0.78583461 4
4.2143912 -0.27474862 1.1148288 19
5.2985234 -0.34542638 1.0260572 6
7.3842597 -0.48140168 1.0352522 1
13.731089 -0.89517021 1.1946694 49
13.756567 -0.89683127 0.70921248 33
13.782878 -0.89854652 0.46615982 37
13.774641 -1.9113888 0.38674682 42
4.9026837 0.036794823 0.10749362 1
13.776982 -0.89816219 0.221224 23
13.787185 -1.9131293 0.14090848 40
4.939817 0.037073508 0.020865001 14
13.806673 -0.90009779 -0.022940945 30
11.889737 -1.6498368 -0.090507179 2
4.7794337 0.035869826 -0.064236656 44
4.6931577 -0.3059608 -0.090961449 7
4.689559 -0.65072984 -0.11951193 8
4.7615595 0.035735682 -0.14822803 14
4.7267127 -0.30814835 -0.17559263 6
4.6867299 -0.65033728 -0.20327815 24
4.7462134 0.035620507 -0.23171991 11
4.7268662 -0.30815837 -0.25944355 61
4.6745429 -0.64864618 -0.28616652 68
4.7573447 0.03570405 -0.31657517 37
4.7096252 -0.30703437 -0.34203282 60
4.6688204 -0.64785212 -0.36930931 75
4.7749543 0.035836209 -0.40223435 5
4.6949487 -0.30607757 -0.42420685 22
4.6577339 -0.64631379 -0.45162636 38
4.7393012 0.035568632 -0.48316935 9
4.6947474 -0.30606446 -0.50744015 42
4.7049766 -0.30673134 -0.59212744 102
4.6860924 -0.30550021 -0.67286164 20
4.677588 -0.3049458 -0.75543451 11
4.6678672 -0.30431205 -0.83660859 68
4.6958756 -0.30613801 -0.92555296 62
4.6560802 -0.30354363 -1.0003812 10
4.6579919 -0.30366823 -1.0835876 8
6.3819456 -0.41605788 -1.5975398 9
4.7972946 -0.31274983 -1.653846 6
1.7148312 -0.11179491 -0.80104434 6
4.1852627 -0.30367455 1.1076825 20
5.2840977 -0.3834039 1.0237806 8
7.4160919 -0.53809726 1.0402399 0
13.751979 -0.99781698 1.1970912 37
13.745639 -0.99735695 0.70900697 30
13.783895 -1.0001327 0.46642968 40
13.764217 -2.0128889 0.38685802 41
4.9068208 0.00085613562 0.1075813 3
13.778007 -0.99970543 0.22135216 24
13.796537 -2.0176156 0.14115143 45
4.9119563 0.00085703167 0.020746738 45
13.799704 -1.0012797 -0.022940945 30
11.489461 -1.680227 -0.087551594 0
4.7675695 0.00083183928 -0.064075395 5
4.6987667 -0.34093341 -0.091116145 4
4.6727929 -0.68335259 -0.11920912 24
4.7576952 0.00083011639 -0.14810358 6
4.7083797 -0.34163091 -0.17499992 28
4.6699739 -0.6829403 -0.2027631 40
4.7623281 0.00083092478 -0.23250012 60
4.7045627 -0.34135395 -0.25834978 102
4.6696625 -0.68289477 -0.28616652 76
4.7494965 0.00082868588 -0.316044 72
4.7112269 -0.34183753 -0.34232196 76
4.6600003 -0.68148178 -0.36899686 64
4.7312441 0.00082550128 -0.39854103 28
4.6925788 -0.34048444 -0.42420685 54
4.6528716 -0.68043923 -0.45162636 22
4.7434144 0.0008276247 -0.48357505 42
4.6884112 -0.34018204 -0.50701118 44
4.694685 -0.34063727 -0.59113055 75
4.6876764 -0.34012872 -0.67342901 18
4.6673498 -0.33865386 -0.75416166 19
4.6733656 -0.33909035 -0.83801705 62
4.6935053 -0.34055164 -0.92555296 60
4.6654329 -0.33851478 -1.0028969 10
4.6400957 -0.33667636 -1.0799696 10
6.3787241 -0.46282786 -1.5975398 8
4.7948732 -0.34790671 -1.653846 6
1.7103496 -0.12409966 -0.79935437 7
4.163764 -0.33135176 1.1025779 19
5.2852073 -0.42059609 1.0245395 9
9.1654825 -0.72938782 1.2863064 16
13.764541 -1.0953803 1.1988211 39
13.762234 -1.0951967 0.71024001 32
13.776577 -1.0963382 0.46642968 36
13.761685 -2.1107509 0.38719162 44
4.918704 -0.033481028 0.10784434 4
13.762717 -1.0952351 0.221224 27
13.786068 -2.1144907 0.14119191 43
4.9198422 -0.033488777 0.020780526 19
13.796364 -1.0979128 -0.022947578 31
11.137436 -1.7082467 -0.08495792 0
4.7794576 -0.032533195 -0.064236656 6
4.7122183 -0.37499771 -0.091425538 42
4.6639557 -0.715352 -0.11910818 96
4.7615829 -0.032411527 -0.14822803 5
4.6979103 -0.37385908 -0.17470357 31
4.665092 -0.71552628 -0.2027631 17
4.7582226 -0.03238865 -0.23230506 57
4.7060461 -0.37450653 -0.25856853 107
4.6608343 -0.71487325 -0.2859244 56
4.7414041 -0.032274172 -0.31551284 66
4.7206564 -0.37566921 -0.34318933 88
4.6472454 -0.71278894 -0.36837196 47
4.7311344 -0.032204267 -0.39854103 11
4.6940589 -0.37355256 -0.42456606 45
4.6401362 -0.71169859 -0.45086154 94
4.7433043 -0.032287106 -0.48357505 10
4.6898861 -0.3732205 -0.50744015 42
4.6842799 -0.37277433 -0.59013373 64
4.6851878 -0.3728466 -0.67342901 29
4.6569982 -0.37060329 -0.7528888 13
4.6826591 -0.37264538 -0.84012967 56
4.6714511 -0.37175342 -0.92169327 5
4.670753 -0.3716979 -1.0045739 58
4.6415162 -0.36937124 -1.0808742 79
6.3753376 -0.50734848 -1.5975398 8
4.7885571 -0.38107273 -1.6525447 6
1.6949854 -0.13488671 -0.79259449 7
4.1613493 -0.36041173 1.1025779 21
5.2782292 -0.45714402 1.0237806 12
9.1680593 -0.79403967 1.2874148 18
13.760529 -1.1917905 1.199167 35
13.750273 -1.1909022 0.71003449 36
13.77257 -1.1928333 0.4665646 37
13.762407 -2.2093077 0.38763642 38
4.922349 -0.067874372 0.10793202 4
13.782628 -1.1937045 0.22167259 26
13.794667 -2.2144864 0.14143486 43
4.9474854 -0.06822098 0.020898789 16
13.796333 -1.1948915 -0.022960842 32
10.769801 -1.7288984 -0.082243606 5
4.7511191 -0.065513283 -0.063860372 6
4.7094855 -0.40788549 -0.091425538 46
4.6825376 -0.75169742 -0.11971381 96
4.7452502 -0.065432355 -0.14773022 2
4.7111154 -0.40802667 -0.17529628 52
4.6678753 -0.74934363 -0.20310646 85
4.7498908 -0.065496348 -0.23191497 55
4.7033172 -0.40735123 -0.25856853 51
4.6517882 -0.7467612 -0.28568232 52
4.7370725 -0.065319598 -0.31524724 62
4.6940708 -0.40655044 -0.34145457 9
4.6460934 -0.74584699 -0.36868441 41
4.7347798 -0.065287985 -0.39887679 4
4.7032433 -0.40734485 -0.42564362 25
4.6389861 -0.74470603 -0.45124397 86
4.727047 -0.06518136 -0.48195231 6
4.6911283 -0.4062956 -0.50786906 71
4.6815629 -0.40546715 -0.59013373 9
4.6785254 -0.40520406 -0.67286164 52
4.6818376 -0.40549093 -0.75734377 60
4.6367927 -0.4015896 -0.83238333 5
4.6531014 -0.40300208 -0.91860557 6
4.6563544 -0.40328383 -1.0020583 68
4.6582341 -0.40344661 -1.0853966 69
6.387105 -0.55318302 -1.6014173 7
4.78578 -0.41449329 -1.6525447 6
1.7012262 -0.1473421 -0.79597443 6
4.1742706 -0.38944006 1.1066616 21
5.2750816 -0.49214062 1.0237806 11
9.1349821 -0.85225141 1.2835354 18
13.760258 -1.2837682 1.199859 38
13.765938 -1.2842981 0.71126753 32
13.776299 -1.2852646 0.46696937 38
13.767169 -2.3038347 0.38819242 41
13.765821 -0.28114206 0.30187646 40
13.790338 -1.2865745 0.22192894 24
13.779675 -2.3059278 0.14143486 44
5.0069108 -0.10225713 0.021152211 6
13.800053 -1.2874808 -0.022980738 33
4.7705746 -0.097430378 -0.064129144 5
4.706677 -0.43911111 -0.091425538 78
4.6695609 -0.78141677 -0.11951193 79
4.728723 -0.09657564 -0.14723238 5
4.7083058 -0.43926311 -0.17529628 77
4.6628022 -0.78028578 -0.20310646 93
4.7453575 -0.096915364 -0.23171991 56
4.7005119 -0.43853596 -0.25856853 38
4.6467333 -0.77759671 -0.28568232 42
4.7325449 -0.0966537 -0.31498167 60
4.6833267 -0.43693262 -0.34087634 44
4.652844 -0.77861929 -0.36962175 39
4.7222877 -0.096444204 -0.39786953 27
4.6925049 -0.43778893 -0.42492524 70
4.6300178 -0.77479953 -0.45086154 93
4.7304897 -0.096611723 -0.48235798 55
4.7041698 -0.4388772 -0.50958484 103
4.678771 -0.43650764 -0.59013373 34
4.671793 -0.43585658 -0.67229432 56
4.6672497 -0.43543273 -0.75543451 64
4.6457891 -0.43343055 -0.83449596 14
4.6464186 -0.43348929 -0.91783363 18
4.6613665 -0.43488383 -1.0037354 59
4.6321788 -0.43216076 -1.0799696 102
6.3871598 -0.59589237 -1.6023866 8
4.7904577 -0.44692749 -1.6551472 7
1.6966019 -0.15828508 -0.79428446 4
4.1637535 -0.41779971 1.1046197 21
5.2910562 -0.53091562 1.0275751 11
9.0933352 -0.91244429 1.2785475 20
13.762856 -1.3809936 1.200897 34
13.764585 -1.3811672 0.71167856 34
13.778922 -1.3826058 0.46737415 36
13.766506 -2.4026399 0.38863719 39
13.779512 -0.37767535 0.30222717 44
13.784999 -1.3832155 0.22199301 22
13.790824 -2.406884 0.1417183 45
13.790698 -0.37798193 0.058269948 45
13.806649 -1.385388 -0.023007268 32
10.694042 -1.8664091 -0.081851542 0
4.76578 -0.13062274 -0.064075395 47
4.7074761 -0.47235799 -0.09150289 97
4.6561136 -0.81262189 -0.11931005 101
4.7599058 -0.13046174 -0.14822803 66
4.7091017 -0.47252107 -0.17544445 89
4.6533046 -0.81213164 -0.20293479 82
4.732584 -0.12971289 -0.23113476 14
4.7013102 -0.47173926 -0.25878727 34
4.6451244 -0.81070399 -0.2859244 23
4.7237754 -0.12947145 -0.3144505 8
4.7000108 -0.47160888 -0.34232196 61
4.6315813 -0.80834025 -0.36837196 29
4.7214994 -0.12940907 -0.39786953 55
4.6932983 -0.47093537 -0.42528445 86
4.6323409 -0.80847281 -0.45162636 82
4.7098107 -0.12908871 -0.48032957 78
4.6891203 -0.47051612 -0.50829804 94
4.6677122 -0.46836796 -0.5891369 34
4.6725764 -0.46885604 -0.67286164 54
4.6640964 -0.46800515 -0.75543451 66
4.6504855 -0.46663943 -0.83590442 14
4.6510897 -0.46670002 -0.91937751 11
4.658217 -0.46741518 -1.0037354 55
4.6251721 -0.46409941 -1.0790652 116
6.3867059 -0.64085537 -1.603356 7
4.7834578 -0.47998211 -1.653846 6
1.6918483 -0.16976358 -0.79259449 3
4.2030349 -0.45140091 1.1158497 23
5.2794108 -0.56700242 1.0260572 13
9.0591726 -0.97294426 1.2746681 18
13.748916 -1.4766171 1.200551 35
13.766523 -1.4785081 0.71229511 33
13.768934 -1.478767 0.46737415 34
13.769067 -2.5022643 0.38919318 39
13.764549 -0.47345284 0.30196413 42
13.790913 -1.4811275 0.22224936 25
13.785491 -2.505249 0.14183977 45
13.783725 -0.47411242 0.058253054 45
13.804595 -1.482597 -0.023020532 29
10.641398 -1.9338704 -0.08154995 0
4.7647519 -0.16389096 -0.064075395 50
4.6961112 -0.50435668 -0.091348194 109
4.6463928 -0.8443929 -0.11920912 128
4.7428966 -0.16313921 -0.14773022 65
4.705688 -0.50538528 -0.17544445 101
4.6553855 -0.84602714 -0.20327815 78
4.7475348 -0.16329876 -0.23191497 47
4.7137866 -0.50625503 -0.2596623 15
4.6550651 -0.84596896 -0.28689283 31
4.7187676 -0.16230926 -0.3141849 53
4.6966038 -0.50440961 -0.34232196 9
4.6258249 -0.84065515 -0.36837196 52
4.7204809 -0.16236819 -0.39786953 98
4.6819744 -0.50283843 -0.42456606 100
4.6226664 -0.8400811 -0.45124397 26
4.7207255 -0.16237661 -0.48154661 85
4.6857214 -0.50324088 -0.50829804 92
4.6603823 -0.50051951 -0.58863848 8
4.6534414 -0.49977404 -0.67059231 38
4.6567893 -0.50013357 -0.75479811 66
4.6549444 -0.49993545 -0.83731282 17
4.6555228 -0.49999759 -0.92092133 12
4.65484 -0.49992424 -1.0037354 20
4.621819 -0.49637786 -1.0790652 92
6.3820763 -0.68542731 -1.603356 8
4.7724686 -0.51255739 -1.6512436 6
1.6870171 -0.18118361 -0.79090452 3
4.337935 -0.4980801 1.1526023 7
5.286818 -0.60703045 1.028334 13
9.0636034 -1.0406796 1.2763307 17
13.773354 -1.5814513 1.2036648 34
13.759284 -1.5798359 0.71250063 30
13.785526 -1.582849 0.46831861 35
13.769999 -2.6068463 0.38974917 41
13.764706 -0.57450593 0.30205181 38
13.787631 -1.5830908 0.22237754 23
13.794266 -2.6114404 0.14212321 44
13.771886 -0.57480562 0.058219265 43
13.805278 -1.5851169 -0.023040429 31
4.6767955 -0.88538039 -0.035889216 1
4.7594261 -0.19864708 -0.06402164 50
4.6883144 -0.53831053 -0.091270842 103
4.6204333 -0.87471032 -0.11870442 24
4.7335839 -0.19756849 -0.14748129 57
4.7058282 -0.54032147 -0.17559263 85
4.6412053 -0.8786428 -0.20293479 29
4.7182674 -0.19692922 -0.23054962 7
4.6861415 -0.53806102 -0.25834978 35
4.6487389 -0.8800689 -0.28689283 90
4.7134633 -0.19672871 -0.31391934 9
4.6650352 -0.53563762 -0.34029809 60
4.623457 -0.8752827 -0.36868441 63
4.7151814 -0.19680041 -0.39753377 72
4.6821203 -0.53759933 -0.42492524 95
4.6046472 -0.8717218 -0.45009673 27
4.7114568 -0.19664495 -0.48073524 88
4.6700535 -0.53621382 -0.50701118 89
4.6526451 -0.53421497 -0.58814001 64
4.6575198 -0.53477472 -0.671727 52
4.6608443 -0.53515643 -0.75607091 49
4.658978 -0.53494215 -0.83872128 62
4.6595306 -0.53500557 -0.92246521 56
4.6432791 -0.53313959 -1.0020583 8
4.6064434 -0.52891016 -1.0763516 9
6.3653135 -0.73086298 -1.6004479 7
4.7836142 -0.54925281 -1.6564485 6
1.6892455 -0.19395854 -0.79259449 3
6.5610347 -0.79978245 1.7447275 21
5.2668571 -0.64202374 1.0252984 15
9.0364552 -1.1015334 1.2735597 19
11.210533 -1.3665509 0.98050761 2
13.747919 -1.6758553 0.71250063 31
13.782077 -1.680019 0.46858844 32
13.778927 -2.7083135 0.39052755 39
13.772342 -0.67117 0.30231485 37
13.780213 -1.6797919 0.22244161 23
13.795321 -2.7115359 0.14232567 40
13.783519 -0.67171466 0.058286842 42
13.801816 -1.6824254 -0.023053695 31
4.6351767 -0.911066 -0.035617787 3
4.7539282 -0.23167405 -0.063967884 50
4.6884122 -0.57151192 -0.091348194 104
4.6416798 -0.91234422 -0.11941099 23
4.7400761 -0.23099898 -0.14773022 75
4.7019415 -0.57316118 -0.17559263 52
4.6271157 -0.90948153 -0.2025914 27
4.7167778 -0.22986358 -0.23054962 56
4.6783061 -0.57028008 -0.25813103 93
4.6346455 -0.91096163 -0.28640863 73
4.7159615 -0.2298238 -0.3141849 35
4.6691022 -0.56915814 -0.34087634 88
4.6289721 -0.90984643 -0.36962175 100
4.7097111 -0.2295192 -0.39719802 60
4.6742988 -0.56979156 -0.42456606 19
4.6179838 -0.90768665 -0.45200878 14
4.7059946 -0.22933808 -0.48032957 61
4.6504054 -0.56687897 -0.5052954 49
4.6606212 -0.56812429 -0.58963531 84
4.6576037 -0.56775647 -0.67229432 51
4.6373944 -0.56529295 -0.7528888 23
4.643404 -0.56602556 -0.83660859 60
4.6556821 -0.56752217 -0.92246521 56
4.6355615 -0.56506956 -1.0012197 9
4.610374 -0.5619992 -1.0781606 9
6.3639088 -0.77575302 -1.6014173 6
4.7796631 -0.58263534 -1.6564485 6
1.6770537 -0.20443089 -0.78752458 5
6.5898128 -0.85002059 1.7539157 20
5.2700367 -0.67978251 1.0268162 14
8.9892569 -1.1595252 1.2680176 18
13.734121 -1.7715657 1.2022809 30
13.755694 -1.7743483 0.71352816 31
13.785872 -1.7782408 0.46912813 33
13.76752 -2.8060379 0.39074996 40
13.767321 -0.76730269 0.30231485 41
13.78005 -1.77749 0.22263387 26
13.80349 -2.8133693 0.1426091 46
13.782488 -0.76814806 0.05830374 44
13.801637 -1.7802744 -0.023073591 31
4.6247845 -0.94260412 -0.035587627 17
4.7402153 -0.26418939 -0.063806616 45
4.6882744 -0.60474098 -0.091425538 20
4.6312795 -0.94392788 -0.11931005 27
4.7143965 -0.26275042 -0.14698347 13
4.6859326 -0.60443884 -0.1751481 29
4.6167383 -0.94096416 -0.20241971 14
4.7070804 -0.26234266 -0.23015951 17
4.6821337 -0.60394883 -0.25856853 92
4.6399102 -0.94568694 -0.28713492 101
4.7062721 -0.26229763 -0.31365374 57
4.688756 -0.60480303 -0.34261107 103
4.6303225 -0.94373286 -0.37024665 95
4.7040148 -0.2621718 -0.39686227 8
4.6544023 -0.60037184 -0.42312929 16
4.5998306 -0.93751812 -0.45086154 41
4.688386 -0.26130077 -0.47870684 9
4.6502786 -0.59983987 -0.50572437 24
4.6644139 -0.60166323 -0.59063214 86
4.6653075 -0.60177845 -0.67399633 57
4.6294184 -0.59714907 -0.7522524 16
4.6198139 -0.59591025 -0.8330875 60
4.6593919 -0.60101539 -0.92400908 61
4.6198668 -0.59591711 -0.99870414 8
4.5908809 -0.59217817 -1.0745426 10
6.3621864 -0.82065904 -1.6023866 8
4.7792306 -0.61647338 -1.6577497 6
1.7115424 -0.22077201 -0.80442423 6
6.5955272 -0.89526719 1.7569784 19
5.2770872 -0.71630406 1.0290929 16
9.0009956 -1.221782 1.2707887 19
13.761559 -1.8679737 1.2057407 35
13.763416 -1.8682258 0.71455568 32
13.797543 -1.8728582 0.46993768 34
13.768168 -2.9014087 0.39130595 38
13.773902 -0.85933989 0.30257788 37
13.795701 -1.8726082 0.22308248 24
13.788442 -2.9056809 0.14264959 33
13.781082 -0.85978782 0.058320634 44
13.801416 -1.873384 -0.023093488 32
4.6458287 -0.97902983 -0.03579874 5
4.7343664 -0.29537237 -0.063752867 6
4.6762347 -0.63474524 -0.091270842 21
4.62883 -0.97544765 -0.11941099 15
4.7245212 -0.29475811 -0.14735684 4
4.6897421 -0.63657868 -0.17544445 46
4.6182165 -0.97321099 -0.2027631 42
4.7092242 -0.29380375 -0.23035456 58
4.674067 -0.63445103 -0.25834978 71
4.610095 -0.97149956 -0.28568232 73
4.7044291 -0.2935046 -0.31365374 69
4.6727815 -0.63427651 -0.34174371 70
4.6239614 -0.97442168 -0.37024665 95
4.6902375 -0.29261923 -0.39585498 12
4.6621609 -0.63283491 -0.42420685 35
4.6051993 -0.97046793 -0.45200878 33
4.7064075 -0.29362804 -0.48073524 12
4.6461978 -0.6306681 -0.50572437 14
4.6563878 -0.63205129 -0.59013373 74
4.6455193 -0.63057601 -0.671727 88
4.6292691 -0.62837017 -0.7528888 11
4.6352687 -0.62918454 -0.83660859 49
4.655303 -0.63190401 -0.92400908 56
4.6235642 -0.62759578 -1.0003812 11
4.5868526 -0.6226126 -1.0745426 9
6.3527584 -0.86231411 -1.6014173 8
4.7750368 -0.64815646 -1.6577497 6
1.699263 -0.23065546 -0.79935437 6
6.585288 -0.94074309 1.7559575 19
5.2719584 -0.75312704 1.0290929 17
9.0040112 -1.2862705 1.2724513 19
13.771852 -1.9673816 1.2078166 36
13.757948 -1.9653955 0.71496671 33
13.78809 -1.9697013 0.4700726 34
13.767112 -3.0017154 0.39186195 43
13.767568 -0.95547897 0.30257788 38
13.778333 -1.9683075 0.22301839 27
4.8732538 -1.0625409 0.050492208 4
13.778734 -0.95625389 0.058337528 44
13.784041 -1.969123 -0.023086855 28
4.7717547 -1.0404106 -0.036824144 23
4.7122388 -0.32703272 -0.063484095 4
4.6716895 -0.66737545 -0.091270842 12
4.6101866 -1.005183 -0.11910818 49
4.7063942 -0.32662711 -0.14685902 34
4.6733127 -0.66760737 -0.17499992 18
4.61131 -1.005428 -0.2027631 53
4.7030725 -0.32639658 -0.23015951 62
4.6655703 -0.66650134 -0.25813103 100
4.614903 -1.0062114 -0.28640863 83
4.6982837 -0.32606423 -0.31338817 76
4.6761389 -0.66801113 -0.34232196 75
4.6949711 -1.023669 -0.37649551 35
4.7039857 -0.32645994 -0.39719802 31
4.6536856 -0.6648035 -0.42384768 27
4.7422528 -1.0339781 -0.46615797 25
4.7002735 -0.32620233 -0.48032957 27
4.6416821 -0.66308874 -0.50572437 54
4.6479335 -0.6639818 -0.58963531 74
4.6449242 -0.66355187 -0.67229432 78
4.6247697 -0.66067272 -0.7528888 19
4.6346612 -0.66208583 -0.83731282 57
4.6235809 -0.66050291 -0.91860557 23
4.622942 -0.6604116 -1.0012197 56
4.6093946 -0.65847635 -1.0808742 24
6.3350582 -0.90499651 -1.5985091 7
4.7629066 -0.68040627 -1.6551472 7
1.7012004 -0.24302544 -0.80104434 6
6.6015081 -0.99013609 1.7620829 21
5.2704554 -0.79049635 1.0298519 18
8.9752245 -1.3461611 1.2696803 18
13.75384 -2.0628881 1.2074705 38
13.763643 -2.0643585 0.71599424 32
13.789816 -2.068284 0.47061229 35
13.769224 -3.103029 0.39252913 40
13.760561 -1.0515698 0.30257788 46
13.791942 -2.0686028 0.22346699 23
4.8227954 -1.0868641 0.050046805 5
13.787676 -1.0536418 0.058405105 44
11.380687 -1.7069476 -0.019080978 1
4.8033957 -1.0824921 -0.037125736 38
4.7218051 -0.36083612 -0.063645355 20
4.6748261 -0.70116013 -0.091425538 25
4.8449121 -1.0918483 -0.1253664 21
4.7039995 -0.35947543 -0.14685902 20
4.680397 -0.70199561 -0.17544445 20
4.5963817 -1.0358394 -0.20241971 28
4.7046633 -0.35952616 -0.23035456 94
4.6687031 -0.70024168 -0.25856853 78
4.697351 -1.0585939 -0.29197702 21
4.6998725 -0.35916004 -0.31365374 103
4.6634703 -0.69945687 -0.34174371 61
4.7577338 -1.0722018 -0.38211954 36
4.697618 -0.35898775 -0.39686227 28
4.6607504 -0.69904888 -0.42492524 23
4.7271504 -1.0653095 -0.46539313 25
4.6899462 -0.35840148 -0.4795182 16
4.6644702 -0.69960684 -0.50872695 105
4.6274848 -0.69405955 -0.5876416 36
4.6401782 -0.69596338 -0.67229432 13
4.6551929 -0.69821537 -0.75861663 76
4.6182442 -0.69267356 -0.83520019 41
4.6227384 -0.69334763 -0.91937751 8
4.6259546 -0.69383001 -1.0028969 52
4.589272 -0.68832815 -1.0772562 81
6.3516126 -0.9526552 -1.6043254 7
4.7617812 -0.71420211 -1.6564485 6
1.6922915 -0.25382063 -0.7976644 5
6.5791526 -1.033797 1.7579993 20
5.2842078 -0.8303194 1.0336465 17
8.9969158 -1.4137055 1.2741139 20
13.774534 -2.1644235 1.2105844 34
13.752843 -2.161015 0.71619976 31
13.782939 -2.1657441 0.47088215 33
13.766697 -3.2036104 0.39308512 38
13.768826 -1.1489413 0.3029286 38
13.785067 -2.1660783 0.22359516 24
4.7956119 -1.1159737 0.049844351 4
13.783971 -1.1502049 0.058422003 45
11.095839 -1.7435139 -0.018623352 2
4.8035131 -1.1178124 -0.037186053 30
4.7231569 -0.39412433 -0.063699111 43
4.6658669 -0.73315811 -0.091348194 82
4.8449607 -1.1274576 -0.12556829 31
4.7133279 -0.39330417 -0.14723238 32
4.6714339 -0.73403287 -0.17529628 99
4.5773606 -1.0651851 -0.20190465 24
4.7060199 -0.39269432 -0.23054962 114
4.6676464 -0.73343772 -0.25878727 44
4.5615168 -1.061498 -0.28398758 28
4.6892962 -0.39129883 -0.31312257 77
4.6545324 -0.73137712 -0.34145457 52
4.7190604 -1.0981597 -0.37961996 26
4.6910253 -0.3914431 -0.39652652 49
4.64395 -0.72971427 -0.42384768 110
4.6885734 -1.091065 -0.46233386 27
4.6912956 -0.39146566 -0.47992387 76
4.6555438 -0.73153609 -0.50829804 94
4.6382093 -0.72881228 -0.58963531 10
4.6117373 -0.72465259 -0.6688903 20
4.6267982 -0.72701919 -0.75479811 64
4.6210752 -0.72611994 -0.83660859 41
4.6061535 -0.72377527 -0.91706169 12
4.6171341 -0.72550064 -1.0020583 55
4.5805058 -0.71974516 -1.0763516 134
6.3563085 -0.99878103 -1.6072335 8
4.767889 -0.74918908 -1.6603521 6
1.6833153 -0.26450309 -0.79428446 3
6.563765 -1.0807401 1.7559575 10
5.2702284 -0.86775607 1.0321286 18
8.986311 -1.4796181 1.2741139 19
13.770094 -2.2672799 1.2116224 35
13.752398 -2.2643661 0.71702182 42
13.782472 -2.2693179 0.47142184 36
13.766171 -3.3100479 0.39375231 34
13.775965 -1.251286 0.30327931 39
13.788549 -2.2703185 0.22391559 23
4.7795248 -1.149227 0.04976337 2
13.779152 -1.2515756 0.058438897 43
11.0946 -1.8267531 -0.018643249 0
4.8107462 -1.1567341 -0.037306689 31
4.7281075 -0.42945921 -0.063806616 57
4.6643133 -0.76799059 -0.091425538 101
4.8482299 -1.165747 -0.12587109 21
4.7063365 -0.42748171 -0.14710793 67
4.6659274 -0.76825637 -0.17529628 96
4.5888572 -1.1033814 -0.2027631 31
4.6831203 -0.42537299 -0.22957437 20
4.6582036 -0.76698464 -0.25856853 36
4.5497313 -1.0939736 -0.28374547 29
4.6823268 -0.4253009 -0.312857 12
4.6490464 -0.76547688 -0.34145457 55
4.5674248 -1.0982281 -0.36805952 22
4.6840601 -0.42545834 -0.39619076 59
4.646338 -0.76503098 -0.42456606 111
4.7114205 -1.1328515 -0.46539313 25
4.6883001 -0.42584345 -0.47992387 101
4.6618285 -0.76758146 -0.50958484 111
4.6288266 -0.76214761 -0.5891369 23
4.6141152 -0.75972539 -0.67002499 11
4.6135511 -0.75963253 -0.75352526 65
4.6156282 -0.75997454 -0.83660859 61
4.6162152 -0.76007116 -0.92014945 10
4.615551 -0.75996184 -1.0028969 51
4.5789514 -0.75393558 -1.0772562 153
6.3411579 -1.0440872 -1.6052948 6
4.7510724 -0.78227568 -1.6564485 6
1.7027949 -0.28036937 -0.80442423 3
6.5484371 -1.1252276 1.7539157 21
5.2679124 -0.90519309 1.0328876 20
8.9796667 -1.5429891 1.2746681 18
13.746076 -2.3620081 1.2109303 35
13.752004 -2.3630269 0.71784383 31
13.785993 -2.3688672 0.47209644 35
13.769893 -3.4128063 0.39453068 38
13.766893 -1.3474299 0.30327931 36
13.799956 -2.3712666 0.22436419 25
4.7791495 -1.1844908 0.049844351 2
13.782022 -1.3489106 0.05848958 43
11.026386 -1.89468 -0.018550398 0
4.790906 -1.1874046 -0.037216213 21
4.7249942 -0.46245712 -0.063806616 51
4.6470137 -0.7985031 -0.091193497 85
4.886549 -1.2111092 -0.12708236 17
4.7032375 -0.46032768 -0.14710793 74
4.6525712 -0.79945809 -0.17499992 95
4.7866273 -1.186344 -0.21186253 20
4.6959419 -0.45961365 -0.23035456 48
4.6487994 -0.79880995 -0.25834978 18
4.5574846 -1.1295521 -0.28471389 31
4.6871881 -0.45875686 -0.31338817 30
4.6514525 -0.79926592 -0.34203282 19
4.5325518 -1.1233727 -0.36587241 22
4.6809759 -0.45814887 -0.39619076 66
4.6369576 -0.79677516 -0.42420685 109
4.7072616 -1.1666737 -0.46577555 23
4.6852131 -0.45856354 -0.47992387 100
4.644598 -0.79808807 -0.50829804 99
4.6233931 -0.79444432 -0.5891369 36
4.600894 -0.79057837 -0.6688903 32
4.6159196 -0.79316026 -0.75479811 59
4.6140914 -0.79284602 -0.83731282 71
4.6069283 -0.79161519 -0.91937751 7
4.6062784 -0.79150355 -1.0020583 52
4.5735765 -0.78588432 -1.0772562 114
4.5858231 -0.78798872 -1.1622877 1
4.7529507 -0.81670642 -1.6590508 6
1.6829306 -0.28918043 -0.79597443 3
6.5784922 -1.1777316 1.7641248 21
5.269197 -0.9433316 1.0344054 20
8.9491787 -1.6021498 1.2718971 18
13.752787 -2.4621282 1.2130063 34
13.754832 -2.4624944 0.71887141 48
13.784861 -2.4678702 0.47263613 34
13.772852 -3.5157762 0.39530909 38
13.77306 -1.4451773 0.30363002 37
13.787003 -2.4682539 0.22442828 22
4.7940173 -1.2237619 0.050087299 1
13.780224 -1.4459292 0.058523368 44
10.997141 -1.9687916 -0.018523868 0
4.8135047 -1.2287365 -0.037457485 3
4.7057385 -0.49376297 -0.063591599 46
4.6452622 -0.83163011 -0.091270842 93
4.7966104 -1.2244239 -0.12496264 20
4.7078614 -0.49398571 -0.14735684 79
4.6547461 -0.83332795 -0.17529628 90
4.7666121 -1.2167662 -0.21134748 22
4.6846719 -0.49155247 -0.22996446 45
4.6549039 -0.8333562 -0.25900602 24
4.6113858 -1.1771418 -0.28858754 32
4.68784 -0.49188492 -0.31365374 45
4.6339784 -0.82960993 -0.34116545 46
4.567102 -1.1658375 -0.36930931 15
4.6816273 -0.49123302 -0.39652652 60
4.6469684 -0.83193547 -0.42564362 88
4.7221498 -1.2054164 -0.46807 24
4.6739817 -0.49043077 -0.47911251 88
4.6349983 -0.82979256 -0.50786906 92
4.617734 -0.82670176 -0.5891369 32
4.6108532 -0.82546991 -0.67115963 80
4.6141572 -0.82606137 -0.75543451 60
4.6006923 -0.82365078 -0.83590442 27
4.6128793 -0.82583266 -0.92169327 60
4.6006403 -0.82364154 -1.0020583 20
4.5449662 -0.81367427 -1.0718292 14
4.8781729 -0.87332749 -1.2378994 27
4.7545795 -0.85120094 -1.6616533 6
1.7058518 -0.30539453 -0.80780417 4
6.5705366 -1.2213361 1.7641248 19
5.2744083 -0.98041081 1.0366821 18
8.9305668 -1.6600201 1.2707887 20
13.767498 -2.5591125 1.2157741 33
13.761764 -2.5580466 0.72010446 36
13.791773 -2.5636246 0.47344568 34
13.776305 -3.6141453 0.39608747 37
13.767146 -1.5369344 0.3037177 34
13.793921 -2.5640242 0.22481279 27
4.832222 -1.2677094 0.050573189 1
13.782258 -1.5386214 0.058574054 43
10.983841 -2.0416844 -0.018523868 0
4.8284631 -1.2667234 -0.037638441 0
4.7063355 -0.52540511 -0.063645355 44
4.6435766 -0.86315137 -0.091348194 93
4.8309307 -1.2673707 -0.12607297 11
4.6965351 -0.52431101 -0.14710793 69
4.649117 -0.86418122 -0.17529628 82
4.7120514 -1.2361833 -0.20928723 24
4.6773381 -0.52216792 -0.22976941 13
4.6335673 -0.86129087 -0.25813103 100
4.5918913 -1.2046599 -0.28786123 28
4.6725755 -0.52163619 -0.312857 16
4.640141 -0.86251283 -0.34203282 69
4.6827011 -1.2284833 -0.37930754 15
4.674305 -0.52182931 -0.39619076 86
4.6256814 -0.85982496 -0.42420685 51
4.7949295 -1.257926 -0.47610062 8
4.6666718 -0.52097714 -0.47870684 72
4.6137528 -0.85760772 -0.50615329 30
4.6160517 -0.85803497 -0.58963531 69
4.6208487 -0.85892671 -0.67342901 66
4.5969296 -0.85448056 -0.75352526 8
4.5835142 -0.851987 -0.83379173 9
4.6150184 -0.85784292 -0.92323714 63
4.5989223 -0.85485101 -1.0028969 20
4.5624542 -0.84807229 -1.0772562 10
4.7692571 -0.88651299 -1.2117262 37
4.7488298 -0.88271594 -1.6616533 6
1.6930956 -0.31471384 -0.80273432 6
6.4175501 -1.2393105 1.7253302 20
5.2635789 -1.016464 1.0359232 14
8.9187593 -1.7223258 1.2707887 20
13.780598 -2.6612084 1.218542 36
13.767102 -2.6586025 0.7213375 43
13.79709 -2.6643934 0.47425523 33
13.76618 -3.7144003 0.39653227 30
13.767995 -1.6344223 0.30398074 38
13.79532 -2.6640515 0.22513323 26
13.728317 -3.7041843 0.14394531 47
13.771181 -1.6348006 0.058574054 40
10.933972 -2.1114891 -0.018464178 0
10.894083 -2.9394493 -0.085078552 13
4.7184401 -0.56013411 -0.063860372 53
4.6413641 -0.8963064 -0.091425538 27
4.6927605 -0.55708563 -0.14710793 25
4.631196 -0.89434278 -0.17485175 18
4.7033062 -1.2690495 -0.20928723 24
4.6775465 -0.55527955 -0.22996446 32
4.6313634 -0.89437509 -0.25834978 74
4.5756598 -1.2346077 -0.28737703 20
4.6688199 -0.55424362 -0.312857 72
4.6457582 -0.89715493 -0.34290019 94
4.7394624 -1.2788051 -0.38461909 18
4.6784644 -0.55538857 -0.39686227 25
4.615654 -0.89134145 -0.42384768 16
8.7378702 -2.3576584 -0.86921823 2
4.662921 -0.55354339 -0.47870684 48
4.6115584 -0.89055055 -0.50658226 42
4.6138453 -0.89099222 -0.59013373 71
4.6147399 -0.8911649 -0.67342901 64
4.5947294 -0.88730061 -0.75416166 11
4.5890532 -0.88620448 -0.83590442 10
4.6089168 -0.8900404 -0.92323714 57
4.6043625 -0.88916087 -1.0054125 22
4.564074 -0.88138068 -1.0790652 7
4.7400899 -0.9153716 -1.2059098 38
4.7351236 -0.91441256 -1.6590508 6
1.7086558 -0.32996315 -0.81118411 5
6.4158769 -1.2878423 1.7273721 15
5.2713885 -1.0581121 1.0389589 34
8.9020109 -1.7868775 1.2702345 19
13.776349 -2.7652907 1.2199259 35
13.758995 -2.7618074 0.72195405 49
13.788947 -2.7678196 0.47465998 33
13.715465 -3.8087919 0.39586508 48
13.755644 -1.7353028 0.30398074 36
13.798949 -2.7698274 0.22551773 23
13.750897 -3.8186314 0.14447169 48
13.778668 -1.7382075 0.058658529 43
10.918201 -2.1915822 -0.018464178 0
13.75121 -3.8187182 -0.10760733 41
4.7142067 -0.59470689 -0.063860372 56
4.6307483 -0.9295181 -0.091348194 19
10.456828 -2.9038665 -0.27394882 0
4.6806173 -0.59046948 -0.14685902 24
4.6323543 -0.92984045 -0.1751481 16
4.7092795 -1.3077694 -0.20997398 21
4.6733503 -0.58955276 -0.22996446 85
4.6207671 -0.92751455 -0.25813103 104
4.7088289 -1.3076442 -0.29633486 12
4.6685915 -0.58895242 -0.31312257 83
4.6351452 -0.93040067 -0.34261107 85
8.7337122 -2.4253566 -0.71018618 15
4.6624036 -0.58817184 -0.39585498 12
4.6011848 -0.92358387 -0.42312929 26
8.5170183 -2.3651805 -0.84895051 0
4.6626859 -0.58820742 -0.47911251 23
4.5932088 -0.92198294 -0.5052954 21
4.6110821 -0.92557055 -0.59063214 74
4.6003189 -0.92341006 -0.67229432 74
4.5919738 -0.92173499 -0.75479811 6
4.5747128 -0.91827023 -0.83449596 7
4.6099648 -0.92534631 -0.92478102 53
4.5900517 -0.92134923 -1.0037354 26
4.5689511 -0.91711372 -1.0817786 2
4.6685696 -0.93710983 -1.1894304 44
4.7320023 -0.94984257 -1.6603521 6
1.6919729 -0.33962533 -0.80442423 5
6.4105163 -1.333389 1.728393 18
5.2754087 -1.0972863 1.0412357 20
8.8854408 -1.848174 1.2696803 19
13.780117 -2.8662677 1.2220018 37
13.762844 -2.8626752 0.72318709 47
13.788857 -2.8680859 0.47533461 34
13.715456 -3.9121268 0.39664346 73
13.763015 -1.8339339 0.30441913 39
13.798855 -2.8701653 0.22583817 28
13.743134 -3.9200215 0.14467414 50
13.778093 -1.8359432 0.058709212 42
10.922217 -2.2718239 -0.01849734 0
13.762681 -3.9255967 -0.10790892 48
4.7099404 -0.62760377 -0.063860372 48
4.6280618 -0.96263802 -0.091425538 45
10.417073 -2.9713128 -0.27344412 0
4.6724176 -0.62260383 -0.14673457 33
4.6374903 -0.96459913 -0.17559263 41
4.6691203 -0.62216449 -0.22996446 89
4.6219997 -0.96137714 -0.25856853 75
9.1995144 -2.6240225 -0.58008033 5
4.6643658 -0.62153095 -0.31312257 96
4.6285372 -0.96273685 -0.34261107 82
8.7395763 -2.4928322 -0.71206081 15
4.6660862 -0.62176013 -0.39652652 12
4.594625 -0.95568317 -0.42312929 45
8.5385885 -2.4355035 -0.85277462 0
4.6584659 -0.62074476 -0.47911251 7
4.6061287 -0.95807588 -0.50744015 22
4.6045079 -0.95773882 -0.59063214 69
4.6053901 -0.95792228 -0.67399633 65
4.5815606 -0.9529658 -0.75416166 9
4.5797553 -0.95259029 -0.83660859 7
4.5995502 -0.9567076 -0.92400908 60
4.633287 -0.96372479 -1.0146364 40
4.5700665 -0.95057499 -1.0835876 6
4.5745268 -0.95150274 -1.1671346 30
4.725256 -0.98285449 -1.6603521 6
1.6966597 -0.35290563 -0.80780417 4
6.4615455 -1.3911344 1.7447275 19
5.2791376 -1.1365687 1.0435123 19
8.8723211 -1.9101609 1.2696803 19
13.771458 -2.9649174 1.2230396 35
13.76205 -2.9628918 0.72421461 44
13.788039 -2.9684873 0.47600922 33
13.706998 -4.0134015 0.39719945 78
13.761756 -1.931639 0.30468217 40
13.821489 -2.9756889 0.22654311 2
13.749981 -4.0259867 0.14503856 49
13.780786 -1.93431 0.058776792 44
4.8449783 -1.0430967 -0.0082173552 15
13.777165 -4.0339465 -0.10824067 46
4.6816792 -0.65713376 -0.063537844 32
4.6173186 -0.99408275 -0.091348194 26
10.396076 -3.0439651 -0.27344412 1
4.6758761 -0.65631914 -0.14698347 13
4.6228275 -0.99526882 -0.17529628 54
10.036958 -2.9388154 -0.44930655 0
4.6646633 -0.65474534 -0.22996446 64
4.6034617 -0.99109942 -0.25791225 108
9.215457 -2.6982806 -0.5822593 6
4.655961 -0.65352386 -0.312857 85
4.6295037 -0.99670607 -0.34318933 84
8.7525778 -2.5627499 -0.71456039 16
4.6537375 -0.65321171 -0.39585498 47
4.5956297 -0.98941326 -0.42384768 43
8.555769 -2.5051243 -0.85621631 1
4.6461372 -0.65214497 -0.47830114 33
4.5954394 -0.98937231 -0.50701118 55
4.6171088 -0.99403757 -0.59312427 34
4.7301998 -1.0183854 -0.69328576 39
4.6134014 -0.9932394 -0.76052588 52
4.7731586 -1.0276341 -0.87322783 45
4.8152986 -1.0367067 -0.96878147 32
4.8826213 -1.0512009 -1.0708188 8
4.8718572 -1.0488834 -1.1568519 16
6.3015532 -1.356689 -1.6101418 7
4.7256742 -1.0174111 -1.6629546 6
1.6799775 -0.36168972 -0.80104434 3
6.4521775 -1.4339578 1.7447275 20
5.286819 -1.174964 1.0465481 18
8.859458 -1.9689616 1.2696803 22
13.774832 -3.0613739 1.2251155 32
13.765495 -3.059299 0.72544771 62
13.779757 -3.0624688 0.476414 36
13.714547 -4.1145616 0.39820021 74
13.768424 -2.025779 0.30512056 37
4.8451486 -1.0768054 0.07953041 1
13.757458 -4.1274352 0.14540298 48
13.767653 -2.0256655 0.058776792 43
4.7989068 -1.0665284 -0.008151033 20
13.776927 -4.133276 -0.10845178 45
4.6930461 -0.69049841 -0.063752867 48
4.6028166 -1.0229485 -0.091193497 30
13.780592 -4.1343756 -0.363179 45
4.6793313 -0.6884805 -0.14723238 14
4.6200271 -1.0267735 -0.17544445 82
10.128251 -3.0386209 -0.45428547 0
4.6602182 -0.68566829 -0.22996446 75
4.616282 -1.025941 -0.25900602 24
9.2356014 -2.7708132 -0.58468032 6
4.6515241 -0.68438911 -0.312857 74
4.8058338 -1.0680678 -0.35677812 25
8.7506666 -2.6253259 -0.71581018 15
4.6493025 -0.68406224 -0.39585498 16
4.7406363 -1.0535781 -0.4378562 35
8.7754183 -2.6327515 -0.87992573 5
4.6535206 -0.68468285 -0.4795182 90
4.7091255 -1.0465751 -0.52030843 27
4.6956496 -1.0435801 -0.60408962 26
4.7233419 -1.0497345 -0.69328576 45
4.7339277 -1.0520872 -0.78152788 35
4.7354879 -1.052434 -0.86759412 39
4.747016 -1.054996 -0.95643049 33
4.7762747 -1.0614985 -1.0490167 2
6.7133393 -1.4919995 -1.5964376 4
6.3075705 -1.4018198 -1.6140193 7
4.7335925 -1.0520127 -1.6681594 7
1.6881592 -0.37518328 -0.8061142 3
6.4344702 -1.4772367 1.7426857 20
5.2784872 -1.2118443 1.0465481 17
8.8416348 -2.0298779 1.2691261 21
13.772543 -3.1619244 1.2268455 35
13.763268 -3.1597948 0.72647524 41
13.785316 -3.1648567 0.47735846 36
13.719883 -4.220788 0.39920101 47
13.769756 -2.1242886 0.30547127 40
4.7829399 -1.0980756 0.078633212 0
13.751245 -4.2304363 0.14564593 48
13.788755 -2.1272197 0.058928844 43
4.8108373 -1.1044803 -0.0081841936 29
13.770674 -4.236413 -0.10863274 49
4.6762528 -0.72141516 -0.063591599 30
4.8021488 -1.1024857 -0.095292948 30
13.770502 -4.2363605 -0.3636837 49
4.6744113 -0.72113103 -0.14723238 81
4.6127462 -1.0590023 -0.17544445 33
10.11061 -3.1104305 -0.45445716 0
4.6553178 -0.71818548 -0.22996446 56
4.5739722 -1.0501004 -0.25703725 24
9.2847233 -2.8563545 -0.58903819 5
4.6545219 -0.7180627 -0.31338817 44
4.6232829 -1.0614213 -0.34376755 20
8.7664299 -2.6969063 -0.71862215 15
4.6483531 -0.71711099 -0.39619076 94
4.7292829 -1.0857569 -0.43749699 29
8.7530184 -2.6927805 -0.8795433 3
4.6486273 -0.71715331 -0.4795182 96
4.6978283 -1.0785356 -0.51987952 32
4.6921177 -1.0772245 -0.60458803 24
4.7197571 -1.08357 -0.69385314 45
4.7303166 -1.0859942 -0.78216428 43
4.7357006 -1.0872303 -0.86900252 47
4.7127581 -1.0819631 -0.95102692 37
4.7382522 -1.0878161 -1.0423083 26
6.7141523 -1.5414467 -1.599151 5
6.2976303 -1.4458208 -1.6140193 7
4.7113862 -1.0816482 -1.6629546 7
1.6854988 -0.38695973 -0.8061142 3
6.4202366 -1.5212294 1.7416648 21
5.2584338 -1.2459484 1.0442713 17
8.8272486 -2.0915537 1.2691261 21
13.773399 -3.2635088 1.2289213 35
13.764195 -3.2613282 0.72770828 32
13.786225 -3.2665479 0.47816801 35
13.751097 -4.3357038 0.40098017 38
13.770381 -2.2229173 0.30582199 37
4.7907238 -1.1351279 0.078889549 0
13.820557 -4.357605 0.14669868 45
13.789364 -2.2259815 0.058996424 44
4.7835479 -1.1334276 -0.008151033 13
13.847576 -4.3661242 -0.10947719 38
4.6671538 -0.75340664 -0.063537844 23
4.8021178 -1.1378276 -0.095447645 21
13.847374 -4.3660603 -0.36651 42
4.6732092 -0.75438416 -0.14735684 80
4.6363573 -1.0985519 -0.1766299 31
10.252537 -3.2326124 -0.46183974 32
4.6501904 -0.75066829 -0.22996446 53
4.5820756 -1.0856901 -0.25791225 26
9.3064432 -2.9343102 -0.59170133 5
4.6454554 -0.74990392 -0.31312257 54
4.5614114 -1.080794 -0.33971983 21
8.7778139 -2.7676339 -0.72112173 14
4.651103 -0.75081563 -0.39686227 92
4.6944513 -1.1123168 -0.43498266 29
8.6618557 -2.7310724 -0.8722775 1
4.6435075 -0.74958944 -0.4795182 107
4.6863146 -1.1103889 -0.51945055 33
4.6960688 -1.1127 -0.60608327 26
4.7082248 -1.1155803 -0.69328576 43
4.7072487 -1.1153491 -0.77961862 59
4.6973438 -1.1130021 -0.86336881 45
4.6936326 -1.1121228 -0.9487111 38
4.6924849 -1.1118509 -1.0339229 35
4.7278986 -1.120242 -1.127908 30
4.7278099 -1.1202208 -1.2136649 14
4.7110815 -1.1162572 -1.6655569 7
1.7074507 -0.40456828 -0.81794399 4
6.3869181 -1.5605062 1.7355393 20
5.2724977 -1.2882216 1.0488248 16
8.462244 -2.0675676 1.2186935 6
13.773507 -3.3652606 1.2309972 38
13.768256 -3.3639777 0.72914684 35
13.794152 -3.3703048 0.47924739 32
13.796592 -4.4561782 0.40320414 38
13.774244 -2.3223212 0.30626038 39
4.7865682 -1.1694951 0.078953639 0
13.816442 -4.4625897 0.14698213 42
13.785319 -2.3241885 0.059047107 43
4.7949471 -1.1715423 -0.0081841936 7
13.839596 -4.470068 -0.10965814 39
4.6815004 -0.78929538 -0.063806616 15
4.809597 -1.1751218 -0.095757037 27
13.862217 -4.4773746 -0.36772126 37
4.6638865 -0.78632575 -0.14723238 79
4.8227267 -1.1783297 -0.18403886 30
10.195494 -3.2930553 -0.46029454 19
4.6408968 -0.78244966 -0.22976941 61
4.5511045 -1.1119647 -0.25659972 24
9.3237247 -3.0114815 -0.59412235 4
4.6440425 -0.78297997 -0.31338817 53
4.5537553 -1.1126122 -0.33971983 28
8.7962265 -2.841104 -0.72424614 13
4.6378875 -0.78194231 -0.39619076 77
4.7097921 -1.1507366 -0.43713781 34
8.6160564 -2.7829106 -0.86960065 0
4.6420856 -0.78265005 -0.47992387 107
4.6745853 -1.1421345 -0.51902163 31
4.6843305 -1.1445155 -0.60558486 28
4.7041678 -1.1493623 -0.69385314 41
4.6993475 -1.1481847 -0.77961862 45
4.693284 -1.1467031 -0.86407304 44
4.6933794 -1.1467264 -0.95025498 40
4.7112041 -1.1510816 -1.0397928 33
4.6745424 -1.1421239 -1.1170541 39
4.6897154 -1.1458311 -1.2059098 28
4.6186638 -1.1284713 -1.6356289 15
1.6940191 -0.41389719 -0.81287408 6
6.3678074 -1.6053919 1.7334975 21
5.2667212 -1.3277965 1.0495838 16
8.7733641 -2.2118583 1.2658008 3
13.771653 -3.4719801 1.2330731 37
13.766468 -3.4706728 0.73037994 30
13.792335 -3.4771941 0.48005691 34
13.793922 -4.567245 0.40409371 38
13.768667 -2.4253099 0.30652341 38
4.7895007 -1.207484 0.079145893 0
13.817533 -4.5750628 0.14734654 43
13.791549 -2.4293406 0.059148476 43
4.8095021 -1.2125267 -0.0082239872 1
13.833037 -4.5801964 -0.10986926 37
4.6558938 -0.82012188 -0.063537844 11
4.8822899 -1.2308772 -0.097381346 3
13.855597 -4.587666 -0.36842784 41
4.6579976 -0.82049251 -0.14723238 75
4.8100834 -1.2126732 -0.18389069 28
13.824476 -4.5773616 -0.62562972 50
4.6389713 -0.81714106 -0.22996446 49
4.6280341 -1.1667765 -0.26141235 18
9.3734159 -3.1035907 -0.59872234 3
4.6381783 -0.81700134 -0.31338817 33
4.5532136 -1.1479136 -0.34029809 23
8.8130198 -2.9180403 -0.72737062 13
4.6359568 -0.81661004 -0.39652652 69
4.6780519 -1.1793866 -0.43498266 23
8.6559029 -2.8660181 -0.87571919 1
4.6323047 -0.81596673 -0.4795182 100
4.6969371 -1.1841477 -0.52245319 30
4.6912084 -1.1827035 -0.60757858 22
4.7148132 -1.1886545 -0.69668978 34
4.7022924 -1.1854979 -0.78152788 48
4.6923881 -1.1830008 -0.8654815 42
4.6962643 -1.1839781 -0.9525708 40
4.7140164 -1.1884537 -1.0423083 35
4.6887136 -1.1820744 -1.122481 78
4.7000046 -1.184921 -1.2107568 41
4.6065998 -1.1613728 -1.6343278 17
1.6874242 -0.42541754 -0.81118411 6
6.3489571 -1.6478642 1.7314557 19
5.264926 -1.3665053 1.0511016 14
7.4501877 -1.9336873 1.0768174 3
13.758651 -3.5710413 1.2341111 35
13.765103 -3.572716 0.73161298 31
13.798679 -3.5814307 0.48113632 32
13.795783 -4.674983 0.4050945 40
13.7632 -2.5235362 0.30678645 37
4.8312802 -1.253953 0.07997901 0
13.81935 -4.6829696 0.14771096 41
13.786056 -2.5277269 0.059199158 42
4.8241501 -1.2521025 -0.0082637807 2
13.842396 -4.6907787 -0.11020101 35
4.6579227 -0.85404831 -0.063645355 20
4.9006748 -1.2719643 -0.097922787 3
13.853529 -4.6945515 -0.36923534 36
4.6442904 -0.85154873 -0.14698347 48
4.7898932 -1.243211 -0.18344615 28
13.826247 -4.6853065 -0.62717491 61
4.6331534 -0.84950674 -0.22996446 59
4.6004457 -1.1940402 -0.26031858 17
13.851443 -4.6938448 -0.88682568 43
4.6362872 -0.85008126 -0.31365374 29
4.5605354 -1.1836815 -0.34145457 19
8.864193 -3.003813 -0.73330706 11
4.6262221 -0.84823579 -0.39619076 46
4.7044096 -1.2210239 -0.43821537 28
8.6319122 -2.9250998 -0.87533683 0
4.622581 -0.84756821 -0.47911251 26
4.7270503 -1.2269002 -0.52674258 28
4.7212529 -1.2253956 -0.61256278 21
4.7293959 -1.227509 -0.70009381 18
4.7053685 -1.2212728 -0.78343713 39
4.6992602 -1.2196873 -0.86829835 43
4.6840854 -1.2157488 -0.95179886 35
