# .PCD v0.7 - Point Cloud Data file format
VERSION 0.7
FIELDS x y z intensity
SIZE 4 4 4 4
TYPE F F F F
COUNT 1 1 1 1
WIDTH 1362
HEIGHT 1
VIEWPOINT 0 0 0 1 0 0 0
POINTS 1362
DATA ascii
4.6296053 -5.7068954 -1.7058817 4
4.3249798 -5.3313847 -1.7148348 7
3.190743 -3.9332159 -1.7423288 6
2.3685479 -2.9196992 -1.7524956 4
2.4493239 -3.0627298 1.0351982 21
3.3972225 -4.2480187 1.0511016 10
6.1507382 -7.6911221 1.3777499 23
7.8897581 -9.8656597 1.0967569 11
9.2537546 -11.571254 0.76223385 34
9.228261 -11.539375 0.49867633 38
2.6054027 -3.7937198 0.12798896 45
13.829988 -14.929804 0.44619498 31
9.21984 -11.528846 0.23654048 26
2.5994833 -3.7851007 0.046483602 66
13.89299 -14.997816 0.086349003 38
9.2160149 -11.524062 -0.024466362 32
2.6018071 -3.7884846 -0.034652699 36
11.815285 -12.754883 -0.23367092 0
9.2417803 -11.55628 -0.28618824 47
2.6010525 -3.7873855 -0.11597906 42
11.623159 -12.547479 -0.53242618 0
9.2271776 -11.53802 -0.5476712 50
2.6040082 -3.7916892 -0.19761246 45
11.574231 -12.494659 -0.83149999 0
9.2147083 -11.522429 -0.80808133 46
2.6106727 -3.8013937 -0.27962971 49
11.573296 -12.493649 -1.1332434 0
9.1969042 -11.500166 -1.0671539 49
2.5939314 -3.7770166 -0.35899863 44
12.59809 -13.59994 -1.5615959 4
9.2210932 -11.530413 -1.331169 48
2.5922174 -3.7745209 -0.43977165 41
10.611519 -11.455389 -1.5919031 2
9.2200127 -11.529061 -1.5922382 35
8.2964592 -10.374215 -1.6682243 2
7.2804799 -9.1037951 -1.67024 2
6.5384841 -8.1759739 -1.6871583 3
5.9316487 -7.4171634 -1.6985691 3
5.4075303 -6.7617855 -1.702894 4
4.9734054 -6.2189388 -1.7072725 5
4.584784 -5.7329917 -1.7040727 4
4.2949257 -5.3705416 -1.717743 6
3.1679308 -3.9613035 -1.7449311 7
2.3413138 -2.9276695 -1.7474258 7
2.4159105 -3.0645683 1.0300937 18
3.343169 -4.2407904 1.0435123 4
6.0723696 -7.702765 1.3722079 23
5.864285 -7.4388103 0.82239473 13
9.1158657 -11.563421 0.75750715 31
9.1103516 -11.556426 0.49665248 38
2.5676513 -3.7952578 0.12743297 37
13.836006 -15.147047 0.44978979 34
9.08218 -11.520692 0.2350665 29
2.5685124 -3.7965307 0.046402622 41
13.890463 -15.206665 0.086991005 36
9.0734282 -11.509589 -0.024300557 34
2.561847 -3.7866783 -0.034471743 41
11.636936 -12.739603 -0.23189701 0
9.1064062 -11.551423 -0.28448659 48
2.5633447 -3.788892 -0.11547437 42
11.473263 -12.560421 -0.52956367 0
9.1018572 -11.545652 -0.54500401 56
2.566277 -3.7932265 -0.19675402 48
11.424748 -12.507309 -0.82701385 0
9.0821152 -11.520609 -0.80348748 52
2.5684094 -3.7963781 -0.277935 45
11.423882 -12.50636 -1.127135 0
9.0719357 -11.507697 -1.0619497 45
2.5585616 -3.7818222 -0.35774887 45
12.502841 -13.687557 -1.5615959 4
9.0959759 -11.538192 -1.3247036 61
2.5568786 -3.7793345 -0.43824202 45
10.552759 -11.552694 -1.5951486 2
9.0826712 -11.521315 -1.5823725 37
8.2533169 -10.469284 -1.6742054 2
7.2339058 -9.1761665 -1.6742114 2
6.4788008 -8.2183199 -1.6865219 3
5.889473 -7.4707618 -1.7013859 3
5.3626218 -6.802454 -1.7036659 4
4.9226036 -6.2442932 -1.704757 4
4.5615339 -5.7862787 -1.7104042 5
4.2621326 -5.4064898 -1.7196817 6
3.1495652 -3.9952049 -1.750136 7
2.3275514 -2.9524851 -1.7524956 7
2.3968301 -3.0844138 1.0311146 20
5.1593914 -6.6394768 1.6248437 20
5.9771237 -7.6917939 1.3627864 17
5.8611126 -7.5425024 0.82931429 7
8.9809904 -11.557386 0.75298595 35
8.9803905 -11.556614 0.493954 37
2.5277889 -3.7931273 0.12676579 39
13.836978 -15.362127 0.45329693 53
8.9549017 -11.523813 0.23384888 24
2.5308547 -3.7977278 0.046200167 42
13.896398 -15.428096 0.087700583 40
8.9535847 -11.522119 -0.02419444 34
2.5264761 -3.7911575 -0.034351107 41
11.42458 -12.683827 -0.22942431 0
8.9740076 -11.548401 -0.28286228 49
2.5257435 -3.7900579 -0.11496967 41
11.307698 -12.554063 -0.52595443 0
8.9695253 -11.542632 -0.54189223 57
2.528652 -3.7944224 -0.19589558 49
11.259611 -12.500675 -0.82135737 0
8.9549017 -11.523813 -0.79933113 24
2.5307724 -3.7976043 -0.27672449 44
11.250817 -12.490912 -1.1186364 0
8.9179373 -11.476244 -1.0532761 7
2.5232515 -3.7863185 -0.35649908 48
12.366965 -13.730085 -1.5565596 4
8.9638691 -11.535353 -1.3171605 48
2.5193915 -3.7805264 -0.43632996 41
10.506472 -11.664523 -1.6004224 2
8.9483309 -11.515358 -1.5729357 23
8.1922026 -10.542317 -1.6766975 2
7.1696677 -9.2264452 -1.6742114 2
6.4261136 -8.2695866 -1.6877947 3
5.8395901 -7.5148053 -1.70209 3
5.322226 -6.8490243 -1.7059817 4
4.8860898 -6.2877727 -1.7072725 4
4.5305901 -5.8302898 -1.7140222 5
4.2290463 -5.4422421 -1.7216206 6
3.114634 -4.0081358 -1.7462324 7
2.3202295 -2.9858389 -1.7626355 6
2.3669102 -3.0879636 1.0270309 17
5.1056881 -6.6610804 1.6218081 28
4.6149864 -6.0208921 1.0612997 1
5.8521738 -7.634975 0.83519596 6
8.8555403 -11.553285 0.74887574 32
8.8573418 -11.555634 0.49139047 38
2.4959903 -3.7997828 0.12643218 37
13.846367 -15.579101 0.45697939 51
8.8515148 -11.548033 0.23314394 32
2.4946313 -3.797714 0.045997713 41
13.900059 -15.639511 0.088376373 37
8.879406 -11.58442 -0.024201073 24
2.4859042 -3.7844281 -0.034139995 41
11.337551 -12.756331 -0.22937055 0
8.8582945 -11.556877 -0.2816247 54
2.489574 -3.790015 -0.11446498 40
11.160445 -12.557063 -0.52296746 0
8.861165 -11.560622 -0.53996587 60
2.4924603 -3.7944088 -0.19503716 44
11.099487 -12.488476 -0.81570089 1
8.86127 -11.560759 -0.79779983 6
2.4901855 -3.790946 -0.27502975 45
11.104093 -12.493658 -1.1122624 0
8.8925972 -11.60163 -1.0593476 27
2.4871371 -3.786305 -0.35493687 43
12.278279 -13.814782 -1.5568954 2
8.8556633 -11.553444 -1.3124909 24
2.4833324 -3.7805128 -0.4344179 41
10.420948 -11.725025 -1.5992054 2
8.8935385 -11.602859 -1.5767963 24
8.1269341 -10.602716 -1.6776943 2
7.1251812 -9.2957907 -1.6781827 2
6.3855429 -8.3308296 -1.6916133 3
5.7896233 -7.5533686 -1.70209 3
5.2981749 -6.9122062 -1.7129291 3
4.8514194 -6.3293514 -1.7097882 3
4.4965644 -5.8663936 -1.7158312 5
4.1999431 -5.4794102 -1.7245287 6
3.0925853 -4.034708 -1.7488348 7
2.2893488 -2.986774 -1.7541857 6
2.340632 -3.0982406 1.0249891 19
5.0637951 -6.7028294 1.6233258 29
4.5131431 -5.9739437 1.0474446 4
7.461 -9.8759537 1.0746142 10
8.7842999 -11.627576 0.7496978 30
8.8174181 -11.671414 0.49368417 26
2.4607155 -3.8036866 0.1259874 39
13.842694 -15.79569 0.46048653 53
8.8357716 -11.695707 0.23487425 23
2.4571955 -3.7982452 0.045795258 44
13.893351 -15.853493 0.089035265 40
8.877883 -11.75145 -0.024419937 25
2.448561 -3.7848983 -0.033989199 39
11.171771 -12.747939 -0.22781166 0
8.8207893 -11.675876 -0.28301695 35
2.4543669 -3.7938728 -0.11406122 36
11.025077 -12.580549 -0.52072722 0
8.8477068 -11.711506 -0.54411489 37
2.4572275 -3.7982948 -0.19435041 45
10.959365 -12.505566 -0.81179988 0
8.8742399 -11.746627 -0.80633128 35
2.4593225 -3.801533 -0.27454555 40
10.940314 -12.483828 -1.1045605 0
8.9051752 -11.787577 -1.0706235 34
2.4498136 -3.7868345 -0.35337463 44
10.975728 -12.524238 -1.4027839 0
8.8540363 -11.719884 -1.3243444 38
2.4482286 -3.7843847 -0.43288827 39
10.362442 -11.824426 -1.6028565 2
8.891428 -11.76938 -1.5909514 31
8.0766392 -10.690862 -1.6826786 2
7.0696583 -9.3579445 -1.6804521 2
6.3391294 -8.3909597 -1.6947954 3
5.7509909 -7.6124544 -1.7063154 3
5.2497897 -6.9490256 -1.7129291 4
4.8023992 -6.3568254 -1.7081112 3
4.4601974 -5.9038606 -1.7176402 4
4.1592479 -5.5055008 -1.7235593 7
3.0666227 -4.0592179 -1.750136 7
2.2684414 -3.0026839 -1.7541857 6
2.3063147 -3.0998006 1.0198846 16
5.0004587 -6.7208629 1.6187723 30
4.4479485 -5.9782615 1.0424567 6
7.3455873 -9.8728313 1.0683866 8
8.7775192 -11.797419 0.75647956 28
8.8294659 -11.867237 0.49921602 27
2.4241784 -3.80813 0.1255426 33
13.831082 -16.017807 0.46399367 66
8.8405218 -11.882096 0.23730952 21
2.4185476 -3.7992847 0.045592804 39
13.886566 -16.082062 0.089744844 40
8.8774595 -11.931743 -0.024658699 23
2.412159 -3.7892489 -0.033868562 39
10.989152 -12.726561 -0.22598402 0
8.8137426 -11.846105 -0.28556946 38
2.4136069 -3.7915232 -0.11345559 36
10.877693 -12.59748 -0.51811361 0
8.8499031 -11.894706 -0.54959756 41
2.4207349 -3.8027205 -0.19366366 46
10.796905 -12.503919 -0.80653352 0
8.8761072 -11.929925 -0.81442523 32
2.4185255 -3.7992499 -0.27309293 40
10.780694 -12.485145 -1.0976553 0
8.9090242 -11.974168 -1.0816101 28
2.417706 -3.7979629 -0.35274974 40
10.818505 -12.528934 -1.39439 0
8.851119 -11.896339 -1.3369161 49
2.4054549 -3.7787175 -0.4302114 44
10.293695 -11.92115 -1.6056963 2
8.8880033 -11.945914 -1.6059644 25
7.9933157 -10.74341 -1.6816818 2
7.0079613 -9.4190454 -1.6821542 2
6.291594 -8.456212 -1.6986139 3
5.7067862 -7.6702018 -1.7098365 3
5.1940241 -6.9810238 -1.7113853 3
4.7720146 -6.4138227 -1.7139809 3
4.4098225 -5.9270186 -1.7149267 4
4.1210957 -5.5389552 -1.7245287 7
3.032269 -4.0755191 -1.7475336 7
2.2463696 -3.0192316 -1.7541857 6
2.2914784 -3.1251829 1.0229473 19
4.9441276 -6.7429404 1.6157366 28
4.3967342 -5.9963899 1.0402399 9
7.2411375 -9.8756676 1.0631969 8
8.79179 -11.990491 0.76490545 26
8.8291378 -12.041427 0.50393832 26
2.3762977 -3.7910824 0.12443062 39
13.8278 -16.241863 0.46767616 65
8.8424902 -12.059638 0.2396166 20
2.3813431 -3.7991316 0.045390349 40
13.890638 -16.315672 0.090505108 39
8.8459787 -12.064395 -0.024804607 6
2.3771486 -3.7924399 -0.033747926 39
10.861143 -12.757287 -0.22517771 0
8.8183241 -12.026679 -0.28843135 39
2.3743355 -3.7879519 -0.11284995 35
10.722094 -12.593963 -0.51487774 0
8.8493729 -12.069025 -0.55478382 37
2.3856378 -3.8059833 -0.19297689 46
10.64201 -12.499897 -0.80146223 0
8.8469229 -12.065682 -0.81945658 8
2.377099 -3.7923605 -0.27139819 42
10.631173 -12.487168 -1.0912813 0
2.3784246 -3.7944758 -0.35087508 43
10.640338 -12.497933 -1.3826386 0
8.8573666 -12.079926 -1.3505654 26
2.3705571 -3.7819238 -0.42868176 42
10.238594 -12.026052 -1.6101588 2
8.8678808 -12.094266 -1.6175458 10
7.925158 -10.808555 -1.683177 2
6.9584227 -9.4900932 -1.6861255 2
6.2464161 -8.5190382 -1.7024325 3
5.6554265 -7.7130303 -1.7105407 3
5.1614056 -7.0392709 -1.7167889 3
4.7294335 -6.4501352 -1.7148194 3
4.3821602 -5.9765139 -1.7203537 4
4.0800309 -5.5644612 -1.7235593 6
3.0126886 -4.1087899 -1.7527385 7
2.2295241 -3.040688 -1.7575656 7
2.2628102 -3.1316993 1.0198846 17
4.892334 -6.7709255 1.6142188 29
4.3292451 -5.9916177 1.0341438 9
7.1323423 -9.871067 1.0573152 7
8.7757168 -12.145476 0.77086526 3
13.900464 -19.238058 0.80103934 31
2.3371735 -3.7871633 0.12376343 36
13.837484 -16.485027 0.47188473 67
13.94173 -19.29517 0.38143834 32
2.3463597 -3.8020487 0.045228384 41
13.886977 -16.543989 0.091231585 40
10.825422 -14.982242 -0.030647617 13
2.3485138 -3.8055394 -0.03371777 42
10.70753 -12.756215 -0.22383383 0
2.3331323 -3.7806151 -0.11214337 40
10.582501 -12.607265 -0.51238865 0
2.348515 -3.8055413 -0.19211847 46
10.508249 -12.518806 -0.79795134 0
9.0735836 -12.557719 -0.84855103 0
2.3484685 -3.8054659 -0.2711561 42
10.492417 -12.499944 -1.0859697 0
9.0447206 -12.517775 -1.1191962 2
2.3414049 -3.7940199 -0.34931287 45
10.491324 -12.498643 -1.3745805 1
2.3378229 -3.7882159 -0.42753452 41
10.162063 -12.106383 -1.6113759 3
8.9439449 -12.378302 -1.647143 3
7.8541584 -10.870051 -1.6841738 2
2.708566 -3.7486196 -0.66264957 5
6.1844788 -8.5592365 -1.7017961 3
5.6060562 -7.7587075 -1.7119491 1
2.7192714 -3.7634356 -0.91320199 4
2.7143683 -3.7566497 -0.99367291 20
4.3494587 -6.0195937 -1.7239717 3
2.7228463 -3.7683833 -1.1613183 12
2.7158873 -3.7587521 -1.5952913 0
2.210366 -3.0591173 -1.7592555 6
2.2476211 -3.156872 1.0229473 20
4.8472228 -6.8081141 1.6149777 29
4.2735248 -6.0023327 1.0308186 10
7.0308976 -9.8751717 1.0524715 6
12.543725 -17.618155 1.1126271 1
13.83306 -19.429075 0.80495209 42
2.3086011 -3.7999704 0.12365223 38
13.84444 -16.729111 0.47609329 77
13.885553 -19.502804 0.38361725 30
2.3093753 -3.8012447 0.04502593 38
12.419527 -15.007298 0.082277372 12
10.692723 -15.018349 -0.030568032 11
2.309428 -3.8013315 -0.033536814 42
9.5370121 -11.524173 -0.20104192 9
10.688419 -15.012304 -0.35642037 0
2.3025296 -3.7899766 -0.11194149 40
9.5154123 -11.498074 -0.4645972 26
9.6699495 -13.581823 -0.61805648 0
2.3073654 -3.7979364 -0.19091664 43
9.5112438 -11.493036 -0.72831833 0
8.985693 -12.620758 -0.84855103 0
2.3094058 -3.8012948 -0.26970348 46
9.532095 -11.518231 -0.9948746 20
8.936285 -12.551363 -1.1165941 2
2.2982965 -3.7830088 -0.34681329 45
9.5169201 -11.499894 -1.2574019 40
8.9466295 -12.565892 -1.3907951 0
2.30305 -3.7908332 -0.42600489 41
9.5039148 -11.484179 -1.5196913 39
8.9126692 -12.518193 -1.6574377 2
7.7665706 -10.908453 -1.6816818 0
2.6869228 -3.7738886 -0.66378427 14
2.6774967 -3.7606492 -0.74397892 15
2.6788182 -3.7625053 -0.82604539 1
2.6701679 -3.7503555 -0.90548259 1
2.6734359 -3.7549458 -1.0700202 1
2.6784649 -3.7620091 -1.1535633 1
2.6676424 -3.7468083 -1.5822791 17
2.1805446 -3.0626602 -1.7524956 8
2.2155235 -3.1558826 1.0178428 21
4.8019629 -6.8401127 1.6149777 28
4.2017555 -5.9851527 1.0230597 9
2.6583343 -3.7866402 0.40168291 1
13.61096 -19.38801 1.2186699 20
13.855498 -19.73634 0.81385702 5
2.2771888 -3.8049049 0.12331864 38
9.4361935 -11.557552 0.32712781 59
2.6679919 -3.8003972 0.074403547 2
2.2779522 -3.8061805 0.044904456 40
9.4206686 -11.538537 0.062916003 38
2.6568394 -3.7845111 -0.0076668784 21
2.2759502 -3.8028352 -0.033416178 41
9.4047251 -11.51901 -0.19985932 36
2.6402607 -3.760896 -0.088873051 0
2.2691295 -3.7914391 -0.11153774 42
9.3909063 -11.502085 -0.46223253 40
2.6733928 -3.8080904 -0.17248087 2
2.2759697 -3.8028681 -0.19040158 45
9.4095459 -11.524915 -0.72636783 30
2.6620462 -3.7919281 -0.2537559 22
2.271842 -3.7959714 -0.26825085 42
9.3923922 -11.503904 -0.98823506 53
2.6476009 -3.7713516 -0.33393738 41
2.2649653 -3.7844808 -0.34556353 42
9.390027 -11.501008 -1.2506869 48
2.6689994 -3.8018322 -0.41881895 6
2.2655897 -3.7855244 -0.42371044 41
9.3822422 -11.491473 -1.5123891 39
2.6529477 -3.7789676 -0.49800339 32
2.6543796 -3.7810071 -0.58016527 40
2.6504588 -3.7754223 -0.66094756 57
2.6456888 -3.7686279 -0.7420696 1
2.6402307 -3.7608531 -0.82182008 23
2.6384704 -3.7583454 -0.90316677 11
2.649493 -3.7740467 -0.98864162 33
2.632802 -3.7502713 -1.0636888 17
2.6467662 -3.7701623 -1.1506552 3
2.6492536 -3.7737057 -1.5861827 41
2.1768489 -3.1007929 -1.7660154 7
2.1956375 -3.174454 1.0188637 22
4.7518587 -6.8702402 1.6142188 5
2.6207626 -3.7890999 0.6445387 26
2.613699 -3.7788873 0.39891505 35
2.6155214 -3.7815223 0.23654115 27
2.6174903 -3.7843688 0.15529665 28
2.2404232 -3.803484 0.12276265 39
9.3126497 -11.570189 0.32563728 41
2.6140943 -3.7794588 0.07363452 24
2.2371144 -3.7978668 0.044621021 41
9.2872162 -11.538589 0.062561214 45
2.6212521 -3.7898078 -0.0076403497 41
2.2391958 -3.8014002 -0.033265382 40
9.2714138 -11.518956 -0.19873047 36
2.6253157 -3.7956829 -0.089259788 26
2.2365167 -3.7968519 -0.11123493 45
9.2627478 -11.50819 -0.45986786 43
2.6240041 -3.7937868 -0.17099908 37
2.2371957 -3.7980049 -0.18937145 46
9.2837667 -11.534304 -0.72285688 43
2.610517 -3.7742867 -0.2513496 43
2.2392066 -3.8014185 -0.26752454 44
9.2668056 -11.513231 -0.98345453 46
2.6121302 -3.776619 -0.33278087 51
2.2324178 -3.7898932 -0.34462619 44
9.2695189 -11.516602 -1.2453148 44
2.6151984 -3.7810552 -0.41450864 43
2.2269816 -3.7806644 -0.42141598 47
9.2394104 -11.479195 -1.502247 42
2.6106651 -3.7745008 -0.49500078 52
2.6121149 -3.776597 -0.57667631 43
2.6105227 -3.7742951 -0.65754354 40
2.6103292 -3.7740154 -0.73952395 20
2.6139107 -3.7791936 -0.82182008 48
2.6121681 -3.776674 -0.90316677 44
2.6097319 -3.7731519 -0.98361039 38
2.6109891 -3.7749696 -1.0654978 38
2.6071355 -3.769398 -1.1448388 40
2.6077824 -3.7703333 -1.5770743 34
2.1572108 -3.1188965 -1.7677054 7
2.1734228 -3.1897044 1.0188637 20
2.5874112 -3.7972717 0.88793421 26
2.5920157 -3.8040295 0.6439845 32
2.571547 -3.7739894 0.3964932 35
2.5935576 -3.8062921 0.23695217 32
2.5932581 -3.8058527 0.15543158 30
2.2037888 -3.8017359 0.12220666 44
9.1744776 -11.562867 0.32362068 41
2.5831416 -3.7910056 0.073506348 23
2.2065339 -3.8064713 0.04454004 43
9.1666555 -11.55301 0.062290896 50
2.5902264 -3.8014035 -0.0076270853 33
2.1985602 -3.7927163 -0.03305427 46
9.1485081 -11.530137 -0.19781664 37
2.5897455 -3.8006978 -0.088950396 39
2.199928 -3.7950754 -0.11073023 47
9.1275091 -11.503673 -0.45712981 42
2.5839505 -3.7921929 -0.17011 60
2.2046134 -3.8031583 -0.18885639 51
9.1508665 -11.53311 -0.71876085 42
2.5841045 -3.792419 -0.2513496 45
2.2066061 -3.806596 -0.26679823 44
9.1465101 -11.527619 -0.97920519 51
2.5767155 -3.7815747 -0.33162439 53
2.1999049 -3.7950358 -0.34368885 44
9.1319094 -11.509218 -1.2375925 45
2.5887387 -3.7992201 -0.41450864 48
2.1965396 -3.7892303 -0.42065117 44
9.1095772 -11.481071 -1.4941332 47
2.5752935 -3.7794881 -0.493285 55
2.5700428 -3.7717819 -0.57318729 47
2.5729623 -3.7760665 -0.6547069 42
2.5839188 -3.7921462 -0.73952395 44
2.5741611 -3.7778261 -0.81759477 43
2.5768991 -3.7818441 -0.90007907 43
2.5745182 -3.7783501 -0.9802562 39
2.5757957 -3.780225 -1.0618798 36
2.5763869 -3.7810926 -1.1429001 44
2.5707483 -3.7728176 -1.5705682 31
2.1251774 -3.1188998 -1.7592555 8
2.1575677 -3.2144339 1.0219264 21
2.5455172 -3.7924168 0.88262177 30
2.5477338 -3.7957194 0.63955086 35
2.5473578 -3.7951591 0.39683917 30
2.5468848 -3.7944543 0.23510259 32
2.5532572 -3.8039484 0.15462205 33
2.1692698 -3.8031359 0.12176187 45
9.0393295 -11.557336 0.32169175 44
2.5454676 -3.7923429 0.073185921 24
2.1680157 -3.8009369 0.044297092 41
9.0290995 -11.544256 0.061902318 51
2.5480199 -3.7961457 -0.0075806594 33
2.1660833 -3.7975492 -0.032963794 45
9.0135803 -11.524415 -0.19663404 39
2.5475469 -3.7954409 -0.088408962 48
2.1654551 -3.7964478 -0.11032647 45
9.0026407 -11.510427 -0.45488957 44
2.5551853 -3.8068209 -0.16996183 52
2.1681087 -3.8011 -0.18799795 48
9.0209007 -11.533774 -0.71485984 47
2.5486619 -3.7971022 -0.25047457 45
2.1700864 -3.8045673 -0.26558772 48
9.0141735 -11.525174 -0.97362798 51
2.5391352 -3.7829089 -0.33017877 50
2.1654539 -3.7964458 -0.34243909 45
9.0071373 -11.516177 -1.2315489 34
2.5443902 -3.7907379 -0.4116351 55
2.1621413 -3.790638 -0.4191215 46
8.9801702 -11.481698 -1.4860196 8
2.5421963 -3.7874691 -0.49199817 56
2.5303769 -3.7698603 -0.57019675 47
2.5399177 -3.7840745 -0.65300488 44
2.5397749 -3.7838619 -0.73443252 47
2.5345576 -3.7760887 -0.81336951 54
2.5373099 -3.7801893 -0.89544743 44
2.5393589 -3.783242 -0.97690201 38
2.5384848 -3.7819397 -1.0573572 37
2.5347879 -3.776432 -1.1361145 46
2.5295904 -3.7686887 -1.5614597 31
2.1094131 -3.1426911 -1.7643255 7
2.1350741 -3.229418 1.0219264 22
2.5103154 -3.7969911 0.8795861 40
2.516803 -3.8068039 0.63844246 33
2.5032187 -3.7862568 0.39407134 33
2.5115201 -3.7988131 0.23428056 30
2.5134101 -3.801672 0.1538125 30
2.1328831 -3.8007524 0.12120588 37
8.9144735 -11.563153 0.32011354 42
2.5079012 -3.7933395 0.072865494 22
2.1316409 -3.7985389 0.044094637 41
8.8994408 -11.543653 0.061564423 45
2.5082197 -3.7938211 -0.0075408658 31
2.1316895 -3.7986255 -0.032843158 43
8.8938322 -11.536379 -0.19577397 39
2.5121653 -3.7997892 -0.088099569 48
2.1271574 -3.7905495 -0.10972083 43
8.887888 -11.528668 -0.45314717 47
2.517524 -3.8078945 -0.16922092 51
2.1317413 -3.7987177 -0.18713953 47
8.8986902 -11.542681 -0.71154398 11
2.5066721 -3.7914803 -0.2489433 43
2.1317496 -3.7987328 -0.26413509 45
8.8774452 -11.515123 -0.96751952 31
2.5038626 -3.787231 -0.32902229 45
2.1310916 -3.79756 -0.3411893 43
8.8705463 -11.506175 -1.2238265 13
2.5024841 -3.785146 -0.40912077 53
2.1200373 -3.7778616 -0.41606224 43
8.9240904 -11.575627 -1.4900764 19
2.5047264 -3.7885373 -0.48985347 55
2.4974301 -3.7775013 -0.56870151 43
2.4937844 -3.771987 -0.64789885 40
2.5089407 -3.7949119 -0.73315972 47
2.4972761 -3.7772682 -0.80984843 50
2.4978702 -3.7781672 -0.89081579 42
2.497786 -3.7780399 -0.97103226 36
2.5012755 -3.7833178 -1.0528347 38
2.4976604 -3.7778497 -1.1312675 43
2.4927886 -3.7704806 -1.5549536 33
2.0954194 -3.1694379 -1.7710854 7
2.1293595 -3.2701731 1.0300937 21
2.4623158 -3.7815123 0.87199688 38
2.4663877 -3.7877655 0.63234621 33
2.470201 -3.793622 0.39303342 33
2.4653201 -3.7861259 0.23243098 26
2.4737196 -3.7990255 0.15300296 30
2.0927701 -3.7910464 0.12042749 32
8.7924023 -11.570974 0.31862301 47
2.4638987 -3.7839429 0.072352804 23
2.093472 -3.7923179 0.043851692 39
8.8258972 -11.615054 0.061615106 34
2.4642115 -3.7844234 -0.0074878079 32
2.0935197 -3.7924044 -0.032662202 38
8.8614769 -11.661878 -0.19684906 24
2.4703009 -3.7937753 -0.087558128 44
2.0929124 -3.7913043 -0.10931708 39
8.884594 -11.692301 -0.45712981 31
2.4777915 -3.8052793 -0.16833185 50
2.0993755 -3.8030119 -0.18662445 46
8.8323965 -11.623609 -0.71271425 17
2.4670651 -3.788806 -0.24763077 43
2.1013186 -3.8065319 -0.26365086 43
8.8596239 -11.65944 -0.97442472 31
2.4664772 -3.7879031 -0.32757667 41
2.0948915 -3.7948895 -0.33962709 40
8.9009352 -11.713807 -1.2392713 28
2.4694765 -3.7925091 -0.40804318 47
2.091687 -3.7890842 -0.41567981 41
8.9297361 -11.751709 -1.504681 33
2.4673657 -3.7892675 -0.48770875 54
2.455838 -3.7715638 -0.56521255 41
2.4565873 -3.7727146 -0.64506215 42
2.4694571 -3.7924795 -0.72934115 45
2.4558048 -3.771513 -0.80491889 49
2.4628663 -3.7823575 -0.88772804 41
2.4606788 -3.7789981 -0.96683955 34
2.4599192 -3.7778318 -1.0465033 35
2.4606371 -3.7789342 -1.1264206 41
2.4540212 -3.7687738 -1.5471462 30
2.0712633 -3.1809516 -1.7693954 6
2.1157641 -3.3019755 1.0351982 23
2.4345307 -3.7994597 0.87199688 39
2.4321446 -3.7957358 0.6306836 33
2.4272776 -3.7881398 0.39061153 29
2.4353459 -3.8007317 0.23222546 27
2.4350219 -3.8002262 0.15232834 30
2.061111 -3.7992563 0.1202051 34
8.7936049 -11.750378 0.32177943 28
2.4274647 -3.7884321 0.07209646 23
2.0579875 -3.7934988 0.043689728 41
8.8172092 -11.781919 0.062155738 32
2.434247 -3.799017 -0.0074811755 33
2.0618491 -3.800617 -0.032601885 44
8.852438 -11.828994 -0.19856921 26
2.4337952 -3.7983119 -0.087248735 43
2.0612512 -3.7995145 -0.10911521 41
8.8800926 -11.865947 -0.46136132 32
2.439049 -3.8065109 -0.16759095 49
2.0619133 -3.800735 -0.18576601 49
8.8307371 -11.799995 -0.71954107 31
2.4262979 -3.7866108 -0.24631824 45
2.0619352 -3.8007758 -0.26219824 39
8.8600073 -11.839108 -0.98398572 37
2.4235783 -3.7823668 -0.32555279 44
2.0575094 -3.7926178 -0.33806485 39
8.8936396 -11.884048 -1.2503512 28
2.4308639 -3.7937369 -0.4062472 47
2.0524633 -3.7833159 -0.41338536 40
8.9291859 -11.931546 -1.5192857 28
2.4287958 -3.7905092 -0.48556402 51
2.4238434 -3.7827802 -0.56421572 41
2.4203219 -3.7772846 -0.64279282 38
2.4288082 -3.7905285 -0.72552264 46
2.4280932 -3.789413 -0.80491889 47
2.4223702 -3.7804813 -0.8830964 41
2.4265819 -3.7870541 -0.96432388 36
2.4237525 -3.7826385 -1.0428853 33
2.4265897 -3.7870665 -1.1235125 42
2.4202077 -3.7771065 -1.5432426 33
2.0420229 -3.1868908 -1.7643255 7
2.0967882 -3.3232076 1.03724 22
2.3974679 -3.7997563 0.86820233 41
2.3950171 -3.795872 0.62791258 34
2.3880134 -3.7847717 0.38853565 31
2.3959627 -3.7973704 0.23099241 29
2.3998992 -3.8036096 0.15178865 31
2.0288908 -3.8029697 0.1198715 38
8.7896881 -11.917689 0.32467282 27
2.3924208 -3.7917569 0.071840122 27
2.0314538 -3.8077738 0.043689728 41
8.822587 -11.962296 0.062780842 35
2.3927245 -3.7922385 -0.00743475 32
2.0239689 -3.7937446 -0.03242093 40
8.8527317 -12.003167 -0.20045061 25
2.3922803 -3.7915342 -0.086707301 42
2.0252643 -3.7961724 -0.1086105 43
8.8753481 -12.033834 -0.46546841 28
2.4017503 -3.8065434 -0.16685005 48
2.0315669 -3.8079858 -0.18542264 48
8.8216562 -11.961034 -0.72558761 28
2.3912783 -3.7899461 -0.24544322 44
2.0259538 -3.7974648 -0.26098773 42
8.8576841 -12.009883 -0.99301553 37
2.3949845 -3.7958202 -0.32526368 41
2.0253508 -3.7963343 -0.33712754 42
8.8861647 -12.048498 -1.2610953 18
2.4000678 -3.8038769 -0.40552881 47
2.0222526 -3.7905269 -0.41262054 47
8.89291 -12.057645 -1.5273993 4
2.3959074 -3.7972829 -0.48427719 52
2.3867865 -3.7828271 -0.56172359 42
2.3812153 -3.7739975 -0.6393888 42
2.3896427 -3.787354 -0.72170407 46
2.3931746 -3.7929518 -0.80210203 50
2.3854468 -3.780704 -0.87923676 40
2.3854749 -3.7807484 -0.95845407 39
2.3827317 -3.7764006 -1.0365537 35
2.3876672 -3.7842228 -1.1176962 44
2.383688 -3.7779162 -1.5367365 32
2.0235937 -3.2072015 -1.7677054 7
2.0735366 -3.337765 1.03724 23
2.3605199 -3.7997212 0.86440772 41
2.3580062 -3.7956748 0.62514156 35
2.353121 -3.7878108 0.38715175 32
2.3609617 -3.800432 0.23017037 28
2.3648479 -3.8066878 0.15124896 30
1.9948628 -3.8028774 0.11942671 38
8.7909145 -12.095218 0.32782924 30
2.3595593 -3.7981746 0.07164786 28
1.9992479 -3.8112371 0.043568257 45
8.8094101 -12.120666 0.063287683 6
2.3619697 -3.8020546 -0.0074214856 33
2.0048678 -3.8219502 -0.032541566 48
2.3594208 -3.7979519 -0.086475261 43
2.0005713 -3.8137596 -0.10871144 44
2.3666797 -3.8096366 -0.16625734 50
1.9975078 -3.8079197 -0.18473589 49
8.8224983 -12.138673 -0.73260945 2
2.3563304 -3.7929771 -0.2445682 45
2.0049584 -3.8221231 -0.26171404 44
9.0528593 -12.455622 -1.0246199 1
2.3557947 -3.792115 -0.32352895 46
2.0043564 -3.8209753 -0.33806485 46
2.3545327 -3.7900836 -0.4022961 51
2.0049894 -3.8221822 -0.4145326 39
9.4659376 -13.023967 -1.6413965 1
2.3504515 -3.7835138 -0.48041672 56
2.3519418 -3.785913 -0.55972987 44
2.350631 -3.783803 -0.63825411 41
2.3548081 -3.7905266 -0.71915841 46
2.3520918 -3.7861543 -0.79717249 47
2.3444967 -3.7739286 -0.87383318 44
2.3466389 -3.7773767 -0.95342284 38
2.3480849 -3.7797043 -1.0329359 36
2.3468549 -3.7777245 -1.1109105 45
2.347275 -3.7784007 -1.5302304 32
1.9954144 -3.2120118 -1.7626355 7
2.05422 -3.3587582 1.0392818 24
2.3339355 -3.816108 0.86440772 45
2.3293834 -3.808665 0.62458736 33
2.3183031 -3.7905483 0.38576782 28
2.3239508 -3.7997823 0.22914283 30
2.3319573 -3.8128736 0.15084419 31
1.973763 -3.8273726 0.1197603 41
13.856905 -19.34798 0.5217737 57
2.3246386 -3.8009071 0.071391523 27
1.974425 -3.8286562 0.043608747 43
11.002379 -15.362292 0.079810739 2
2.3270209 -3.8048022 -0.0073949564 30
1.9873033 -3.8536289 -0.032692362 27
2.3245022 -3.8006842 -0.086165868 46
1.9958906 -3.8702807 -0.10992271 23
10.643307 -14.860929 -0.56901646 7
2.3337691 -3.815836 -0.16581279 49
1.9763699 -3.8324277 -0.18525095 42
9.0864859 -12.687186 -0.76186699 0
2.3214576 -3.795706 -0.24369317 44
1.987376 -3.85377 -0.26292455 30
8.988925 -12.550965 -1.0272758 1
2.3146927 -3.7846451 -0.32150507 48
1.9867709 -3.8525965 -0.33962709 24
8.9677277 -12.521369 -1.2973568 2
2.3197014 -3.7928345 -0.40085933 51
2.001981 -3.882091 -0.41950393 23
9.3886881 -13.109143 -1.6438305 0
2.3156803 -3.7862599 -0.47870094 52
2.308888 -3.7751539 -0.5557425 45
2.3138285 -3.7832317 -0.6354174 43
2.3221064 -3.7967668 -0.7172491 43
2.3132756 -3.7823279 -0.79294723 47
2.3099015 -3.7768111 -0.87074542 42
2.3100073 -3.7769845 -0.94923013 37
2.3114755 -3.7793849 -1.0284133 36
2.3042259 -3.7675314 -1.1031555 45
2.3089986 -3.7753348 -1.5224231 34
1.9880747 -3.2506073 -1.7761552 7
2.0307214 -3.3730178 1.0392818 22
2.2869806 -3.7986629 0.85681856 42
2.2925208 -3.8078651 0.62181634 32
2.2856174 -3.7963984 0.38472989 30
2.289125 -3.8022246 0.22832079 30
2.2929099 -3.8085115 0.15003465 29
1.9578414 -3.8624575 0.12042749 25
13.795278 -19.548805 0.52457941 49
2.2815437 -3.7896323 0.070878834 26
1.9783906 -3.902997 0.044297092 30
10.913314 -15.464876 0.0799459 2
2.2921491 -3.8072479 -0.0073684272 30
1.9802442 -3.9066539 -0.03302411 25
2.6496992 -3.7547963 -0.061763946 0
2.2875981 -3.7996886 -0.085779123 43
1.9905173 -3.9269207 -0.11113399 22
2.6578763 -3.7663836 -0.14349869 8
2.2947023 -3.8114886 -0.16492371 47
1.9802823 -3.9067292 -0.18816964 28
2.6698217 -3.7833111 -0.22606345 0
2.2846017 -3.7947118 -0.2425994 43
1.9820853 -3.9102862 -0.2658298 30
2.6694045 -3.7827199 -0.3080765 0
2.2882144 -3.8007123 -0.32150507 47
2.0012946 -3.9481823 -0.34681329 25
2.6750593 -3.7907331 -0.39081866 17
2.282892 -3.7918718 -0.39906335 51
1.9964328 -3.938591 -0.42409283 24
2.6477463 -3.7520289 -0.46815905 28
2.2809858 -3.7887058 -0.47698516 51
2.2742879 -3.7775807 -0.55374879 46
2.279191 -3.7857244 -0.63314807 40
2.2792485 -3.78582 -0.71215773 45
2.2786899 -3.7848923 -0.79013038 50
2.2753806 -3.7793953 -0.86765766 41
2.2755136 -3.7796164 -0.94587594 37
2.2769954 -3.7820776 -1.0247953 36
2.2738643 -3.7768769 -1.1012167 44
2.27088 -3.77192 -1.5146159 32
1.9578528 -3.2519836 -1.7693954 6
2.020926 -3.4104025 1.0464281 22
2.2564018 -3.8077784 0.85530072 38
2.2557845 -3.8067367 0.61904532 32
2.2468696 -3.7916923 0.38265401 29
2.2421608 -3.7837462 0.2262657 34
2.2621903 -3.8175468 0.14976481 30
1.9611373 -3.9368746 0.12231786 25
2.6527052 -3.8153212 0.10188221 6
2.2509546 -3.7985861 0.070750661 27
1.9689288 -3.9525156 0.044702001 28
2.6487522 -3.8096359 0.019597895 37
2.2492013 -3.7956271 -0.0073153693 29
1.9832416 -3.9812477 -0.033536814 24
2.6279876 -3.7797709 -0.061871458 12
2.2487838 -3.7949228 -0.085315034 46
1.9897982 -3.9944096 -0.11264807 22
2.6223879 -3.7717168 -0.14300086 46
2.2558115 -3.8067822 -0.16403463 45
1.9761245 -3.9669604 -0.19040158 26
2.6205373 -3.7690549 -0.22411294 27
2.2438023 -3.7865162 -0.24106811 40
1.9867829 -3.9883566 -0.27018768 29
2.6155903 -3.76194 -0.3048895 30
2.2433212 -3.7857044 -0.31890297 44
1.9950192 -4.0048904 -0.35056263 23
2.6189499 -3.766772 -0.38645387 63
2.2462103 -3.7905798 -0.3972674 49
1.9919673 -3.998764 -0.42906418 23
2.6373894 -3.7932932 -0.47099885 44
2.244344 -3.7874305 -0.47484043 54
2.2357213 -3.7728791 -0.55075824 47
2.2365584 -3.774292 -0.62860936 42
2.2487376 -3.7948449 -0.71088487 44
2.2441826 -3.787158 -0.78731352 50
2.2369359 -3.774929 -0.86302602 41
2.2430909 -3.7853158 -0.94336033 35
2.2366326 -3.7744169 -1.0184639 33
2.2276585 -3.7592728 -1.0915229 40
2.2348511 -3.7714109 -1.5081098 33
1.9332545 -3.2624531 -1.7677054 7
2.0009644 -3.4311104 1.0484699 23
2.2178924 -3.8030829 0.85074717 38
2.2151837 -3.7984383 0.61516589 32
2.2082984 -3.7866318 0.38057813 29
2.2136781 -3.7958565 0.22606018 33
2.2173581 -3.8021669 0.1485505 33
1.9599731 -4.0043392 0.12398583 25
2.5898461 -3.7809596 0.10047936 41
2.2102766 -3.7900238 0.070302062 24
1.9694225 -4.0236444 0.045349859 28
2.6017473 -3.7983344 0.019445842 45
2.2166026 -3.8008709 -0.0072954725 30
1.9888104 -4.0632553 -0.034109835 22
2.5902345 -3.7815268 -0.061602686 33
2.2121615 -3.793256 -0.084928297 43
1.9935074 -4.0728517 -0.11446498 25
2.5846956 -3.7734401 -0.14237857 44
2.2251525 -3.815532 -0.16373828 48
1.9729789 -4.030911 -0.19280522 27
2.5873868 -3.7773695 -0.22352779 42
2.2153003 -3.7986381 -0.24084936 45
1.9852206 -4.0559211 -0.27381924 31
2.5824969 -3.7702305 -0.30409274 47
2.2128174 -3.7943804 -0.31832471 40
2.0003216 -4.0867734 -0.35649908 22
2.5903366 -3.7816756 -0.38611811 42
2.2136714 -3.7958448 -0.39618981 49
2.0007625 -4.0876741 -0.43709478 24
2.5906038 -3.7820659 -0.46734768 46
2.2098341 -3.7892652 -0.47312465 53
2.2073276 -3.7849672 -0.55025983 47
2.2061651 -3.7829735 -0.62747473 44
2.214232 -3.7968063 -0.70833921 46
2.1998358 -3.7721205 -0.78097552 51
2.2045956 -3.7802825 -0.86071026 42
2.2087283 -3.787369 -0.94000614 37
2.2063017 -3.7832079 -1.0166548 36
2.2033143 -3.7780855 -1.0924923 43
2.2008452 -3.7738519 -1.5029049 33
1.9268689 -3.3040566 -1.7829151 7
1.9942868 -3.4751856 1.0576581 23
2.1854236 -3.808255 0.84847045 44
2.1886117 -3.8138106 0.61516589 35
2.1758583 -3.7915869 0.37954018 32
2.1831474 -3.8042886 0.22564916 29
2.1808112 -3.8002174 0.14787588 35
1.9596932 -4.0755811 0.125765 23
2.5633879 -3.7989476 0.10047936 40
2.1817727 -3.8018932 0.070237979 29
1.97075 -4.0985761 0.046038203 29
2.5617435 -3.7965107 0.019344473 44
2.1820498 -3.802376 -0.0072689438 36
1.9881284 -4.1347179 -0.034592379 24
2.557061 -3.789571 -0.061441422 32
2.1796541 -3.7982013 -0.084696248 46
1.994483 -4.147934 -0.11618094 23
2.5493448 -3.7781358 -0.14188075 43
2.1865237 -3.8101718 -0.1628492 52
1.9776938 -4.1130171 -0.19606727 24
2.5654233 -3.8019638 -0.2239179 40
2.1728232 -3.7862983 -0.23909932 48
1.98627 -4.1308527 -0.277935 31
2.5516489 -3.7815502 -0.30356157 49
2.1763451 -3.7924352 -0.31687909 50
1.9976631 -4.1545477 -0.36118576 22
2.552726 -3.7831466 -0.38443932 41
2.1811688 -3.8008409 -0.39511225 53
2.0049596 -4.1697221 -0.44436058 24
2.5530088 -3.7835658 -0.46531928 49
2.1813469 -3.801151 -0.47269571 52
2.1729481 -3.7865157 -0.54826611 45
2.1757593 -3.7914145 -0.62634003 44
2.1778436 -3.7950461 -0.70515704 50
2.171488 -3.7839713 -0.78027135 56
2.1722901 -3.7853689 -0.85839444 45
2.1744468 -3.7891273 -0.936652 38
2.1643212 -3.7714827 -1.0094188 36
2.1730216 -3.7866435 -1.0905535 43
2.1687973 -3.7792828 -1.4990013 34
1.9001461 -3.3111391 -1.7795352 7
1.9813861 -3.5092306 1.0637835 24
2.1491289 -3.80632 0.84467584 46
2.1463513 -3.8014004 0.61073226 36
2.1434574 -3.7962749 0.37850225 33
2.148679 -3.8055232 0.22482713 34
2.1502962 -3.8083873 0.14760603 32
1.9585127 -4.1470118 0.12754416 23
2.5213084 -3.7934372 0.099865608 39
2.1453452 -3.7996187 0.069917545 25
1.9677098 -4.1664858 0.046645567 29
2.524106 -3.7976463 0.01926 44
2.1456177 -3.800101 -0.0072357827 37
1.9865441 -4.2063661 -0.035074923 22
2.5216868 -3.7940063 -0.061226401 35
2.1452193 -3.7993956 -0.084386855 47
1.9962137 -4.226841 -0.11799785 24
2.5162671 -3.7858522 -0.14150737 45
2.1539745 -3.8149018 -0.16240467 55
1.9762368 -4.1845412 -0.19881427 23
2.5144913 -3.7831805 -0.22177234 44
2.1404459 -3.7909412 -0.23844306 52
1.9880733 -4.2096043 -0.28229284 28
2.5141401 -3.7826521 -0.30223367 51
2.1419697 -3.7936404 -0.31572261 52
1.9941543 -4.2224803 -0.36587241 24
2.5130146 -3.7809584 -0.3824248 43
2.1447871 -3.79863 -0.39331627 52
2.0098076 -4.2556248 -0.45200878 24
2.5177212 -3.7880399 -0.46369654 50
2.1430247 -3.7955089 -0.47012207 56
2.1406062 -3.7912254 -0.54677087 48
2.1336632 -3.7789285 -0.62180132 44
2.1474128 -3.8032806 -0.70388424 50
2.1334023 -3.7784665 -0.77604604 55
2.1380916 -3.7867715 -0.85530668 46
2.1421719 -3.7939982 -0.93413639 38
2.1321914 -3.7763216 -1.0067054 38
2.1389008 -3.7882047 -1.086676 44
2.1405003 -3.7910376 -1.4977 36
1.8734188 -3.3180099 -1.7761552 7
1.9681072 -3.5432627 1.069909 23
2.1148763 -3.8074973 0.84164017 43
2.1062963 -3.7920501 0.60685283 34
2.1091628 -3.7972112 0.37711832 29
2.1123617 -3.8029699 0.22379959 29
2.1158926 -3.8093269 0.14706634 32
1.9581112 -4.2222486 0.12943453 24
2.4947641 -3.8109469 0.099865608 41
2.1051733 -3.7900283 0.069468945 30
1.973913 -4.2563219 0.047495876 27
2.486578 -3.7984421 0.019175528 49
2.1112673 -3.8009999 -0.0072092535 32
1.9806893 -4.2709336 -0.035497151 23
2.4841847 -3.7947865 -0.060957629 35
2.1089337 -3.7967985 -0.084000118 48
1.9986206 -4.3095984 -0.11991569 22
2.4810166 -3.7899468 -0.14100954 41
2.1175849 -3.8123736 -0.16166377 54
1.9789203 -4.2671189 -0.20207635 23
2.4770775 -3.7839293 -0.22079709 46
2.1042321 -3.7883339 -0.23734929 46
1.9888728 -4.2885795 -0.28665072 30
2.4789274 -3.7867551 -0.30117133 50
2.1038105 -3.7875752 -0.31398788 48
1.9948266 -4.3014174 -0.37149641 20
2.4778249 -3.7850711 -0.38108179 43
2.1085441 -3.7960973 -0.39152029 53
1.9968004 -4.3056736 -0.4558329 22
2.4803169 -3.788878 -0.4616681 50
2.1087515 -3.7964704 -0.46840629 52
2.1005974 -3.7817903 -0.54328191 48
2.1014621 -3.7833471 -0.62009931 44
2.1035516 -3.7871087 -0.69815642 50
2.1012368 -3.7829416 -0.77393341 52
2.1039805 -3.7878811 -0.85221893 42
2.1061378 -3.791765 -0.92994368 39
2.0944247 -3.7706773 -1.0012784 36
2.1048653 -3.789474 -1.0827985 44
2.1011262 -3.7827423 -1.4885916 30
1.8484495 -3.3278382 -1.7744653 5
1.9655745 -3.5976448 1.0821599 23
2.0788286 -3.8049369 0.83784556 39
2.0797713 -3.8066626 0.60685283 34
2.0711381 -3.7908609 0.37504244 29
2.0819299 -3.8106132 0.22338857 35
2.0815797 -3.8099725 0.14652665 30
1.9567533 -4.2976789 0.1313249 24
2.4485955 -3.7980211 0.099076502 38
2.0748274 -3.7976134 0.069340773 27
1.9673539 -4.3209615 0.048062749 27
2.4469948 -3.7955379 0.019074159 44
2.0770087 -3.8016059 -0.0071827243 33
1.9839734 -4.3574634 -0.036100332 19
2.4446282 -3.7918673 -0.060635101 34
2.0766232 -3.8009005 -0.08376807 47
2.0032816 -4.3998709 -0.12203541 1
2.4436653 -3.7903736 -0.14038727 40
2.0813353 -3.8095253 -0.16092287 51
1.9755776 -4.3390236 -0.20482334 25
2.4419408 -3.787699 -0.22001688 40
2.0739031 -3.7959216 -0.23691177 45
1.9837012 -4.3568659 -0.29028228 14
2.4416168 -3.7871964 -0.29984343 49
2.0715787 -3.7916672 -0.31312048 44
8.8735905 -19.489347 -1.6778265 10
2.4427006 -3.7888772 -0.37973875 40
2.0762606 -3.8002367 -0.39044273 53
2.4451799 -3.7927229 -0.46004537 45
2.070755 -3.7901595 -0.46583262 53
2.0722413 -3.7928798 -0.5427835 45
2.065506 -3.7805521 -0.6172626 42
2.0638075 -3.7774434 -0.69370145 46
2.067224 -3.7836969 -0.7711165 49
2.0680759 -3.7852561 -0.84835923 41
2.0683637 -3.7857828 -0.92491239 39
2.0624449 -3.7749496 -0.9985649 37
2.063473 -3.7768314 -1.0750434 41
2.0637853 -3.7774029 -1.4807842 25
1.819957 -3.3311172 -1.7693954 6
1.9568855 -3.6419411 1.0913479 25
2.0392022 -3.7951398 0.83253318 37
2.0437703 -3.8036416 0.60408181 32
2.0408502 -3.798207 0.37435049 30
2.0439312 -3.803941 0.22215551 29
2.0511463 -3.817369 0.1462568 32
8.8422785 -19.785685 0.60269344 13
2.4134471 -3.8015184 0.098725788 40
2.0406923 -3.7979133 0.069084436 28
8.877883 -19.865353 0.22027074 25
2.4075742 -3.7922676 0.01897279 44
2.042845 -3.8019192 -0.0071561956 30
18.988333 -42.488724 -0.35090002 28
2.4030907 -3.7852054 -0.060258821 34
2.0386798 -3.794168 -0.083303981 50
8.7564087 -19.59354 -0.5417403 13
2.40643 -3.7904651 -0.13976498 40
2.0414453 -3.7993147 -0.15988562 49
8.6842737 -19.432129 -0.91440833 13
2.4047315 -3.7877898 -0.21904163 40
2.0397904 -3.7962344 -0.23603675 45
8.7415104 -19.560204 -1.2991282 3
2.4087005 -3.7940416 -0.29904667 47
2.0412807 -3.7990084 -0.31254226 50
8.8951426 -19.903973 -1.7081336 0
2.4097807 -3.7957432 -0.37873149 41
2.0402515 -3.7970927 -0.38864675 48
7.4632835 -16.700014 -1.7567922 1
2.410111 -3.7962632 -0.45842263 46
2.0385973 -3.7940142 -0.46454579 53
2.0381975 -3.7932703 -0.54078978 42
2.0334401 -3.7844162 -0.61556059 49
2.0355165 -3.7882805 -0.69306505 40
2.03144 -3.7806938 -0.76759547 53
2.0285957 -3.7754004 -0.84295565 45
2.0400324 -3.7966852 -0.92407387 42
2.0341964 -3.7858238 -0.9976604 32
2.0333819 -3.7843077 -1.0731046 46
2.0445249 -3.8050461 -1.4859891 33
1.800089 -3.3501287 -1.7727753 6
1.9548999 -3.6999683 1.1046197 23
2.0071533 -3.7988663 0.8302564 40
2.0097635 -3.8038068 0.60186499 33
2.0086989 -3.8017919 0.37331253 33
2.0023956 -3.7898617 0.22051144 36
2.0132406 -3.8103876 0.14544727 32
14.128634 -32.216476 0.97832048 28
2.3741312 -3.7979281 0.098199718 40
2.002918 -3.7908504 0.068699919 28
18.792021 -42.850048 0.47366306 18
2.37256 -3.7954149 0.018905211 43
2.0125153 -3.8090148 -0.0071429312 34
25.798252 -58.82584 -0.48432347 29
2.3660069 -3.7849317 -0.059990048 34
2.006537 -3.7976997 -0.08307194 44
9.9973564 -22.796228 -0.62834609 28
2.3671939 -3.7868307 -0.13901824 39
2.0167389 -3.8170085 -0.16003379 52
8.6864338 -19.80703 -0.92917347 2
2.3676412 -3.7875459 -0.21806638 43
2.0057747 -3.796257 -0.23516172 48
8.7185946 -19.880365 -1.3163176 0
2.371577 -3.7938423 -0.29771876 48
2.014709 -3.8131669 -0.31254226 54
9.0955095 -20.739817 -1.7743719 3
2.3705466 -3.7921939 -0.37671697 38
2.0043876 -3.7936318 -0.3868508 52
7.344914 -16.748062 -1.7564098 1
2.3687847 -3.7893753 -0.45558286 44
2.0120604 -3.8081539 -0.46454579 59
2.0098116 -3.8038979 -0.54029137 45
2.0106697 -3.8055217 -0.61669528 42
2.007175 -3.7989073 -0.69242859 49
2.0123541 -3.8087101 -0.77041233 50
2.0150235 -3.8137622 -0.84835923 38
2.0244396 -3.8315835 -0.9291051 23
2.009537 -3.8033779 -0.9985649 39
2.0123518 -3.8087053 -1.0760128 38
2.028513 -3.839293 -1.4937963 19
1.7749633 -3.3594086 -1.7710854 7
1.9410228 -3.7334409 1.1107452 25
1.9746684 -3.798156 0.82722074 37
1.9790103 -3.8065076 0.60020238 37
1.9834411 -3.8150301 0.37331253 32
1.9790598 -3.8066027 0.22071694 31
1.9916136 -3.8307493 0.14571711 34
13.938379 -32.364559 0.97998846 24
2.3363068 -3.7931607 0.097673647 38
1.9851124 -3.8182445 0.068956263 26
20.366383 -47.290218 0.52123994 3
2.3410428 -3.8008499 0.018854527 43
1.9982804 -3.8435724 -0.0071827243 31
24.99618 -58.040489 -0.47648212 20
2.3345597 -3.7903242 -0.059828784 34
1.9849961 -3.8180208 -0.083226636 47
2.3315434 -3.7854271 -0.13839595 42
1.9950677 -3.8373928 -0.16033016 54
9.7625504 -22.668392 -1.0603428 38
2.3340883 -3.7895589 -0.21728618 39
1.987923 -3.8236506 -0.23603675 35
9.7741709 -22.695374 -1.4983795 3
2.3317118 -3.7857003 -0.29585966 49
2.0004175 -3.847683 -0.31427699 25
9.0650177 -21.048738 -1.7956181 1
2.3328018 -3.7874701 -0.37470242 40
1.9865346 -3.8209801 -0.38828757 51
7.2572994 -16.851263 -1.7621459 1
2.335253 -3.7914498 -0.45396012 45
1.9922637 -3.8319995 -0.46583262 35
2.0010166 -3.8488355 -0.54477715 29
2.0073049 -3.8609307 -0.62350333 23
1.998331 -3.8436697 -0.69815642 25
2.0015807 -3.8499205 -0.77604604 29
2.0186534 -3.8827589 -0.86071026 23
2.0188293 -3.8830969 -0.9383291 27
2.0004447 -3.8477354 -1.0067054 24
2.0103197 -3.8667293 -1.0886148 33
2.0344121 -3.9130695 -1.5172182 18
1.7626786 -3.3904066 -1.7812251 8
1.9223974 -3.7647913 1.1158497 27
1.9521316 -3.8230224 0.82949752 33
1.9564587 -3.8314962 0.60186499 30
1.9717327 -3.8614087 0.37642637 21
1.9529195 -3.8245652 0.22092246 31
1.9652975 -3.8488061 0.14585203 23
13.720971 -32.513752 0.98143399 27
2.2960052 -3.7896628 0.097147577 38
1.9734396 -3.8647513 0.069533035 17
19.686384 -46.649628 0.51257485 3
2.3006821 -3.7973821 0.018753158 45
1.9846045 -3.8866167 -0.0072357827 19
24.287012 -57.551456 -0.47099319 37
2.2984223 -3.7936521 -0.059613768 34
1.9696863 -3.8574011 -0.08376807 27
2.2871583 -3.7750604 -0.1374003 40
1.9796094 -3.8768344 -0.16136742 30
9.5541687 -22.639935 -1.0557072 41
2.300036 -3.7963157 -0.21670103 42
1.9870862 -3.8914766 -0.23931807 24
9.5547628 -22.641342 -1.4901479 15
2.2894213 -3.7787957 -0.2940006 47
1.9975592 -3.9119868 -0.31832471 24
8.9569931 -21.224842 -1.8049914 1
2.2925832 -3.7840142 -0.37268791 44
1.985648 -3.8886602 -0.39367545 27
7.170733 -16.99205 -1.7713238 1
2.2970872 -3.7914486 -0.45193172 46
1.991249 -3.8996291 -0.47226676 32
2.0070426 -3.9305592 -0.5542472 27
2.0095608 -3.9354906 -0.63314807 27
1.9952443 -3.9074535 -0.70706636 27
1.9983752 -3.9135849 -0.78590506 26
2.0151255 -3.9463885 -0.87151736 25
2.0241048 -3.9639735 -0.95426136 24
1.9969932 -3.9108784 -1.0193684 24
2.0154531 -3.9470303 -1.107033 31
2.0280349 -3.9716699 -1.5341341 18
1.7394271 -3.4064653 -1.7829151 7
1.8960673 -3.7781203 1.1158497 28
1.9394869 -3.8646386 0.83556885 20
1.9563147 -3.8981698 0.61017805 19
1.9751133 -3.9356279 0.38230801 18
1.9530481 -3.8916607 0.22400509 20
1.9688631 -3.9231739 0.14814574 23
13.522703 -32.678944 0.98354679 29
2.2653959 -3.7987304 0.09697222 40
1.9787009 -3.9427767 0.070686579 17
19.042131 -46.017185 0.50415272 4
2.2638714 -3.796174 0.018668685 43
1.9843347 -3.9540029 -0.0073352661 19
23.948883 -57.874836 -0.47225988 31
2.2616386 -3.7924299 -0.059344992 34
1.9606466 -3.9068017 -0.084541552 27
9.757803 -23.580692 -0.64419353 0
2.2566521 -3.7840683 -0.13715139 44
1.9758037 -3.9370039 -0.16329375 28
2.265291 -3.7985547 -0.21592084 40
1.9903251 -3.9659393 -0.24303691 24
9.368989 -22.641087 -1.4857901 21
2.2548077 -3.7809756 -0.29293826 49
2.0041995 -3.9935853 -0.32381806 21
8.8208008 -21.316334 -1.8074909 1
2.2579436 -3.7862339 -0.37134489 47
1.988829 -3.9629581 -0.39978173 26
7.0717268 -17.089525 -1.7762951 1
2.2603707 -3.7903039 -0.44990328 52
1.990733 -3.9667518 -0.47870094 32
2.0044756 -3.9941356 -0.56122518 26
2.0033488 -3.9918904 -0.63995612 23
1.994486 -3.9742301 -0.7166127 22
2.0027947 -3.9907863 -0.79858094 29
2.010411 -4.0059624 -0.88155252 24
2.0226963 -4.0304422 -0.96683955 23
1.9993521 -3.9839265 -1.0347449 23
2.0139587 -4.0130315 -1.1215737 30
2.0290997 -4.0432019 -1.5562547 19
1.7188555 -3.4250064 -1.7862951 6
1.8713554 -3.794734 1.1168706 26
1.9402517 -3.9344418 0.8477115 17
1.9570864 -3.9685791 0.61904532 20
1.9687396 -3.9922097 0.38645977 19
1.9558676 -3.9661076 0.22749875 18
1.9714847 -3.997776 0.15043943 21
13.321286 -32.839249 0.98554832 32
2.2287004 -3.7972081 0.096533827 40
1.9829677 -4.0210614 0.071840122 15
18.415192 -45.396595 0.49593309 3
2.2332656 -3.8049862 0.018634895 45
1.9956037 -4.0466843 -0.0074811755 18
23.738216 -58.518761 -0.47615039 28
2.2290347 -3.7977777 -0.059183732 33
1.9545503 -3.9634366 -0.08546973 24
9.8454666 -24.270758 -0.66115129 6
2.2261329 -3.7928338 -0.13690247 42
1.978325 -4.0116467 -0.16581279 28
9.2837067 -22.885923 -1.0610296 6
2.2265844 -3.7936029 -0.21475053 40
1.9873203 -4.0298877 -0.24609949 24
9.1806803 -22.631945 -1.4809481 7
2.2202764 -3.7828555 -0.29187593 48
1.9974445 -4.0504174 -0.32728752 23
8.6777658 -21.392176 -1.8087407 1
2.2233865 -3.7881544 -0.37000188 44
1.98402 -4.0231953 -0.40445125 28
6.964221 -17.167995 -1.7793543 1
2.2257984 -3.792264 -0.44828054 49
1.9928936 -4.0411887 -0.48599297 31
2.0081391 -4.072104 -0.57019675 26
2.0034518 -4.0625992 -0.64903349 25
1.9963846 -4.0482678 -0.72743189 24
2.0097156 -4.0753007 -0.81266528 30
2.0119054 -4.079741 -0.89467549 23
2.0273762 -4.1111131 -0.98277181 23
2.0042336 -4.0641842 -1.0519303 21
2.0202217 -4.0966048 -1.1409613 28
2.0326092 -4.1217241 -1.5809779 17
1.6916956 -3.4304197 -1.7829151 6
1.8481901 -3.8146667 1.1189125 28
1.9401349 -4.0044408 0.85985422 20
1.9535142 -4.0320559 0.62680417 17
1.9651461 -4.0560641 0.39130351 18
1.9542577 -4.0335903 0.23058139 18
1.9714162 -4.069006 0.1525982 22
13.124197 -33.013191 0.98799467 28
2.1921358 -3.7953606 0.096095443 37
1.9757732 -4.0779986 0.072609149 15
17.797859 -44.769527 0.48771343 7
2.1966443 -3.8031662 0.018550422 45
1.9952087 -4.1181135 -0.0075872918 18
23.398548 -58.857754 -0.47756785 31
2.1904643 -3.7924664 -0.058861203 31
1.963451 -4.0525656 -0.087094039 24
11.296293 -28.415201 -0.77188152 15
2.1896014 -3.7909725 -0.13628019 42
1.9816418 -4.0901113 -0.16848002 28
9.0174103 -22.682796 -1.048668 38
2.1880562 -3.7882972 -0.21358022 41
1.9904841 -4.1083622 -0.25003707 23
9.0062294 -22.654673 -1.4782848 2
2.1898205 -3.791352 -0.29134476 48
1.9969507 -4.1217089 -0.3319135 22
8.5385199 -21.478176 -1.8109279 1
2.186918 -3.7863269 -0.36832309 41
1.9888878 -4.1050673 -0.41127592 26
6.8618469 -17.260597 -1.7839433 1
2.1853371 -3.7835896 -0.44544077 46
1.9975784 -4.1230044 -0.49414289 31
2.0056186 -4.1395998 -0.57767314 24
2.0095694 -4.1477537 -0.66038024 21
2.0059545 -4.1402926 -0.7414332 21
2.0069678 -4.1423841 -0.82322848 25
2.0073323 -4.1431365 -0.90548259 19
2.0207949 -4.1709232 -0.99367291 22
2.0012949 -4.1306753 -1.0654978 22
2.0152619 -4.1595035 -1.1545327 25
2.031821 -4.1936812 -1.6030985 17
1.6598017 -3.425833 -1.7744653 7
1.8215146 -3.8274763 1.1189125 27
1.9441983 -4.0852666 0.87427366 20
1.9610671 -4.1207123 0.63844246 19
1.9658943 -4.1308556 0.39718518 18
1.9535174 -4.1048484 0.23386954 18
1.9704487 -4.1404257 0.15475696 21
11.382763 -29.225424 0.8722375 9
2.16361 -3.8070953 0.096007764 38
1.9713178 -4.142252 0.073506348 14
14.571454 -37.412437 0.4064481 3
2.1581814 -3.7975433 0.018449053 46
1.9921947 -4.1861196 -0.0076867752 18
14.535496 -37.320114 -0.30198213 18
2.1540534 -3.7902796 -0.058592431 33
1.9574535 -4.1131191 -0.088099569 23
11.09474 -28.48592 -0.77167964 12
2.1591313 -3.7992144 -0.13603127 43
1.9805237 -4.1615958 -0.1708509 28
8.8559341 -22.737751 -1.0483247 46
2.1536593 -3.7895861 -0.21280003 43
1.9909325 -4.1834674 -0.2537559 24
8.8290138 -22.668631 -1.4751376 49
2.1534383 -3.7891972 -0.29001683 47
2.0007017 -4.2039948 -0.33740684 21
8.4100752 -21.593 -1.8156145 1
2.1545231 -3.791106 -0.36731583 43
1.9858609 -4.1728106 -0.4166638 25
6.7773042 -17.400835 -1.7935035 1
2.1510046 -3.7849147 -0.44381803 50
1.9909636 -4.1835327 -0.49971917 32
2.0022533 -4.2072554 -0.58514947 25
2.0060875 -4.215312 -0.6688903 24
1.9888809 -4.1791563 -0.74588817 24
2.0118415 -4.2274027 -0.83731282 28
2.0154645 -4.2350159 -0.92246521 21
2.0302842 -4.2661557 -1.0129594 19
2.0025482 -4.2078753 -1.0817786 20
2.0228634 -4.2505627 -1.1758591 27
2.0382538 -4.2829018 -1.6317253 18
1.640519 -3.4471574 -1.7795352 6
1.7881992 -3.8260846 1.1148288 26
1.9455619 -4.1627827 0.88793421 20
1.9557335 -4.184546 0.64620131 15
1.9707534 -4.2166829 0.40410477 18
1.9535663 -4.1799092 0.23736319 19
1.968578 -4.2120285 0.15691574 24
11.142834 -29.210777 0.8694576 8
2.1291723 -3.808145 0.095657051 40
1.9745263 -4.2247558 0.074723981 15
14.145979 -37.083481 0.40179163 34
2.1238089 -3.7985525 0.018381475 49
