# .PCD v0.7 - Point Cloud Data file format
VERSION 0.7
FIELDS x y z intensity
SIZE 4 4 4 4
TYPE F F F F
COUNT 1 1 1 1
WIDTH 1388
HEIGHT 1
VIEWPOINT 0 0 0 1 0 0 0
POINTS 1388
DATA ascii
6.1823778 -3.3609495 -1.6335219 4
5.7757077 -3.1398697 -1.6421313 6
4.3167405 -2.3467259 -1.6902801 7
3.2425504 -1.7627598 -1.7203863 9
5.5850883 -3.086951 1.684494 21
3.9356596 -2.1752901 0.86896122 3
7.5131645 -4.1526237 1.200959 20
13.797441 -7.6260247 1.3686973 26
13.799588 -7.6272116 0.81114507 42
13.830967 -7.6445551 0.5333516 30
13.823716 -9.0115652 0.45891437 32
8.7618809 -4.0429921 0.21156779 47
10.86523 -6.0053535 0.19892216 1
13.851808 -9.0298777 0.16738956 36
8.7856998 -4.0539832 0.040868368 48
10.313477 -5.7003927 -0.019538602 0
13.868877 -9.0410051 -0.12482812 33
8.7958803 -4.0586805 -0.13019346 38
11.344119 -6.2700419 -0.25068542 1
13.905054 -9.0645885 -0.41899833 33
8.7924156 -4.0570817 -0.30143434 47
9.4283018 -5.2111449 -0.39934361 0
9.1327639 -5.9535723 -0.46836385 0
8.7753277 -4.0491967 -0.471827 48
8.906805 -4.9229069 -0.55738801 1
8.7832651 -5.7257371 -0.63576418 2
8.7808876 -4.0517626 -0.64350808 55
8.8758717 -4.9058094 -0.73495132 6
8.8059196 -5.7405052 -0.82360351 1
8.8090601 -4.0647626 -0.81722736 46
8.7585955 -4.8409896 -0.90229267 48
8.7524223 -5.7056308 -1.0034442 1
8.8271942 -4.0731297 -0.99108541 50
8.8060656 -4.8672271 -1.085227 2
8.8089514 -4.8688216 -1.2640027 2
9.5785131 -5.2941685 -1.5681194 1
8.5991497 -4.752862 -1.5834213 3
7.8262382 -4.3256636 -1.5992745 4
7.1929655 -3.9756455 -1.616437 4
6.6612654 -3.6817679 -1.6318038 4
6.1826348 -3.4172225 -1.6398535 4
5.7502499 -3.1782377 -1.6411619 6
4.310183 -2.3822942 -1.6941837 7
3.2269917 -1.7836002 -1.7186964 10
5.5724235 -3.1334956 1.6875567 21
3.9333012 -2.2117813 0.87199688 5
7.4514461 -4.1901112 1.1959711 18
13.657805 -7.6800828 1.3603938 24
13.792055 -7.7555742 0.81402218 43
13.830312 -7.7770872 0.53551036 32
13.813956 -9.1501932 0.46080473 33
8.7718153 -4.1258345 0.21253225 41
13.860814 -7.794239 0.25480491 29
13.85527 -9.1775589 0.16823988 34
8.7919426 -4.1353011 0.041037317 53
10.351605 -5.8209343 -0.019691145 0
13.872259 -9.1888123 -0.12546146 37
8.7876081 -4.1332626 -0.13051598 37
10.077783 -5.6669574 -0.22361356 0
13.908241 -9.2126455 -0.42111805 33
8.7950001 -4.1367393 -0.30255446 45
9.4107552 -5.2918735 -0.40023267 0
9.1954908 -6.0909786 -0.47385788 1
8.7887936 -4.1338201 -0.47416762 48
8.8948488 -5.0017681 -0.55891925 1
8.8209457 -5.8428845 -0.64157468 2
8.7979021 -4.1381044 -0.64696062 50
8.8222847 -4.9609637 -0.73350573 2
8.7303572 -5.7828798 -0.82047904 1
8.8114891 -4.144495 -0.82024914 47
8.7332916 -4.9109211 -0.90337026 21
8.8298635 -5.8487921 -1.017211 2
8.8187056 -4.1478891 -0.99351954 51
8.8117476 -4.9550385 -1.0903744 2
8.7626457 -4.9274278 -1.2625073 2
9.5670576 -5.379766 -1.5726581 1
8.5571947 -4.8118978 -1.5821484 3
7.804616 -4.3887062 -1.6013871 4
7.1738925 -4.0340366 -1.6187528 5
6.6409159 -3.7343323 -1.6334808 5
6.1710048 -3.4700909 -1.6434715 4
5.743711 -3.2298145 -1.6460088 7
4.2893071 -2.4119713 -1.6928825 7
3.2264712 -1.8143154 -1.7254562 10
5.540338 -3.1665647 1.684494 20
3.9245837 -2.2430849 0.87351471 5
7.4598436 -4.2636528 1.2020674 4
13.455085 -7.6902156 1.3455167 24
13.789598 -7.8814058 0.81710482 55
13.831213 -7.9051909 0.53766912 33
13.819417 -9.2932663 0.46313989 33
8.7644396 -4.1973343 0.21305832 45
13.84773 -7.9146309 0.25557396 29
13.847285 -9.312007 0.16892822 30
8.7845049 -4.206944 0.041138686 48
10.446153 -5.9704695 -0.019949801 0
13.877474 -9.3323078 -0.1260948 36
8.7946129 -4.2117844 -0.13105352 39
10.024085 -5.7292376 -0.22330417 0
13.896677 -9.3452225 -0.4227331 33
8.8055716 -4.2170324 -0.30392349 44
9.4048147 -5.3752956 -0.4015663 0
9.2920237 -6.2486897 -0.48106876 0
8.7849436 -4.2071538 -0.47553295 47
8.8701153 -5.0696893 -0.55957556 1
8.8196974 -5.9310603 -0.64447993 1
8.7903967 -4.2097654 -0.64855415 52
8.7874355 -5.0224342 -0.73350573 2
8.7228632 -5.8659415 -0.82360351 1
8.8111 -4.2196803 -0.82293516 43
8.7195463 -4.9836321 -0.90552539 8
8.7194309 -5.8636332 -1.0091803 1
8.8290129 -4.2282586 -0.99798203 31
8.7009792 -4.9730201 -1.0809376 3
8.7487059 -5.0002985 -1.2654979 1
9.5292664 -5.4464254 -1.5726581 2
8.5405359 -4.881319 -1.5853306 3
7.7840419 -4.4489474 -1.6034999 4
7.1557765 -4.0898643 -1.6210686 4
6.6180787 -3.7825444 -1.6343194 5
6.1466279 -3.513088 -1.6434715 4
5.7344995 -3.2775371 -1.6498864 6
4.2756481 -2.4437346 -1.6941837 6
3.2105784 -1.8349972 -1.7237662 9
3.9292049 -2.2822635 0.87806827 5
8.7898188 -5.1055317 1.4220862 21
13.294249 -7.7219124 1.3347913 21
13.796418 -8.0135956 0.820804 78
13.827543 -8.0316744 0.539693 33
13.813643 -9.4300957 0.46514145 30
8.7672739 -4.2741914 0.21384743 45
13.837098 -8.0372248 0.25640705 26
13.848007 -9.4535561 0.16973804 35
8.7800894 -4.2804389 0.041256949 51
10.48723 -6.0914669 -0.020108975 0
13.881357 -9.4763231 -0.12672815 36
8.7937546 -4.2871013 -0.13148357 38
10.025343 -5.8231812 -0.22423235 0
13.893845 -9.4848471 -0.42465094 33
8.7974787 -4.2889166 -0.30467021 27
9.4534721 -5.4910121 -0.40527079 1
13.855758 -9.458847 -0.72074467 41
8.7769051 -4.2788868 -0.47670326 39
8.8414145 -5.1355009 -0.56001306 1
8.8407297 -6.0352607 -0.64907986 1
8.7715549 -4.2762785 -0.64935088 18
8.7797575 -5.0996881 -0.73581874 1
8.7376881 -5.9649177 -0.82891506 0
8.8136721 -4.2968111 -0.825957 1
8.6879873 -5.0463834 -0.90588456 5
8.7900915 -6.0006914 -1.0221823 1
8.8278942 -4.3037448 -1.0012275 12
8.6694889 -5.0356388 -1.0813665 3
8.8954763 -5.1669025 -1.2919143 1
9.4841652 -5.5088401 -1.5715234 1
8.5096645 -4.9428058 -1.5859669 3
7.7527943 -4.50318 -1.6034999 4
7.1100817 -4.1298633 -1.617209 4
6.611804 -3.8404405 -1.6393507 4
6.1185837 -3.5539556 -1.6425669 4
5.7148347 -3.3194394 -1.6508557 6
4.2552133 -2.4716239 -1.6928825 7
3.2008252 -1.8591868 -1.7254562 9
3.0175767 -1.7810372 0.92494041 10
3.9469981 -2.3296013 0.88565743 5
8.8187799 -5.205029 1.4326161 25
13.188538 -7.784152 1.3296015 32
13.80206 -8.146266 0.82450312 70
13.833105 -8.1645889 0.54212159 29
13.826348 -9.5809622 0.46781021 36
8.7551327 -4.3441815 0.21428582 21
13.846093 -8.1722546 0.25762469 26
13.847422 -9.5955648 0.17054786 41
10.427225 -6.1543674 -0.020075815 0
13.880615 -9.6185665 -0.12733132 32
10.018887 -5.9133573 -0.22500584 0
13.909457 -9.6385517 -0.42717442 34
9.9026337 -4.9135566 -0.34412304 1
9.4458885 -5.5751619 -0.40660438 0
13.851794 -9.5985947 -0.72400677 50
8.7611341 -4.3471599 -0.47748345 18
8.8328629 -5.2133417 -0.56176311 1
9.0543566 -6.2742124 -0.66796398 32
8.7736654 -4.3533773 -0.65174115 1
8.7748632 -5.1791086 -0.73842084 2
8.7974415 -6.0961833 -0.83860081 0
9.2297745 -4.5796924 -0.86792636 0
8.6662693 -5.1150141 -0.90732133 3
8.8559837 -6.1367502 -1.0348018 1
9.207571 -4.5686755 -1.0478811 2
8.6443977 -5.1021051 -1.0826534 1
8.7908306 -5.1885328 -1.2819459 1
9.448885 -5.5769305 -1.5720907 2
8.4919558 -5.0121303 -1.5891491 2
7.7347307 -4.5652008 -1.6063167 4
7.1047368 -4.1933646 -1.6226125 4
6.5915675 -3.8904817 -1.6410277 4
6.1003346 -3.6005456 -1.6443759 4
5.7015481 -3.3651733 -1.6537639 6
4.244369 -2.5051157 -1.6954849 7
3.1846454 -1.8796446 -1.7237662 9
3.0023804 -1.7990234 0.9239195 13
3.9213541 -2.3496716 0.88338065 6
8.8112497 -5.2796922 1.4370497 22
13.071673 -7.8325338 1.323028 16
13.802554 -8.2704773 0.82779127 41
13.840377 -8.2931404 0.54455024 29
13.821387 -9.7138319 0.46981177 31
13.817561 -6.9706717 0.33931509 28
13.853341 -8.3009081 0.25877824 26
13.842383 -9.7285881 0.17127669 36
10.345927 -5.2193046 0.048944052 0
13.879118 -8.3163538 -0.026827443 32
13.88197 -9.7564106 -0.1279345 36
10.123686 -5.1071882 -0.15239407 0
10.089225 -6.0454535 -0.22748098 0
13.913931 -9.7788725 -0.42929414 32
9.9090939 -4.9989314 -0.34549206 0
9.4224205 -5.645905 -0.40719712 0
13.872842 -9.7499943 -0.72847062 52
8.8152227 -5.282073 -0.56285685 1
13.892845 -9.7640533 -1.0296668 32
9.1401386 -4.6110096 -0.68122089 0
8.757432 -5.2474446 -0.73986644 3
8.8579597 -6.2254772 -0.84828657 0
9.0604095 -4.5707879 -0.85483187 1
8.6629105 -5.1908073 -0.91055411 2
8.9095602 -6.2617431 -1.0458918 2
9.0562716 -4.5687003 -1.0340879 1
8.6069574 -5.1572804 -1.0822244 1
8.8583584 -5.3079195 -1.2968986 0
9.4320688 -5.6516862 -1.5754948 2
8.468689 -5.0744305 -1.5910584 2
7.714416 -4.6224709 -1.6084293 4
7.0902357 -4.2484622 -1.6257002 4
6.5522003 -3.9260719 -1.6376735 4
6.0763206 -3.6409254 -1.6443759 5
5.6724458 -3.3989241 -1.6518251 6
4.2276611 -2.5332105 -1.6954849 7
3.1721089 -1.9007245 -1.7237662 10
3.0095692 -1.8320061 0.93004489 4
3.9182734 -2.3851588 0.88641638 4
8.8249321 -5.3719749 1.4453628 25
12.948594 -7.8821588 1.3161083 13
13.809311 -8.4061003 0.83169597 37
13.843608 -8.4269781 0.54697883 30
13.83136 -9.8658133 0.47248054 36
13.807695 -7.0870538 0.34027955 36
13.853129 -8.4327736 0.2598677 26
13.855536 -9.8830576 0.17228897 33
10.359057 -5.316977 0.049180578 0
13.889055 -8.4546432 -0.026960088 27
13.878647 -9.8995428 -0.12853768 35
10.112692 -5.1905251 -0.15277036 0
10.180001 -6.1968417 -0.23049755 0
13.916943 -9.9268589 -0.4315148 33
9.859725 -5.0606852 -0.34499422 1
9.399847 -5.7219405 -0.407938 0
13.872758 -9.8953419 -0.73207605 38
9.166769 -4.7050133 -0.50303507 0
8.7951908 -5.3538704 -0.56395066 1
13.905604 -9.9187708 -1.0357194 41
9.0686665 -4.6546602 -0.67829949 1
8.7921486 -5.3520179 -0.745938 3
13.9178 -9.9274702 -1.3394492 27
8.9963636 -4.6175494 -0.8518101 0
8.6536837 -5.2677312 -0.91342765 2
12.710102 -9.0660276 -1.4994302 5
8.9533501 -4.5954714 -1.0259743 1
8.6013165 -5.2358537 -1.086085 1
8.8380365 -5.3799515 -1.2993907 0
9.3889999 -5.7153382 -1.5749274 2
8.4296837 -5.1313758 -1.5904219 2
7.6819572 -4.6762147 -1.6084293 4
7.0570507 -4.2958174 -1.6249282 4
6.5279717 -3.9737527 -1.6385121 5
6.0574107 -3.6873095 -1.6461849 5
5.6585236 -3.4444962 -1.6547332 6
4.2131038 -2.56463 -1.6967862 7
3.161859 -1.924709 -1.7254562 9
2.9993482 -1.8560525 0.9310658 6
3.9240623 -2.4282827 0.89172876 5
8.8257408 -5.4615331 1.4520133 27
12.741368 -7.8845959 1.3008852 10
13.801675 -8.5407333 0.83498412 32
13.842657 -8.5660944 0.54940748 30
13.836382 -10.023233 0.47514927 36
11.501207 -6.0101299 0.28451616 2
13.835157 -8.5614529 0.26070082 27
13.841022 -10.026594 0.1730178 38
10.390705 -5.4298201 0.049518473 0
13.894737 -8.5983219 -0.027092732 28
13.87697 -10.052636 -0.12920119 35
10.09564 -5.2756295 -0.15309288 0
10.1173 -6.2607737 -0.23011081 1
13.915043 -10.080216 -0.43373546 30
9.8400812 -5.1420832 -0.34561652 1
9.3984404 -5.8159299 -0.40971616 0
13.874284 -10.05069 -0.73602486 36
9.1178703 -4.7646809 -0.50225484 0
8.810051 -5.4518232 -0.5674507 1
13.90689 -10.07431 -1.0412878 39
9.0307646 -4.7191625 -0.67803389 2
8.7696438 -5.4268188 -0.74738365 2
13.925388 -10.08771 -1.3472604 32
8.9092846 -4.6556811 -0.8467738 1
8.6351643 -5.3436003 -0.91558278 1
12.711018 -9.2080069 -1.5074607 4
8.8806267 -4.6407061 -1.0215117 4
8.6100502 -5.3280597 -1.0920901 9
8.8759861 -5.4926252 -1.3108544 1
9.3502207 -5.7860909 -1.5754948 2
8.4052753 -5.2013407 -1.5929676 2
7.6508212 -4.7344704 -1.6091336 4
7.0353842 -4.3536267 -1.6272441 4
6.5152974 -4.0317874 -1.6427048 3
6.0500994 -3.7439141 -1.6516119 4
5.6496224 -3.4960916 -1.6595801 6
4.2070575 -2.6034055 -1.701991 7
3.1445827 -1.9459263 -1.7237662 9
3.0059643 -1.889295 0.93719125 11
3.9402649 -2.4765174 0.89931798 5
8.8075209 -5.5356631 1.4553384 26
12.618533 -7.9309435 1.2939656 6
13.789062 -8.6666384 0.83786124 33
13.833287 -8.6944351 0.5514313 31
13.830503 -10.16695 0.47737324 34
11.317719 -6.015204 0.28100902 3
13.839386 -8.6982679 0.26191843 28
13.854477 -10.184574 0.17407057 39
10.380802 -5.5172467 0.049653634 0
13.885169 -8.7270441 -0.027192216 26
13.887021 -10.208498 -0.12995516 34
10.108009 -5.372261 -0.15384544 0
10.2054 -6.4142513 -0.23312739 2
13.911989 -10.226852 -0.43585518 36
9.8286562 -5.2237892 -0.3464877 0
9.4252949 -5.9239435 -0.41267973 0
13.871398 -10.197013 -0.73963034 38
9.0667448 -4.8188443 -0.50127959 0
8.7988272 -5.5301991 -0.56920075 1
13.897343 -10.216085 -1.0458878 40
9.0434151 -4.8064451 -0.68148649 132
8.7011433 -5.4688034 -0.74478155 6
13.94459 -10.250817 -1.3560088 30
8.8660059 -4.7121544 -0.84576654 2
8.648242 -5.435554 -0.92097068 1
12.678506 -9.3201056 -1.5112848 4
8.8409853 -4.6988564 -1.0207003 5
8.5962133 -5.402853 -1.0950928 13
8.8811064 -5.581913 -1.3173339 0
9.333065 -5.8659759 -1.5794661 2
8.3821325 -5.2682996 -1.5955133 3
7.650919 -4.8087211 -1.6161758 3
7.028079 -4.4172564 -1.6326476 4
6.4803686 -4.0730119 -1.6410277 3
6.020515 -3.7839868 -1.6507074 5
5.6250772 -3.5354483 -1.6595801 5
4.1759696 -2.6246614 -1.6967862 7
3.1339905 -1.9697615 -1.7254562 10
3.0155215 -1.9248006 0.94433761 4
3.9328113 -2.5103045 0.9015947 4
8.8087311 -5.6225934 1.4619888 23
12.552781 -8.0124121 1.2929276 3
13.795568 -8.8056793 0.84197146 36
13.839647 -8.8338156 0.55412978 32
13.839315 -10.323023 0.4801532 36
11.16287 -6.0332251 0.27820331 0
13.855865 -8.8441668 0.26339242 24
13.85678 -10.33605 0.17500186 41
10.359627 -5.5990939 0.049738105 0
13.881225 -8.8603544 -0.027304964 28
13.885952 -10.35781 -0.13061866 36
10.101924 -5.4598126 -0.15432924 0
13.828082 -8.8264341 -0.3172822 41
13.920388 -10.383497 -0.43837866 32
9.830637 -5.3131895 -0.34785673 0
9.4510956 -6.0326133 -0.41564333 1
13.870347 -10.34617 -0.74340743 44
9.0328817 -4.8820248 -0.50127959 0
8.803772 -5.6194282 -0.57204455 0
13.908895 -10.374924 -1.0521824 43
8.9359055 -4.8296113 -0.67590922 10
8.8577986 -5.653913 -0.76155066 4
13.939815 -10.397987 -1.3625702 33
8.8153601 -4.7644601 -0.84408772 1
8.6369495 -5.5129452 -0.92384422 1
12.696113 -9.4702854 -1.5212275 4
8.8849831 -4.8020892 -1.0296254 52
8.5918074 -5.4841313 -1.0993822 21
8.9088306 -5.6864862 -1.3273025 0
9.3152485 -5.9459023 -1.5834374 2
8.3584633 -5.3351884 -1.5980591 3
7.6072054 -4.8556619 -1.614063 4
6.9904532 -4.4619908 -1.6311038 4
6.4451828 -4.113946 -1.6393507 3
5.9808145 -3.8175404 -1.6470894 5
5.606801 -3.5788085 -1.6615189 7
4.1607327 -2.6557865 -1.6980873 7
3.1171067 -1.9896421 -1.7237662 9
3.287607 -2.1309206 1.0341773 6
3.9118938 -2.5355632 0.90083581 6
8.8257742 -5.7205815 1.4714103 27
12.376153 -8.0218229 1.2804724 0
13.814206 -8.9539223 0.84690368 37
13.827957 -8.9628344 0.55615366 32
13.82111 -10.460407 0.48204356 32
10.994309 -6.0416727 0.27504689 0
13.84748 -8.9754896 0.26441777 26
13.851259 -10.483226 0.17585216 33
10.716412 -5.8889604 0.051647212 0
13.882804 -8.9983854 -0.027430978 30
13.893038 -10.514846 -0.13137263 36
11.195758 -6.1523743 -0.17169195 0
13.833243 -8.9662609 -0.31882918 47
13.920894 -10.535929 -0.44070026 32
9.8073206 -5.3893905 -0.34835458 0
9.5697556 -6.202806 -0.42275596 1
13.883817 -10.507867 -0.748043 39
9.0020819 -4.9468894 -0.50147468 0
8.8112478 -5.7111659 -0.57510716 0
13.906166 -10.524782 -1.0575087 41
8.9614353 -4.9245529 -0.68042415 206
8.8381977 -5.7286339 -0.7632854 2
13.930478 -10.543182 -1.368819 26
8.7783918 -4.8239655 -0.84375197 1
8.6383677 -5.5991106 -0.92815453 0
12.674137 -9.59233 -1.5265813 3
8.9349422 -4.9099941 -1.0393618 5
8.6000328 -5.5742636 -1.1053873 25
8.9621649 -5.8089857 -1.3412583 1
9.2801561 -6.0150976 -1.5845722 3
8.3210125 -5.3934116 -1.5980591 3
7.5764246 -4.9107938 -1.6147673 5
6.9525452 -4.5064149 -1.6295599 4
6.4261503 -4.1652231 -1.6418662 4
5.9801741 -3.8761556 -1.6543254 5
5.578423 -3.6157534 -1.6605495 5
4.1452641 -2.6868265 -1.6993886 7
3.1092248 -2.0152991 -1.7271461 10
3.2500355 -2.138937 1.0270309 7
3.9367456 -2.5908797 0.91070175 1
8.8154039 -5.8016582 1.4763981 27
13.831119 -9.1026363 1.4375473 32
13.801414 -9.083087 0.84998631 31
13.835176 -9.1053076 0.55898702 30
13.8302 -10.619959 0.48493472 38
13.797183 -7.7078242 0.34650472 38
13.85464 -9.1181164 0.26576358 27
13.860217 -10.643008 0.17690493 35
10.524881 -5.879746 0.05092074 0
13.883131 -9.1368675 -0.027556989 27
13.889086 -10.665176 -0.13203613 35
10.136445 -5.6627455 -0.15604939 0
13.840465 -9.1087875 -0.32045346 50
13.919945 -10.688872 -0.44302186 32
9.8113403 -5.4811254 -0.34984803 0
13.876959 -9.1328049 -0.61583376 42
13.873511 -10.653216 -0.75147676 36
8.960351 -5.0057178 -0.50108457 0
8.8378878 -5.8164554 -0.57948226 1
13.902017 -10.675106 -1.062835 38
8.8641186 -4.9519577 -0.67564362 18
8.8346472 -5.8143225 -0.76646578 1
13.941931 -10.705754 -1.377255 26
8.765378 -4.8967962 -0.84576654 1
8.6390018 -5.6855626 -0.93246484 0
12.587914 -9.666029 -1.5242869 4
8.7927513 -4.9120884 -1.0267856 3
8.5974503 -5.6582165 -1.1101058 31
9.1799841 -6.0415978 -1.3801354 1
9.2643976 -6.0971527 -1.5891109 2
8.2963524 -5.4600558 -1.6006048 3
7.5485344 -4.9678965 -1.6161758 4
6.9340291 -4.5634737 -1.6326476 4
6.4099836 -4.218585 -1.6452204 3
5.9627318 -3.9242365 -1.6570389 5
5.5627694 -3.6610105 -1.6634576 6
4.1232462 -2.7136209 -1.6980873 7
3.0890226 -2.0329702 -1.7237662 9
3.1867883 -2.1293437 1.0117173 8
5.701508 -3.8096254 1.325071 22
8.8142128 -5.8894682 1.4830486 21
13.823564 -9.2366085 1.443429 28
13.787489 -9.2125044 0.85306895 34
13.834431 -9.2438698 0.56155056 28
13.831424 -10.775228 0.48760346 37
13.80563 -7.8395028 0.34808293 49
13.843855 -9.2501669 0.26678896 26
13.848683 -10.788673 0.17771475 35
10.563577 -5.9985085 0.051309317 0
13.878872 -9.2735643 -0.02767637 27
13.89002 -10.820877 -0.13275994 33
10.103621 -5.7373233 -0.1561569 0
13.833068 -9.242959 -0.3217684 44
13.930155 -10.852142 -0.4457472 30
9.8493223 -5.5929203 -0.35258609 0
13.862718 -9.2627707 -0.61805648 38
13.871309 -10.806299 -0.75542557 35
8.9529781 -5.0839334 -0.50264496 0
8.8369188 -5.9046392 -0.58210731 1
13.915344 -10.840605 -1.0696139 39
8.8085079 -5.0018959 -0.67405015 3
8.7838907 -5.8692074 -0.76559842 0
13.929768 -10.851841 -1.3835039 25
8.7517748 -4.9696798 -0.84778106 1
8.6454735 -5.77672 -0.93749356 0
12.557817 -9.7830372 -1.5288757 3
8.7755461 -4.9831786 -1.028814 2
8.6106472 -5.7534499 -1.1169689 45
9.2035818 -6.1496363 -1.3901038 1
9.2183151 -6.1594806 -1.5885435 2
8.2711668 -5.5266161 -1.6031504 3
7.5234914 -5.0270357 -1.6182884 5
6.9150558 -4.620492 -1.6357354 3
6.3803773 -4.2632313 -1.6452204 3
5.9351912 -3.9657676 -1.6570389 4
5.5273962 -3.6932874 -1.6605495 5
4.1104922 -2.7465425 -1.7006898 7
3.0807841 -2.0585139 -1.7271461 9
3.1469846 -2.1330726 1.0035501 7
4.8276243 -3.2722352 1.1269934 6
8.8208666 -5.9789133 1.4908074 23
13.831271 -9.3750401 1.4506946 32
13.808754 -9.3597775 0.85820669 29
13.84231 -9.3825226 0.56438392 27
13.850657 -10.938587 0.49082822 38
13.808763 -7.9628568 0.34948578 46
13.858347 -9.3933926 0.26826292 25
13.861582 -10.947214 0.178808 35
10.551282 -6.0844226 0.051444475 0
13.893217 -9.4170275 -0.027828913 29
13.902704 -10.979692 -0.13357423 34
10.099995 -5.8241868 -0.15669444 0
13.850912 -9.3883524 -0.32362476 55
13.936329 -11.006247 -0.44827068 31
9.8016214 -5.6521292 -0.35221273 0
13.88039 -9.4083338 -0.62161279 41
13.887151 -10.967407 -0.76023287 37
8.9502134 -5.1611624 -0.50440043 0
8.8934402 -6.0281053 -0.58845121 0
13.91521 -10.989568 -1.0751823 42
8.7855129 -5.0661874 -0.67484689 1
8.7910042 -5.9586725 -0.76964611 0
13.951377 -11.01813 -1.3928772 28
8.7186222 -5.0276146 -0.84778106 1
8.6663284 -5.8741655 -0.94395906 0
12.489535 -9.8636379 -1.5284933 4
8.7595396 -5.0512104 -1.0308424 1
8.6118031 -5.8372078 -1.1221162 3
9.2184439 -6.2483974 -1.3985771 1
9.1903706 -6.2293692 -1.5908129 2
8.2375994 -5.5835667 -1.6037868 3
7.4736881 -5.0657763 -1.6147673 4
6.8842592 -4.6662526 -1.6357354 4
6.3616743 -4.312037 -1.6477361 3
5.9055333 -4.0028577 -1.6561344 5
5.5220532 -3.7429295 -1.6663657 6
4.0953164 -2.775866 -1.701991 7
3.0670636 -2.0789011 -1.7271461 9
3.1089661 -2.1407304 0.99640375 3
5.518374 -3.7997684 1.2947143 18
8.8094292 -6.0658793 1.4963495 28
13.837668 -9.5281572 1.4586521 29
13.792416 -9.4969978 0.86149484 33
13.848892 -9.5358858 0.56748718 30
13.838735 -11.094849 0.49327457 39
13.801766 -8.0942078 0.35080096 51
13.858294 -9.5423594 0.26960874 27
13.8621 -11.113581 0.17986077 34
10.489147 -6.1514835 0.05136 1
13.889705 -9.5639877 -0.027961558 30
13.887382 -11.13385 -0.13420758 32
12.396197 -7.2698951 -0.19314 0
13.834423 -9.5259228 -0.32486233 48
13.927032 -11.165638 -0.45059228 33
9.7392349 -5.711689 -0.35146597 0
13.876897 -9.5551682 -0.62457633 41
13.874978 -11.123906 -0.76400995 39
8.9259272 -5.2347145 -0.5051806 0
8.9378319 -6.1542931 -0.59435761 0
13.909041 -11.151216 -1.0809928 38
8.7722397 -5.1445832 -0.67670596 3
8.9508162 -6.1632333 -0.78757179 9
13.948019 -11.182465 -1.4006883 23
8.7296705 -5.1196175 -0.8524816 1
8.6952229 -5.9872408 -0.95186126 0
12.429321 -9.9648886 -1.530023 3
8.7360096 -5.1233354 -1.0324651 1
8.6244678 -5.9385209 -1.1294082 2
9.2312326 -6.356319 -1.4075487 2
9.1509838 -6.3010621 -1.5919476 2
8.2094593 -5.6527596 -1.6063325 3
7.4622979 -5.1382899 -1.620401 4
6.8595667 -4.723269 -1.6380513 4
6.3395586 -4.3652086 -1.6502516 4
5.8856597 -4.052669 -1.6588479 5
5.5040574 -3.7899106 -1.669274 6
4.0779738 -2.8079569 -1.7032923 7
3.0547283 -2.103384 -1.7288362 10
5.2210326 -3.6490209 1.6814313 17
5.440207 -3.8022037 1.2825716 27
8.8285599 -6.1703506 1.5068793 23
13.832872 -9.6679039 1.4652258 32
13.801085 -9.645689 0.86622155 33
13.844239 -9.675849 0.57005072 28
13.83539 -11.251738 0.49594331 37
13.803322 -8.2251663 0.35229149 51
13.850345 -9.6801157 0.27076226 27
13.855546 -11.268129 0.18079206 34
13.840878 -8.2475452 0.068052001 32
13.901281 -9.7157164 -0.028120732 27
13.886894 -11.293623 -0.13496155 32
10.314532 -6.146255 -0.16137108 0
13.836419 -9.6703835 -0.32648665 64
13.929401 -11.328193 -0.4532167 31
9.774682 -5.8245678 -0.35420403 0
13.875377 -9.6976109 -0.62753993 42
13.883792 -11.291101 -0.76881725 37
8.9200516 -5.3153081 -0.50693607 0
9.0288706 -6.310349 -0.60332656 0
13.920683 -11.321102 -1.0880138 41
8.8012533 -5.2445183 -0.68175203 4
9.0056705 -6.2941346 -0.79624546 50
13.953143 -11.347501 -1.4091244 27
8.6937151 -5.1804376 -0.8524816 1
8.7152538 -6.0911603 -0.95868593 0
12.377985 -10.066492 -1.5323174 3
8.8743706 -5.2880869 -1.0531551 2
8.6773291 -6.0646544 -1.1418476 0
10.204838 -7.1322422 -1.5635554 1
9.1100159 -6.3670626 -1.5925149 1
8.1762686 -5.7144589 -1.6076053 3
7.4294715 -5.1925168 -1.6211052 4
6.8232083 -4.7687945 -1.6372793 4
6.3185463 -4.4160824 -1.6527673 4
5.857223 -4.0936599 -1.6588479 4
5.4774647 -3.8282435 -1.669274 7
4.0582709 -2.8363578 -1.7032923 7
3.0369978 -2.122582 -1.7271461 9
5.2017398 -3.6898556 1.6834731 23
5.3622789 -3.8037341 1.2704289 29
8.8305035 -6.2639198 1.5146382 23
13.836549 -9.8149595 1.4728373 27
13.792061 -9.7834024 0.86992067 30
13.841568 -9.8185196 0.5727492 32
13.833612 -11.411664 0.49872327 36
13.813984 -8.362751 0.35404506 45
13.857458 -9.8297911 0.27223623 29
13.859849 -11.433308 0.18188532 38
13.847976 -8.3833294 0.068373002 44
13.895105 -9.8564968 -0.028246744 26
13.881765 -11.451386 -0.13568537 42
10.233735 -6.1953292 -0.16077977 1
13.840336 -9.817646 -0.3281883 39
13.877738 -11.448064 -0.45412517 40
9.7816629 -5.9216523 -0.35594642 0
13.875806 -9.8428068 -0.63065171 43
13.875531 -11.446243 -0.77276605 43
8.8998165 -5.3877974 -0.50791132 0
13.893876 -9.8556252 -0.93299049 35
13.918307 -11.48153 -1.0940664 53
8.7917404 -5.3223701 -0.68387669 4
13.930367 -9.8815098 -1.2377367 33
13.904344 -11.470012 -1.4122487 34
8.674386 -5.2513256 -0.85416037 1
8.7862473 -6.2325268 -0.97125769 0
12.371907 -10.205871 -1.5403481 3
8.8474493 -5.3560953 -1.0543721 1
8.8423786 -6.2723436 -1.1693 0
10.161273 -7.2079015 -1.5645522 2
9.0847225 -6.4442501 -1.5959189 1
8.1361761 -5.771399 -1.6076053 3
7.3930411 -5.244256 -1.6211052 4
6.821763 -4.8390193 -1.6449987 4
6.2748036 -4.4510336 -1.6494131 5
5.8285027 -4.13445 -1.6588479 4
5.4569364 -3.8708794 -1.6712127 7
4.0414567 -2.8668084 -1.7045934 7
3.0221059 -2.1437316 -1.7271461 10
5.1928511 -3.7355664 1.6885777 24
5.2827353 -3.800226 1.2575274 23
8.8305712 -6.3524227 1.5218428 24
13.845553 -9.9600353 1.4807949 33
13.804699 -9.9306459 0.8748529 32
13.854031 -9.9661341 0.57598734 35
13.80057 -11.539064 0.50028002 41
13.816137 -8.4897776 0.3555356 44
13.869881 -9.9775362 0.2737743 28
13.805198 -11.542934 0.18216875 48
13.84319 -8.5064011 0.068626426 41
13.894371 -9.9951534 -0.028379388 29
13.842337 -11.573987 -0.13604727 40
13.865918 -8.5203667 -0.21872716 33
13.843095 -9.9582672 -0.32981262 43
13.868999 -11.59628 -0.45634583 40
9.8409576 -6.0470982 -0.35955566 0
13.865385 -9.9743013 -0.63317078 44
13.81771 -11.553396 -0.77379614 54
8.8877144 -5.4613466 -0.50927669 0
13.902777 -10.001201 -0.93802184 40
13.866359 -11.594073 -1.0960032 50
8.7460451 -5.3742938 -0.68307996 3
13.939013 -10.027267 -1.2443866 34
13.889154 -11.613133 -1.4184977 34
8.6970987 -5.3442168 -0.85986823 1
12.751636 -9.1731071 -1.4162978 50
12.276459 -10.26471 -1.5369064 3
8.852416 -5.4396567 -1.0592403 1
11.480146 -8.2584391 -1.525323 4
10.135798 -7.2913594 -1.5680411 1
9.0321398 -6.4974246 -1.5942169 2
8.1105433 -5.8344584 -1.6101511 3
7.3644896 -5.2977715 -1.6225137 4
6.7831473 -4.8795729 -1.6434548 4
6.2610197 -4.5039716 -1.6536058 5
5.8041167 -4.1752906 -1.6597524 4
5.4311438 -3.9069862 -1.6712127 7
4.0223541 -2.8935494 -1.7045934 7
3.0048788 -2.1616108 -1.7254562 10
5.1603985 -3.767168 1.6865358 23
5.2180114 -3.8092265 1.2484202 28
8.830801 -6.4466166 1.5296017 25
13.840055 -10.103447 1.4877144 32
13.812469 -10.083308 0.87978512 35
13.855152 -10.114468 0.57895565 30
13.789814 -11.694611 0.5028376 39
13.804028 -8.6156645 0.35676309 49
13.870953 -10.126003 0.27518418 27
13.80969 -11.711468 0.18330251 40
13.844549 -8.6409559 0.068930529 41
13.911483 -10.15559 -0.028558459 31
13.840512 -11.737606 -0.1368314 41
13.870565 -8.6571941 -0.2197485 31
13.850759 -10.11126 -0.33166897 42
13.860895 -11.754892 -0.45876837 41
9.9545193 -6.2130275 -0.36528069 1
13.882583 -10.134493 -0.63717163 47
13.815958 -11.716784 -0.77826005 47
8.8934317 -5.5507588 -0.51181233 0
13.919715 -10.1616 -0.94392824 37
13.858162 -11.752574 -1.1018137 52
8.7083139 -5.4352188 -0.68307996 3
13.936337 -10.173735 -1.2504581 33
13.886816 -11.776875 -1.4266212 31
8.6731033 -5.4132428 -0.86121124 1
12.745202 -9.3041887 -1.4227632 203
12.247012 -10.38622 -1.5422601 4
8.8412333 -5.5181789 -1.0624858 1
11.46718 -8.371213 -1.5313282 3
10.091059 -7.3666234 -1.569038 2
8.9897566 -6.5626569 -1.5947843 2
8.0823717 -5.9002523 -1.6126968 2
7.3368664 -5.3560219 -1.6246263 4
6.7394056 -4.919867 -1.641139 4
6.2483773 -4.5614085 -1.6586372 5
5.7874146 -4.2248993 -1.6633704 5
5.4068699 -3.9470956 -1.6721821 6
4.0051103 -2.9237905 -1.7058947 7
3.0072837 -2.1953621 -1.7355961 10
5.1277571 -3.7984982 1.684494 22
5.1407981 -3.8081584 1.2362776 23
8.8301439 -6.5411224 1.5373605 24
13.84283 -10.254378 1.495672 32
13.809145 -10.229426 0.88410085 31
13.845238 -10.256162 0.58151919 28
13.774524 -11.84796 0.50528395 40
13.80434 -8.7503643 0.35834131 52
13.870624 -10.274968 0.27659407 26
13.809467 -11.878016 0.18439576 41
13.851453 -8.7802286 0.06926842 38
13.885242 -10.285797 -0.028651312 29
13.84314 -11.906979 -0.13767587 38
13.863839 -8.7880802 -0.22060856 28
13.840889 -10.252941 -0.33313859 40
13.863377 -11.924386 -0.46159464 37
13.895522 -8.8081636 -0.51213968 34
13.882154 -10.283509 -0.64043152 45
13.818657 -11.885921 -0.78306729 44
8.8814592 -5.6298242 -0.51337272 0
13.906202 -10.301324 -0.94786584 37
13.857503 -11.919333 -1.1083505 50
8.690383 -5.5087037 -0.68467343 3
13.935497 -10.323025 -1.2568189 34
13.891934 -11.948949 -1.4356821 30
8.6653986 -5.4928665 -0.86423302 1
12.737557 -9.4356241 -1.4292287 112
12.171185 -10.46887 -1.5418776 3
8.8562698 -5.6138563 -1.0689766 1
11.430828 -8.4676361 -1.5343308 2
10.061707 -7.4534292 -1.5725269 2
8.9659939 -6.6417556 -1.5987556 3
8.0568495 -5.9682875 -1.6158789 2
7.3214426 -5.4235187 -1.6295558 4
6.7364321 -4.990159 -1.6488583 4
6.2069521 -4.5979352 -1.6561215 4
5.7671704 -4.2721577 -1.6660838 5
5.3854184 -3.9893665 -1.6741208 6
3.9937189 -2.9584346 -1.7097983 7
2.9889708 -2.2141454 -1.733906 8
5.0750499 -3.8173845 1.6763269 24
5.0688057 -3.8126874 1.2256527 29
8.8357792 -6.6461549 1.546782 24
13.850094 -10.417855 1.5046675 27
13.804025 -10.383202 0.88862205 32
13.849558 -10.417452 0.58489227 29
13.783694 -12.032759 0.50884229 42
13.813787 -8.8989658 0.36027023 36
13.881234 -10.441278 0.2783244 25
13.797357 -12.044685 0.18540803 38
13.837158 -8.9140224 0.069521844 37
13.90857 -10.46184 -0.028856911 26
13.839856 -12.081786 -0.13852032 35
13.862932 -8.9306259 -0.2216299 28
13.845263 -10.414222 -0.33507228 40
13.929226 -12.159804 -0.46674255 31
13.884358 -8.9444284 -0.51413101 35
13.870293 -10.433048 -0.64339513 39
13.818463 -12.063111 -0.78804624 47
8.8869734 -5.7250681 -0.51610345 0
13.89735 -10.453401 -0.95245969 37
13.881046 -12.117744 -1.1173084 45
8.7906885 -5.6630406 -0.69582796 2
13.935973 -10.482452 -1.2637578 32
13.96319 -12.189453 -1.4522417 24
8.6550589 -5.5756669 -0.86725485 0
12.725359 -9.5718441 -1.4356942 71
12.106115 -10.568281 -1.5434073 3
8.8784409 -5.7195711 -1.0766847 3
11.387523 -8.5655413 -1.5369045 1
10.016318 -7.5341401 -1.5740222 2
8.9328899 -6.7191997 -1.6015923 3
8.0318203 -6.0414276 -1.6196975 2
7.2720513 -5.4699392 -1.6274432 4
6.6933994 -5.0346856 -1.6473144 2
6.1730824 -4.6433096 -1.6561215 5
5.7325869 -4.311975 -1.6651794 4
5.3591332 -4.0310678 -1.6750902 6
3.9749486 -2.9899032 -1.7110995 7
2.9726605 -2.2359953 -1.733906 10
5.0083075 -3.8222189 1.6630551 24
5.0170879 -3.8289201 1.2195814 27
8.8269539 -6.7365174 1.5534325 23
13.837216 -10.560228 1.5112411 32
13.807415 -10.537484 0.89355427 32
13.849586 -10.569668 0.58799553 30
13.82509 -12.240015 0.51351261 37
13.804871 -9.0302143 0.36167309 34
13.874769 -10.588887 0.27967018 26
13.850691 -12.262679 0.18727061 40
13.83819 -9.0520105 0.069842845 39
13.901969 -10.609646 -0.028996188 28
13.877959 -12.286822 -0.13975683 35
13.863841 -9.0687895 -0.22265124 31
13.851701 -10.571282 -0.337006 38
13.921838 -12.325669 -0.46936697 32
13.891838 -9.0871029 -0.51674461 36
13.889267 -10.599952 -0.64769232 41
13.874541 -12.283795 -0.79611558 38
8.9036274 -5.824152 -0.51941931 0
13.916107 -10.620436 -0.95880359 36
13.90672 -12.312284 -1.1262662 45
8.8043795 -5.7592311 -0.7000773 2
13.935397 -10.635158 -1.2704077 33
13.955381 -12.355368 -1.4603652 23
8.6659565 -5.6686835 -0.87229115 0
12.731065 -9.7160397 -1.4439557 66
12.064833 -10.681574 -1.5476139 3
8.808322 -5.7618098 -1.0730336 1
11.352737 -8.664134 -1.540336 1
9.9729404 -7.6111069 -1.5755175 2
8.8763208 -6.7741928 -1.5998902 2
7.9988656 -6.1045403 -1.6216067 3
7.2555976 -5.5372963 -1.6323727 4
6.6549683 -5.0789104 -1.6465425 2
6.1498423 -4.6934104 -1.6586372 5
5.6961489 -4.3471627 -1.6633704 5
5.3339453 -4.0707378 -1.6760596 7
3.9479649 -3.0129912 -1.708497 7
2.9540958 -2.2544944 -1.7322161 9
4.9448056 -3.8286777 1.6508042 23
4.9405503 -3.8253829 1.2074387 17
8.8266935 -6.8343563 1.5617455 22
13.838777 -10.715126 1.5195446 32
13.812476 -10.694762 0.89869201 31
13.84816 -10.722391 0.59109879 30
13.82856 -12.41637 0.51684856 37
13.808115 -9.170619 0.36342663 41
13.870077 -10.739362 0.28108007 24
13.859982 -12.444584 0.18856633 43
13.844632 -9.1948709 0.070197634 38
13.900303 -10.762765 -0.02914873 30
13.887086 -12.468919 -0.14072192 30
13.866827 -9.2096119 -0.22372633 29
13.840805 -10.716697 -0.33855295 37
13.933639 -12.510718 -0.47269794 31
13.89467 -9.2281036 -0.51923376 34
13.88446 -10.750498 -0.65095228 41
13.88955 -12.471132 -0.80195296 39
8.9159994 -5.9215345 -0.52254009 0
13.914258 -10.77357 -0.96383494 37
13.909554 -12.489093 -1.1335293 44
8.8071795 -5.8492618 -0.70352983 1
13.936518 -10.790805 -1.2773466 33
13.954836 -12.529751 -1.4694262 22
8.6759758 -5.7621231 -0.8773275 0
12.735372 -9.8607788 -1.4522171 24
11.995895 -10.77086 -1.5483787 2
8.7645683 -5.820962 -1.0726279 1
11.31713 -8.7626581 -1.5437676 2
9.9415283 -7.6975541 -1.5790064 2
8.8632498 -6.8626614 -1.606131 2
7.9560533 -6.1602345 -1.6216067 3
7.216763 -5.5878153 -1.6323727 4
6.6131415 -5.1204414 -1.6449987 2
6.1323886 -4.7482028 -1.6628299 5
5.6779842 -4.3963652 -1.6669884 4
5.3023276 -4.1055007 -1.6750902 6
3.9477692 -3.0566895 -1.7176056 7
2.9497509 -2.2839413 -1.738976 10
4.8675857 -3.8207929 1.6334488 24
4.8162131 -3.780468 1.1831533 1
8.8310289 -6.9318824 1.5706128 24
13.852042 -10.873107 1.5288861 31
13.813515 -10.842866 0.90341872 32
13.861648 -10.880647 0.5947417 30
13.819842 -12.575088 0.51962852 33
13.813322 -9.3066826 0.36518019 41
13.870906 -10.887915 0.28255406 25
13.857018 -12.608915 0.18965958 43
13.843057 -9.3267164 0.070501737 36
13.916718 -10.923874 -0.029334433 29
13.901711 -12.649583 -0.14171717 35
13.861834 -9.3393669 -0.22464015 28
13.844925 -10.86752 -0.34040931 37
13.936128 -12.6809 -0.47562519 31
13.892845 -9.360261 -0.52147394 34
13.885173 -10.899113 -0.65436041 42
13.877472 -12.627527 -0.80607343 40
8.9262314 -6.0140204 -0.52546585 0
13.924185 -10.929735 -0.9695226 39
13.932728 -12.677806 -1.1422451 37
8.7715025 -5.9097724 -0.70379543 1
13.952513 -10.951971 -1.285442 31
13.962862 -12.705226 -1.4791119 24
8.7003756 -5.8618512 -0.88370681 0
13.117816 -10.29678 -1.5035816 3
11.941867 -10.866262 -1.5506731 1
8.7587719 -5.901195 -1.0766847 1
11.274405 -8.849802 -1.5459123 2
9.9152327 -7.7829242 -1.5829939 2
8.8175392 -6.9212937 -1.606131 2
7.9150214 -6.2128658 -1.6216067 2
7.1888361 -5.6428494 -1.6344854 4
6.5975595 -5.1787291 -1.6496303 3
6.0976858 -4.786355 -1.6619912 5
5.6456366 -4.4315209 -1.6660838 4
5.2780352 -4.1429734 -1.6760596 6
3.9184835 -3.0757985 -1.713702 6
2.9288347 -2.2989776 -1.7355961 9
4.8014622 -3.8233612 1.620177 22
4.1260886 -3.2855673 1.019227 5
8.8196096 -7.0229759 1.5772632 30
12.397906 -9.8723421 1.3759629 1
13.809359 -10.996268 0.90814543 30
13.860407 -11.036918 0.59797984 28
13.822807 -12.755322 0.52307564 39
13.823933 -9.4548159 0.3671968 34
13.875906 -11.049259 0.28422028 27
13.862718 -12.79215 0.1909553 43
13.853544 -9.475069 0.070890315 39
13.912087 -11.07807 -0.029486975 30
13.910067 -12.835842 -0.14271241 30
13.865623 -9.4833298 -0.225769 30
13.856318 -11.033662 -0.34257504 39
13.947175 -12.870085 -0.47905713 29
13.899761 -9.5066786 -0.524212 34
13.886922 -11.058031 -0.6580649 40
13.874147 -12.802696 -0.81105238 48
8.9631739 -6.1303225 -0.53014708 0
13.935028 -11.096337 -0.97564775 38
13.931908 -12.855996 -1.1495081 37
8.8025064 -6.0204349 -0.7096383 0
13.944377 -11.103783 -1.2918028 33
13.976397 -12.89705 -1.4900475 21
8.7151709 -5.9607015 -0.88941467 0
13.036264 -10.38066 -1.5025041 7
11.921311 -11.000671 -1.5579389 1
8.7600613 -5.9914041 -1.0819585 0
11.26835 -8.9728851 -1.5536333 2
9.8792868 -7.8667874 -1.5859843 3
8.8061762 -7.012279 -1.612939 1
7.8838129 -6.2778096 -1.6241524 3
7.152348 -5.6953506 -1.6351895 4
6.5612454 -5.2246609 -1.6496303 3
6.054945 -4.8214979 -1.6594757 4
5.6206584 -4.4756799 -1.6678928 5
5.2702346 -4.1966405 -1.6828452 7
3.9146693 -3.1172159 -1.7215092 7
2.9070418 -2.3148513 -1.7322161 10
4.7415586 -3.830056 1.608947 22
4.0572233 -3.2772751 1.0078433 3
8.8289165 -7.1316724 1.5877931 26
13.85078 -11.188148 1.5458391 26
13.822372 -11.165201 0.91410518 31
13.851435 -11.188677 0.60094815 32
13.829767 -12.941669 0.5267452 36
13.823289 -9.5967064 0.36895037 42
13.87621 -11.20869 0.28582242 25
13.860688 -12.970606 0.19217002 39
13.852774 -9.617177 0.071228214 36
13.9122 -11.237761 -0.02965278 27
13.896052 -13.003699 -0.14349654 32
13.877931 -9.6346416 -0.22705911 27
13.850508 -11.187928 -0.34435406 38
13.941657 -13.046374 -0.48198435 30
13.902021 -9.6513662 -0.52682561 32
13.887122 -11.217504 -0.66176939 43
13.886559 -12.994815 -0.81706142 42
9.0284595 -6.2679353 -0.53658372 0
13.922468 -11.246055 -0.9802416 38
13.92636 -13.03206 -1.1565292 43
8.8782892 -6.163681 -0.7191993 1
13.947209 -11.266041 -1.29932 32
13.964635 -13.067877 -1.4984834 23
8.7519255 -6.075954 -0.8974728 0
13.016162 -10.513974 -1.5086104 3
11.861666 -11.099953 -1.5602334 1
8.865118 -6.1545367 -1.1002144 1
11.202338 -9.0488348 -1.5532044 2
9.8303003 -7.9405532 -1.5869812 3
8.7477674 -7.066123 -1.611237 1
7.8459377 -6.3376584 -1.6254252 3
7.1216016 -5.7525668 -1.6373022 4
6.5154514 -5.2629409 -1.6473144 2
6.0211368 -4.8636518 -1.6594757 3
5.5892754 -4.5148101 -1.6678928 5
5.240808 -4.2333312 -1.6828452 6
3.8869267 -3.1397157 -1.7189068 6
2.8992712 -2.341924 -1.737286 9
4.6684947 -3.8279269 1.5936335 34
4.6678166 -3.8273709 1.1664572 18
8.8223515 -7.2338762 1.5961061 25
13.854678 -11.360126 1.5555266 31
13.814293 -11.327013 0.9190374 28
13.852512 -11.358352 0.60459107 31
13.833111 -13.136309 0.53052592 34
13.827738 -9.7507849 0.37096697 41
13.867899 -11.370968 0.28736049 23
13.858054 -13.159995 0.19346572 39
13.85709 -9.7714825 0.071616791 37
13.903684 -11.40031 -0.029811954 30
13.916378 -13.215382 -0.14470291 32
13.872305 -9.7822113 -0.2281342 28
13.839252 -11.347478 -0.34613308 37
13.938438 -13.236331 -0.48521441 29
13.896248 -9.7990952 -0.52931476 33
13.887978 -11.387431 -0.66577023 43
13.87787 -13.178812 -0.8222121 47
13.85379 -9.7691555 -0.82759899 34
13.919958 -11.413653 -0.98592919 38
13.905736 -13.205275 -1.1628238 17
8.9176741 -6.2883978 -0.72610444 0
13.932122 -11.423627 -1.3056806 38
13.978354 -13.274236 -1.5103563 23
8.7951021 -6.2019649 -0.90653813 0
12.944901 -10.614157 -1.5093287 5
11.829066 -11.233212 -1.5667343 1
8.8425293 -6.2354083 -1.1030542 0
11.13263 -9.1281872 -1.5527754 2
9.7748985 -8.0149164 -1.5874797 3
8.7171669 -7.1476312 -1.6152084 2
7.814538 -6.4075212 -1.6286074 2
7.0853319 -5.8096094 -1.6387106 4
6.4918714 -5.3230023 -1.6511742 3
6.0004449 -4.9200578 -1.6636684 3
5.5620556 -4.5606012 -1.6697018 5
5.2006326 -4.2642527 -1.6799371 6
3.8667319 -3.1705225 -1.720208 7
2.8904366 -2.3700101 -1.7423559 9
4.6119218 -3.8356955 1.5834244 22
4.616827 -3.8397748 1.1603857 23
8.8295031 -7.3434205 1.6066359 22
13.793415 -11.471864 1.5576024 27
13.820876 -11.494702 0.92479169 33
13.828204 -11.500797 0.60701972 32
13.82171 -13.310223 0.53363943 34
13.811363 -9.8843174 0.37236983 40
13.831226 -11.503311 0.28825769 31
13.875322 -13.361852 0.19500439 45
13.853593 -9.9145393 0.071954682 36
13.866811 -11.532907 -0.029904805 34
13.90157 -13.387128 -0.1455172 31
13.881737 -9.9346809 -0.22942431 26
13.83964 -11.510307 -0.34814411 46
13.937862 -13.422077 -0.48844445 28
13.892526 -9.9424028 -0.53180391 32
13.832726 -11.504559 -0.66695565 52
13.856729 -9.9167833 -0.83189011 35
13.85529 -11.523325 -0.987023 41
12.982056 -12.501641 -1.0928559 0
13.878322 -9.9322367 -1.1356337 35
13.891907 -11.553778 -1.3094393 37
13.957153 -13.440655 -1.5181674 24
13.937719 -9.9747458 -1.443746 21
12.741842 -10.59728 -1.4942427 3
11.764696 -11.32933 -1.5686464 2
12.206331 -8.735651 -1.5302391 16
11.077806 -9.213315 -1.5540622 1
9.7339621 -8.0956516 -1.5899718 2
8.6579218 -7.2007184 -1.6135063 3
7.7908678 -6.4795971 -1.6330624 2
7.0506549 -5.8639684 -1.6401191 4
6.4515347 -5.3656855 -1.6504022 3
5.9689569 -4.9643297 -1.6645069 3
5.5300813 -4.5993204 -1.6697018 4
5.1677523 -4.2979746 -1.6789677 7
3.8445034 -3.1974401 -1.720208 7
2.8598833 -2.37854 -1.733906 9
4.5554695 -3.8428619 1.5732154 22
4.5688944 -3.8541865 1.1550734 29
8.8204117 -7.4406433 1.6143948 24
13.612473 -11.483087 1.5461851 26
13.752504 -11.601213 0.9256137 38
13.793411 -11.635721 0.60904354 32
13.831434 -13.50696 0.5376426 37
13.819677 -10.036898 0.37447411 42
13.820892 -11.658904 0.28973165 28
13.873275 -13.547819 0.19630009 42
13.855239 -10.062725 0.07232637 38
13.853223 -11.686176 -0.030050715 36
13.910793 -13.584457 -0.14660293 33
13.876766 -10.07836 -0.2304994 28
13.795627 -11.63759 -0.34907231 50
13.941089 -13.614042 -0.49187639 20
13.916589 -10.107282 -0.53541315 33
13.834566 -11.670439 -0.67095649 53
12.817606 -12.516916 -0.76967567 0
13.855044 -10.062584 -0.83598614 39
13.853879 -11.68673 -0.99271065 44
12.768774 -12.469229 -1.0822033 2
13.889377 -10.087518 -1.1422733 37
13.90239 -11.727653 -1.318113 38
12.804497 -12.504114 -1.4022505 6
13.938695 -10.123337 -1.4511325 22
12.704089 -10.716801 -1.4985529 5
11.685315 -11.411187 -1.5686464 2
12.219102 -8.8744383 -1.5395699 2
11.031453 -9.3058138 -1.5566359 1
9.6923752 -8.1762056 -1.5924639 2
8.604414 -7.2584338 -1.612939 2
7.7424231 -6.5312834 -1.6324259 1
7.0215836 -5.9232039 -1.642936 2
6.4319177 -5.4257793 -1.6550338 4
5.9431224 -5.0134454 -1.6670226 4
5.4978371 -4.637816 -1.6697018 5
5.1613512 -4.3539662 -1.6867228 7
3.8278694 -3.2290795 -1.7228105 7
2.8653777 -2.4171493 -1.7474258 9
4.4903283 -3.8418841 1.5599436 23
4.5060668 -3.8553498 1.1459663 28
8.8073845 -7.5355177 1.6215994 23
13.441138 -11.500115 1.5358057 24
13.75617 -11.769653 0.93136799 36
13.796899 -11.804502 0.6128214 32
13.841923 -13.707293 0.54175693 34
13.820092 -10.185328 0.37640303 41
13.824256 -11.827908 0.29152605 28
13.869301 -13.734404 0.1975958 46
13.86515 -10.218536 0.072748736 37
13.847286 -11.847611 -0.030216523 33
13.906566 -13.771306 -0.14756802 33
13.88012 -10.229569 -0.23173575 28
13.783941 -11.793414 -0.3508513 46
13.913275 -10.254004 -0.53802669 33
13.831727 -11.834299 -0.67480916 50
12.616326 -12.493617 -0.76280814 0
13.864861 -10.218323 -0.84086239 38
13.856932 -11.855864 -0.99883574 41
12.579279 -12.456929 -1.0734876 2
13.876447 -10.226861 -1.1470538 41
13.889902 -11.884074 -1.3247628 39
12.566713 -12.444486 -1.385691 3
13.931853 -10.267695 -1.4578476 19
12.692533 -10.859616 -1.506096 4
11.611024 -11.498092 -1.5694112 2
12.121612 -8.9335585 -1.5351074 9
10.996439 -9.408453 -1.5609254 1
9.6441069 -8.2514105 -1.5939592 2
8.5926456 -7.351789 -1.6203144 1
7.6996403 -6.5877419 -1.6330624 2
6.9740787 -5.966958 -1.6415275 3
6.4028301 -5.4782028 -1.6573497 4
5.916894 -5.0624404 -1.6695381 4
5.4682875 -4.678617 -1.6706064 5
5.1278815 -4.3873687 -1.6857535 7
3.8052337 -3.2557232 -1.7228105 6
2.82915 -2.4205949 -1.7355961 9
4.4179978 -3.8310404 1.5436091 20
4.4447923 -3.854275 1.1368593 28
8.7871418 -7.6197171 1.6271415 26
7.5267911 -6.5268116 0.8649503 11
13.750241 -11.923439 0.93630022 37
13.805895 -11.971699 0.61673415 33
13.838204 -13.88659 0.54520404 36
13.82912 -10.334216 0.37850732 38
13.811983 -11.976978 0.29293594 30
13.876725 -13.925246 0.19901299 44
13.857952 -10.355762 0.073069736 37
13.853024 -12.012567 -0.030402225 34
13.910923 -13.959562 -0.14859343 34
13.882456 -10.374073 -0.23291835 26
13.783979 -11.952696 -0.35286236 46
12.554868 -12.598766 -0.44897726 0
13.91542 -10.398706 -0.54076475 33
13.837494 -11.9991 -0.67895818 51
12.425996 -12.469444 -0.756284 0
13.854392 -10.353102 -0.84437335 52
13.85645 -12.015538 -1.0045234 41
12.425929 -12.469377 -1.067435 7
13.904228 -10.390343 -1.1550213 47
13.90723 -12.059571 -1.3340148 33
12.396644 -12.439988 -1.3760052 1
13.940078 -10.417133 -1.4659058 20
12.692466 -11.006196 -1.5147166 3
11.545754 -11.586124 -1.5709409 2
12.017468 -8.9804068 -1.5294278 2
10.939807 -9.4863882 -1.5617832 1
9.5921679 -8.317791 -1.5944576 1
8.5526724 -7.416398 -1.6220164 3
7.6706972 -6.6515994 -1.6362444 2
6.9492249 -6.025979 -1.6450486 3
6.3633904 -5.5179758 -1.6565777 4
5.8802333 -5.099009 -1.6686996 4
5.4459682 -4.7224388 -1.6733198 4
5.0986705 -4.4212813 -1.6857535 6
3.7864151 -3.2833672 -1.7241117 6
2.818512 -2.4440558 -1.738976 9
4.3591986 -3.8336957 1.5323792 21
4.4030304 -3.8722436 1.1330647 29
8.7010098 -7.6521006 1.6210452 23
7.5289211 -6.6213069 0.87048596 0
13.759656 -12.100924 0.942671 30
13.827048 -12.160192 0.6214565 37
13.833405 -14.076974 0.5488736 49
13.833118 -10.488494 0.3806116 42
13.875193 -12.202533 0.29607615 26
13.880096 -14.124486 0.20047066 45
13.861817 -10.510255 0.073475212 45
13.909995 -12.23314 -0.03071394 26
13.916861 -14.161898 -0.1497093 32
13.882998 -10.526315 -0.2341547 26
13.820322 -12.154278 -0.35595629 42
12.393736 -12.611956 -0.44635284 1
13.912575 -10.548739 -0.54350281 35
13.888459 -12.214201 -0.68562627 43
12.246206 -12.461828 -0.75061834 0
13.874103 -10.519569 -0.85002977 37
13.922188 -12.243863 -1.0154612 33
12.324582 -12.541584 -1.0662245 1
13.885418 -10.528149 -1.1595362 39
13.960508 -12.277564 -1.3473145 29
12.231232 -12.44659 -1.3672568 1
13.93689 -10.567176 -1.4732924 17
12.690107 -11.160311 -1.5236964 3
11.50924 -11.711885 -1.5770594 2
11.922773 -9.04004 -1.525371 4
10.882272 -9.5704098 -1.5630701 1
9.572608 -8.4186268 -1.6009371 1
8.4947405 -7.4706964 -1.6208818 2
7.6151772 -6.6971645 -1.6343352 2
6.9128995 -6.0795469 -1.646457 2
6.3306074 -5.5674505 -1.6581216 3
5.8503661 -5.1451025 -1.6703767 4
5.4099407 -4.7577705 -1.6724154 4
5.0589371 -4.4490805 -1.6828452 7
3.75772 -3.3047254 -1.7215092 7
2.7823236 -2.4469135 -1.7271461 8
4.2948055 -3.830569 1.5191073 22
4.3465805 -3.8767471 1.1254755 29
8.5764227 -7.649375 1.6077443 23
7.4944072 -6.6843171 0.87186986 1
13.808993 -12.316343 0.9519189 27
13.840271 -12.34424 0.62590897 35
13.834965 -14.276576 0.55287671 56
13.826119 -10.636016 0.38245285 40
13.873238 -12.373643 0.29787055 23
13.878573 -14.321577 0.20188785 45
13.873704 -10.672622 0.073931374 43
13.919775 -12.415151 -0.030926172 26
13.915076 -14.359245 -0.15076487 32
13.878916 -10.67663 -0.2353373 28
13.836608 -12.340973 -0.35858613 39
12.185726 -12.574695 -0.44201246 0
13.917813 -10.706553 -0.54661423 32
13.889358 -12.388021 -0.68992347 41
12.081037 -12.466663 -0.7458111 0
13.857325 -10.660021 -0.85354072 48
13.922809 -12.417856 -1.021805 33
12.100575 -12.486826 -1.0543613 2
13.909647 -10.700272 -1.1677693 39
13.951864 -12.44377 -1.3548316 26
12.099637 -12.485857 -1.3622577 3
13.929122 -10.715253 -1.4803432 15
12.704051 -11.330837 -1.5348314 4
11.44382 -11.809106 -1.5793539 2
11.856217 -9.1206293 -1.5249653 2
10.874551 -9.6990919 -1.571649 1
9.5136013 -8.4852514 -1.6009371 1
8.442378 -7.529819 -1.6208818 2
7.5800242 -6.7606797 -1.6368809 2
6.8820419 -6.1381445 -1.6492739 2
6.3003721 -5.6193485 -1.6604375 4
5.8143034 -5.1858206 -1.6703767 5
5.3853168 -4.8032041 -1.6751288 4
5.0393381 -4.4946232 -1.6867228 7
3.7486708 -3.3434672 -1.7280153 6
2.7841125 -2.4831705 -1.738976 9
4.2350717 -3.8333983 1.5078775 20
4.2947531 -3.8874197 1.1194042 26
8.4643202 -7.6615257 1.5972145 24
7.4806628 -6.7711635 0.87602162 1
13.798307 -12.489614 0.95746762 27
13.838332 -12.525843 0.62995666 31
13.832114 -14.484602 0.55699104 46
13.832879 -10.803542 0.38482016 37
13.86519 -12.550153 0.29966494 23
13.872663 -14.527063 0.20334552 46
13.864451 -10.8282 0.074303053 43
13.911434 -12.592012 -0.031111876 26
13.914416 -14.570786 -0.15191092 33
13.885387 -10.844552 -0.23678868 29
13.843622 -12.530631 -0.36113861 39
12.037989 -12.605844 -0.43999368 0
13.917729 -10.869811 -0.54972565 32
13.881159 -12.564608 -0.69407248 40
11.925848 -12.488413 -0.74186224 0
13.85438 -10.820334 -0.85822189 38
13.926167 -12.605347 -1.0288053 33
11.903934 -12.465466 -1.0451615 0
13.893745 -10.85108 -1.1730809 40
13.951968 -12.628701 -1.3637944 24
11.941689 -12.505001 -1.354759 0
13.938158 -10.885766 -1.4897443 13
12.623607 -11.426328 -1.5351906 3
11.365197 -11.901316 -1.5805011 2
11.820403 -9.2317896 -1.5290221 1
10.8297 -9.8025627 -1.5755094 3
9.4746876 -8.576066 -1.6049244 2
8.4192486 -7.6207294 -1.6271224 1
7.5361199 -6.8213606 -1.6381537 2
6.8310256 -6.1831408 -1.6478654 3
6.244463 -5.6522102 -1.6565777 4
5.776135 -5.2283006 -1.6703767 4
5.3470755 -4.8399353 -1.6742244 4
5.0091338 -4.5340452 -1.6876922 7
3.7184536 -3.3657789 -1.7254128 7
2.7765875 -2.5132434 -1.7457359 8
4.188262 -3.8445635 1.5007311 21
4.2472563 -3.8987169 1.1140918 28
8.3435049 -7.6588178 1.5844679 23
7.4713736 -6.8582559 0.88051939 2
13.796122 -12.66398 0.96342742 28
13.847734 -12.711358 0.63440913 36
13.826598 -14.682698 0.56088299 53
13.819809 -10.949519 0.3865737 38
13.874465 -12.735895 0.30177978 21
13.869624 -14.728388 0.2048032 46
13.870033 -10.989312 0.074742317 45
13.923376 -12.780792 -0.031337373 27
13.916558 -14.778228 -0.15305695 32
13.884579 -11.000837 -0.23807879 27
13.838298 -12.702695 -0.36330438 35
11.859225 -12.593511 -0.43666267 0
13.910447 -11.021333 -0.55246371 33
13.878501 -12.739599 -0.69836968 36
11.761661 -12.489905 -0.737055 0
13.869315 -10.988744 -0.86387837 41
13.920212 -12.777887 -1.0349303 33
11.750925 -12.478505 -1.039351 0
13.89586 -11.009775 -1.1797205 43
13.954574 -12.80943 -1.3727573 19
11.763879 -12.492262 -1.3444483 0
13.908684 -11.019936 -1.4947807 11
12.543529 -11.514178 -1.5351906 3
11.31732 -12.018053 -1.5854725 3
11.789975 -9.3412695 -1.5334846 1
10.755141 -9.87255 -1.5746515 3
