# .PCD v0.7 - Point Cloud Data file format
VERSION 0.7
FIELDS x y z intensity
SIZE 4 4 4 4
TYPE F F F F
COUNT 1 1 1 1
WIDTH 1367
HEIGHT 1
VIEWPOINT 0 0 0 1 0 0 0
POINTS 1367
DATA ascii
8.8305273 -11.76116 0.14888521 31
13.863577 -13.752718 0.08248011 44
13.962132 -16.022018 -0.035237134 25
8.8643513 -11.80621 -0.11131689 31
13.896523 -13.785399 -0.26307464 29
11.061485 -12.693427 -0.32563582 0
8.8953934 -11.847552 -0.37397948 30
12.622292 -12.521358 -0.55345935 0
10.940411 -12.55449 -0.61731553 0
8.8372383 -11.770099 -0.63232553 38
12.627564 -12.526589 -0.86836451 1
10.868566 -12.472046 -0.90608358 0
8.8651323 -11.807249 -0.89529932 36
12.566538 -12.46605 -1.1778615 2
10.859004 -12.461074 -1.1978377 0
8.897378 -11.850196 -1.1610434 32
12.555541 -12.455142 -1.4897443 2
11.544935 -13.248202 -1.5844001 2
8.9267988 -11.889381 -1.4279195 29
10.952972 -10.865388 -1.5728359 1
9.8893309 -11.34834 -1.6235511 3
8.6645279 -9.9428377 -1.6562622 2
7.590755 -8.7106476 -1.6554893 2
6.8156118 -7.8211446 -1.6718842 2
6.1774592 -7.0888429 -1.6816678 4
5.6289139 -6.4593687 -1.6851394 3
5.2007265 -5.9680095 -1.6972101 4
4.8176475 -5.5284133 -1.7022637 4
4.4872684 -5.1492915 -1.7061104 6
3.3249145 -3.8154514 -1.7410275 6
2.4628451 -2.8261976 -1.7474258 6
2.5748754 -2.9988582 1.0433654 12
3.5843415 -4.1745448 1.0632442 26
3.9664049 -4.6195192 0.85181081 3
8.4888573 -9.8866453 1.1313549 13
13.826047 -16.102665 1.0918707 27
13.87812 -16.163313 0.719006 31
8.7958221 -11.895555 0.4114328 31
13.818393 -13.910348 0.42988682 51
13.91811 -16.209887 0.34234604 26
8.8201742 -11.92849 0.15018091 32
13.877971 -13.970322 0.083172791 42
13.956358 -16.254433 -0.035522319 29
8.8560467 -11.977004 -0.11231214 30
13.90221 -13.994722 -0.26511732 27
10.923851 -12.722589 -0.32432088 0
8.8891392 -12.021759 -0.37741143 29
12.431547 -12.514273 -0.54910338 0
10.803821 -12.582794 -0.61479652 0
8.8338814 -11.947027 -0.63833463 36
12.586082 -12.669837 -0.87187546 3
10.698794 -12.460474 -0.89952093 0
8.8780432 -12.006751 -0.90546763 37
12.390434 -12.472887 -1.169894 1
10.702396 -12.464669 -1.1906096 0
8.8885126 -12.020911 -1.1713542 27
12.345922 -12.428078 -1.4756427 2
11.455297 -13.341543 -1.5854776 3
8.9104242 -12.050545 -1.4393917 10
10.912293 -10.984909 -1.5785155 3
9.8343754 -11.453718 -1.6282694 4
8.6043377 -10.021141 -1.6587542 2
7.5266986 -8.7660561 -1.6554893 2
6.7709599 -7.8858762 -1.6750662 3
6.1330242 -7.1428976 -1.6837804 3
5.6018677 -6.5242796 -1.6913149 3
5.1670308 -6.0178418 -1.7005643 4
4.7617631 -5.5458426 -1.6968367 4
4.4519296 -5.1849914 -1.7070798 7
3.2968564 -3.8397219 -1.7410275 6
2.4609559 -2.8661807 -1.7609456 6
2.5538766 -3.0167611 1.0433654 17
3.5424225 -4.1844788 1.0594497 27
3.9622128 -4.6803551 0.85790706 4
8.3604069 -9.8757124 1.1233975 11
13.819116 -16.323799 1.1002966 31
13.881177 -16.39711 0.72507757 29
8.7973347 -12.073006 0.41543591 30
13.835682 -14.123604 0.4334816 53
13.918307 -16.440969 0.34516582 27
8.8238401 -12.10938 0.15167907 21
13.872472 -14.16116 0.083730318 41
13.96918 -16.501062 -0.035847299 24
13.910528 -14.200008 -0.26715997 31
10.777916 -12.731389 -0.32261923 0
12.262743 -12.517932 -0.54549414 0
10.65631 -12.587743 -0.61138839 0
8.8161602 -12.098842 -0.64314187 19
12.430224 -12.688899 -0.86719424 2
10.56251 -12.476941 -0.89536458 0
12.275126 -12.530573 -1.1672381 1
10.573872 -12.490362 -1.1859837 0
12.197493 -12.451324 -1.468256 2
11.382469 -13.445516 -1.5883511 3
9.1520176 -12.559753 -1.4925468 1
10.838124 -11.063666 -1.5789212 1
9.7567425 -11.525131 -1.6286985 5
8.5187807 -10.062791 -1.6557637 2
7.4934587 -8.8516312 -1.6617301 2
6.7259469 -7.9450097 -1.6776119 3
6.0957289 -7.2005658 -1.6873015 3
5.5637908 -6.5722151 -1.6936307 3
5.1198378 -6.0477972 -1.6988871 4
4.7380352 -5.5967937 -1.7022637 4
4.4106083 -5.210021 -1.7051411 6
3.2797456 -3.8741922 -1.7462324 7
2.426831 -2.8666887 -1.7508057 7
2.527797 -3.0285788 1.0413237 17
3.5055735 -4.2000623 1.0571729 29
3.9649789 -4.7504807 0.86566591 4
8.2350817 -9.8665333 1.1157858 11
13.802088 -16.536419 1.1081059 25
13.88164 -16.631731 0.73114908 29
13.869173 -19.31522 0.66129482 47
13.842329 -14.329143 0.43681338 43
13.923641 -16.682053 0.34817785 27
13.864491 -19.308701 0.24063767 59
13.887218 -14.375611 0.084423006 42
13.894424 -14.383071 -0.2687726 2
10.642645 -12.751059 -0.32122695 0
10.532612 -14.668482 -0.45584112 11
12.127833 -12.554351 -0.54337835 0
10.524629 -12.609662 -0.60886931 0
12.047101 -12.470779 -0.84651887 18
10.408607 -12.470654 -0.88967699 0
9.0262489 -12.570611 -0.93839377 1
12.054245 -12.478175 -1.1544901 3
9.5993385 -11.501062 -1.0856578 7
8.9965916 -12.529308 -1.208535 2
12.356742 -12.79131 -1.4981382 2
11.301087 -13.539946 -1.5901471 3
9.0524998 -12.607169 -1.4906347 1
10.824214 -11.204885 -1.5882519 1
9.6760445 -11.592965 -1.6286985 5
8.473753 -10.152488 -1.660748 2
7.4340177 -8.9067698 -1.6622974 2
6.6753774 -7.9978361 -1.6788847 3
6.0478339 -7.2459698 -1.6880058 3
5.5378923 -6.6350036 -1.6998062 3
5.0774918 -6.0833931 -1.6988871 5
4.7013435 -5.6327267 -1.7031683 4
4.3915353 -5.2615418 -1.7119267 7
3.250195 -3.8940907 -1.7449311 6
2.4021127 -2.877995 -1.7474258 8
2.5139649 -3.0551107 1.0443863 19
3.458699 -4.2032042 1.0518605 25
3.9619246 -4.8147521 0.8723163 2
8.1229563 -9.8714705 1.1099042 10
13.777688 -16.743416 1.1155043 21
9.4875441 -11.529794 0.50393832 9
13.800962 -19.506231 0.66451955 48
13.835738 -14.523878 0.43979445 53
9.4891863 -11.53179 0.23929617 30
13.854104 -19.581343 0.2428242 50
13.885842 -14.576474 0.085031211 42
9.4624338 -11.499278 -0.024691859 27
2.6613793 -3.7615845 -0.034743175 0
12.121881 -12.72478 -0.23619738 0
9.5318298 -11.583612 -0.290133 7
10.432261 -14.744921 -0.45594206 2
11.962678 -12.557659 -0.53989357 0
9.4788103 -11.51918 -0.5530057 21
9.2464962 -13.068966 -0.68778068 0
9.4685888 -11.506758 -0.81617528 27
8.9428816 -12.639838 -0.93887794 0
11.862228 -12.452214 -1.144398 0
9.4554405 -11.49078 -1.0784298 44
2.6832652 -3.7925179 -0.36399776 1
12.643788 -13.272645 -1.5441366 5
9.484971 -11.526667 -1.3458959 43
2.6676621 -3.7704642 -0.44359577 18
10.784152 -11.320518 -1.5939314 4
9.4761105 -11.515899 -1.608538 29
8.4329338 -10.248173 -1.6667291 2
7.3867531 -8.9767952 -1.6657014 2
6.6294188 -8.0564404 -1.6814305 3
6.0171175 -7.3123374 -1.6936395 3
5.4864502 -6.6674409 -1.6982623 2
5.0398698 -6.1247315 -1.7005643 4
4.6693339 -5.6744356 -1.7058817 4
4.3670259 -5.307054 -1.7167736 7
3.2229309 -3.9166856 -1.7449311 6
2.3934808 -2.9086916 -1.7558756 6
2.4741466 -3.0476956 1.0362191 17
3.4406471 -4.2382469 1.0548961 19
6.229423 -7.6735082 1.3827378 19
8.0070744 -9.8632498 1.1029845 11
9.3786116 -11.552732 0.765522 42
9.3655128 -11.536596 0.50150973 41
13.843191 -14.726045 0.44312623 45
9.3519974 -11.519949 0.23775811 29
2.643178 -3.7889078 0.046767041 18
13.88201 -14.767339 0.085605636 34
9.3304958 -11.493462 -0.024545949 36
2.6386611 -3.782433 -0.034773335 27
11.955035 -12.71747 -0.23458473 1
9.3791761 -11.553427 -0.28781256 38
2.6378961 -3.7813361 -0.11638282 35
11.788761 -12.540592 -0.53578651 0
9.3568554 -11.525931 -0.55033845 48
2.6500235 -3.7987204 -0.19898596 20
11.744867 -12.493899 -0.83715647 0
9.3417177 -11.507285 -0.81180018 45
2.6476047 -3.7952535 -0.28059813 33
11.724707 -12.472453 -1.1390862 0
9.3362761 -11.500583 -1.0735147 43
2.6329558 -3.7742546 -0.36056086 41
12.664683 -13.472377 -1.5575669 4
9.3580961 -11.527461 -1.3387121 37
2.6198153 -3.7554181 -0.43977165 56
10.697931 -11.380195 -1.5923088 2
9.3418751 -11.50748 -1.5986724 33
8.3697824 -10.310039 -1.6677259 2
7.3095846 -9.0040703 -1.6617301 2
6.5907741 -8.1186266 -1.685249 3
5.9660063 -7.3490272 -1.6929352 3
5.4470563 -6.7097759 -1.6998062 3
5.0089984 -6.1701684 -1.7039185 4
4.631597 -5.7052789 -1.7058817 4
4.3366241 -5.3419266 -1.7187123 6
3.1921155 -3.932102 -1.7423288 6
2.3627117 -2.9104283 -1.7474258 5
2.4552259 -3.0679135 1.03724 20
3.3913434 -4.2376337 1.0488248 10
6.1534228 -7.6889739 1.3777499 23
7.8882217 -9.8566818 1.0960649 11
9.2577934 -11.568023 0.76223385 37
9.2297907 -11.533031 0.49854141 39
2.6044621 -3.789515 0.12787776 46
13.843354 -14.933774 0.44645801 58
9.2188663 -11.519382 0.23641232 26
2.6098664 -3.7973785 0.046645567 56
13.887348 -14.981232 0.086281426 39
9.2150383 -11.514599 -0.024453098 31
2.6076605 -3.7941687 -0.034713015 37
11.800702 -12.730225 -0.23329464 0
9.248312 -11.556175 -0.28626558 47
2.5933146 -3.7732954 -0.11557531 51
11.630257 -12.546353 -0.53255063 0
9.2287064 -11.531677 -0.54752302 52
2.6053314 -3.7907801 -0.19761246 43
11.575874 -12.487688 -0.83130497 0
9.2137384 -11.512974 -0.80764383 46
2.6029537 -3.7873204 -0.27866131 47
11.577655 -12.489609 -1.1332434 0
9.2009182 -11.496955 -1.0671539 46
2.5952499 -3.7761111 -0.35899863 51
12.586577 -13.578002 -1.5595814 4
9.2226286 -11.524082 -1.3308098 49
2.5957899 -3.7768972 -0.44015408 41
10.612811 -11.448766 -1.5914974 2
9.2215519 -11.522737 -1.5918093 38
8.3000803 -10.371318 -1.6682243 2
7.2960281 -9.1167097 -1.6730767 2
6.5314674 -8.1613579 -1.6846126 3
5.9170151 -7.3935719 -1.6936395 3
5.4025335 -6.7507048 -1.7005782 4
4.9682441 -6.2080412 -1.704757 5
4.5916538 -5.7374744 -1.7058817 4
4.2992249 -5.3720717 -1.7187123 7
3.1740401 -3.9661038 -1.7475336 7
2.3559275 -2.9438355 -1.7575656 6
2.4265618 -3.0758705 1.0341773 18
3.3397839 -4.2334561 1.0419946 4
6.0676966 -7.6913142 1.3705453 20
5.8693485 -7.4398913 0.82274067 13
9.1199007 -11.560239 0.75750715 33
9.1143837 -11.553246 0.49665248 39
2.5667343 -3.7910507 0.12732176 38
13.838593 -15.139265 0.44970211 53
9.0936317 -11.526941 0.23525877 27
2.5675952 -3.7923219 0.046362132 39
13.893071 -15.198863 0.086974107 39
9.084877 -11.515843 -0.024320453 32
2.5631688 -3.785784 -0.034471743 41
11.633286 -12.726685 -0.23173575 0
9.1079607 -11.545104 -0.28440922 51
2.5624251 -3.7846861 -0.11537343 44
11.469555 -12.547564 -0.5291903 0
9.1058865 -11.542475 -0.54500401 55
2.5698414 -3.7956395 -0.19692571 47
11.418331 -12.491525 -0.82623363 0
9.083662 -11.514303 -0.80326873 51
2.5674961 -3.7921755 -0.27769288 45
11.417475 -12.490589 -1.1260728 0
9.0710096 -11.498265 -1.0613716 46
2.5621173 -3.7842312 -0.35806131 47
12.494171 -13.668482 -1.5599171 4
9.095068 -11.528761 -1.3239852 53
2.56043 -3.7817392 -0.43862444 42
10.554107 -11.546073 -1.5947429 2
9.0866919 -11.518144 -1.5823725 42
8.2569704 -10.466402 -1.6742054 2
7.2297506 -9.1643152 -1.6725094 2
6.4816685 -8.2160587 -1.6865219 3
5.8774471 -7.4501572 -1.6971606 3
5.3528414 -6.7851753 -1.6998062 4
4.9465842 -6.2702107 -1.7123039 5
4.5683799 -5.7908044 -1.7122132 5
4.2568083 -5.3958616 -1.7167736 6
3.1439314 -3.9851966 -1.7462324 7
2.3263361 -2.9488261 -1.7508057 6
2.3931592 -3.0774703 1.0290728 21
5.1568885 -6.6314735 1.6233258 21
5.9822421 -7.6928329 1.3633406 18
5.8661933 -7.5436006 0.8296603 9
8.9899321 -11.560555 0.75339693 33
8.9795189 -11.547165 0.49368417 35
2.5335495 -3.7988977 0.12698817 37
13.836986 -15.351356 0.45312157 72
8.9638367 -11.526999 0.23397705 27
2.534399 -3.8001716 0.046240658 44
13.899104 -15.420273 0.087683685 42
8.9576082 -11.51899 -0.02419444 31
2.5322378 -3.7969308 -0.034411427 41
11.487921 -12.7452 -0.2306069 0
8.9854059 -11.554736 -0.28309432 48
2.5292847 -3.7925029 -0.11507061 38
11.330818 -12.570904 -0.52682561 0
8.9686489 -11.533187 -0.54159588 50
2.5321934 -3.7968643 -0.19606727 46
11.255949 -12.487842 -0.82077223 0
8.9613781 -11.523837 -0.79954988 24
2.5298824 -3.7933989 -0.27648237 46
11.257849 -12.489948 -1.118902 0
8.9366398 -11.492024 -1.0550108 6
2.5245726 -3.7854373 -0.35649908 43
12.422462 -13.782021 -1.5629389 3
8.9703436 -11.535366 -1.3175197 50
2.5162921 -3.7730212 -0.43556514 42
10.50255 -11.651987 -1.5992054 2
8.9621181 -11.524789 -1.5746515 26
8.1861391 -10.526922 -1.6747038 2
7.1850433 -9.2395687 -1.6770481 2
6.4411235 -8.2829285 -1.6909769 3
5.8397975 -7.5096564 -1.7013859 3
5.31739 -6.8378696 -1.7036659 3
4.8882856 -6.2860656 -1.7072725 4
4.5206671 -5.8133278 -1.7094997 4
4.2285652 -5.4377012 -1.7206511 7
3.1206777 -4.0130191 -1.7488348 7
2.3145957 -2.9764421 -1.7575656 6
2.3705359 -3.0949304 1.0290728 17
5.103363 -6.6628618 1.6218081 28
4.5791616 -5.9784732 1.0535408 2
5.8567786 -7.6465082 0.83623391 6
8.8636532 -11.572231 0.74990326 31
8.8581686 -11.565071 0.49166033 42
2.49247 -3.7973115 0.12632099 36
13.840928 -15.583934 0.45697939 45
8.8499155 -11.554296 0.23320803 31
2.4911108 -3.7952409 0.045957223 45
13.88663 -15.635391 0.088325687 38
8.8632011 -11.571641 -0.024167912 23
2.4889729 -3.7919836 -0.034200314 41
11.277321 -12.697488 -0.22824171 0
8.8493967 -11.553617 -0.28147 53
2.4904451 -3.7942269 -0.11456592 39
11.171991 -12.578894 -0.52371418 0
8.85956 -11.566887 -0.54011405 66
2.4933286 -3.7986197 -0.19520883 48
11.100432 -12.498324 -0.816091 1
8.8766642 -11.589217 -0.79954988 5
2.4910531 -3.7951529 -0.27527186 44
11.09973 -12.497534 -1.1122624 0
8.8836956 -11.598398 -1.0587693 28
2.4836271 -3.7838392 -0.35462442 40
12.289338 -13.836949 -1.5589099 2
8.8492069 -11.55337 -1.3121318 24
2.4798276 -3.7780507 -0.43403551 43
10.41157 -11.722712 -1.598394 3
8.8894882 -11.605961 -1.5767963 22
8.1159935 -10.596099 -1.6761991 2
7.1195288 -9.2951326 -1.6776154 2
6.3778324 -8.326787 -1.6903404 3
5.7917747 -7.5616403 -1.7034985 3
5.2838297 -6.8984756 -1.7090695 3
4.8492098 -6.3310442 -1.7097882 4
4.489778 -5.8617759 -1.7140222 4
4.1885915 -5.4685521 -1.7206511 6
3.0934772 -4.0387897 -1.750136 7
2.3037379 -3.0077202 -1.7660154 7
2.3372202 -3.0959709 1.0239682 19
5.0590892 -6.7014623 1.6225669 28
4.5134439 -5.9786797 1.0479988 4
7.4479485 -9.8658361 1.0732303 9
8.7730207 -11.621077 0.74908125 30
8.818161 -11.680872 0.493954 25
2.4615583 -3.8079031 0.12609859 35
13.839816 -15.80353 0.46057421 57
8.8316889 -11.698791 0.23487425 25
2.4558697 -3.7991025 0.045795258 40
13.893087 -15.864359 0.089069054 43
8.8761911 -11.75774 -0.024426568 25
2.4428971 -3.7790349 -0.033928882 42
11.167321 -12.751838 -0.22781166 0
8.8118944 -11.67257 -0.28286228 43
2.4530425 -3.7947292 -0.11406122 39
11.031221 -12.596427 -0.52122504 0
8.8532515 -11.727354 -0.54470766 39
2.4537323 -3.7957962 -0.19417872 44
10.933943 -12.485346 -0.81023949 0
8.8773584 -11.759287 -0.80698752 35
2.4579954 -3.8023911 -0.27454555 40
10.933327 -12.484643 -1.1042949 0
8.8962526 -11.784315 -1.0700452 42
2.4484916 -3.7876894 -0.35337463 42
10.992365 -12.552057 -1.4054699 0
8.8571453 -11.732512 -1.3254219 39
2.4425843 -3.7785511 -0.43212345 42
10.363558 -11.834029 -1.6036679 2
8.8825274 -11.766133 -1.5900935 30
8.0442123 -10.655669 -1.6766975 2
7.0568485 -9.3477707 -1.6781827 2
6.3385797 -8.3963242 -1.6954318 3
5.7435884 -7.6081758 -1.7049069 3
5.2331753 -6.9320631 -1.7082975 4
4.8025365 -6.3616223 -1.7089497 4
4.4557886 -5.902307 -1.7167357 4
4.1573262 -5.5069523 -1.7235593 7
3.0652056 -4.060288 -1.750136 7
2.2761307 -3.0150495 -1.7609456 6
2.3086233 -3.1029036 1.0209055 17
4.9957705 -6.7145615 1.6172545 30
4.4503131 -5.9814401 1.043011 6
7.3503451 -9.8792257 1.0690786 8
8.7846727 -11.807033 0.75709611 28
8.8246927 -11.860823 0.49894619 27
2.4241784 -3.80813 0.1255426 35
13.838923 -16.026886 0.4642567 59
8.8429089 -11.885304 0.23737359 23
2.4142518 -3.7925365 0.045511819 43
13.899636 -16.097198 0.089829318 40
8.8726835 -11.925324 -0.024645433 24
2.412159 -3.7892489 -0.033868562 43
10.99438 -12.732615 -0.22609152 0
8.8161297 -11.849313 -0.2856468 37
2.4157541 -3.7948964 -0.11355653 39
10.85679 -12.573271 -0.51711798 0
8.8522892 -11.897913 -0.54974574 39
2.4228809 -3.8060918 -0.19383533 45
10.789072 -12.494847 -0.80594838 0
8.8713379 -11.923515 -0.81398773 33
2.4185255 -3.7992499 -0.27309293 41
10.785911 -12.491186 -1.0981865 0
8.9090242 -11.974168 -1.0816101 28
2.4155645 -3.7945988 -0.35243732 41
10.797666 -12.5048 -1.391704 0
8.8534975 -11.899536 -1.3372753 36
2.4054549 -3.7787175 -0.4302114 44
10.296295 -11.924162 -1.606102 2
8.8856287 -11.942723 -1.6055355 27
7.9814706 -10.727489 -1.6791897 2
7.0197797 -9.4349298 -1.6849908 2
6.2868795 -8.4498758 -1.6973411 3
5.6997347 -7.6607242 -1.7077239 3
5.1987095 -6.9873219 -1.7129291 4
4.7720146 -6.4138227 -1.7139809 3
4.4191256 -5.9395227 -1.7185447 4
4.1257286 -5.5451822 -1.7264674 6
3.0345266 -4.0785532 -1.7488348 7
2.2506979 -3.025049 -1.7575656 7
2.2902813 -3.1212649 1.0219264 22
4.9488044 -6.744381 1.6164956 24
4.3941398 -5.9884672 1.0391316 9
7.2398691 -9.8667145 1.0625049 7
8.7865219 -11.97454 0.76408345 26
8.8286104 -12.031898 0.50366849 25
2.3776207 -3.7902527 0.12443062 36
13.846435 -16.252256 0.46811455 59
8.8490658 -12.059776 0.23968068 21
2.378418 -3.7915235 0.045309365 39
13.891144 -16.304733 0.09047132 43
8.8643875 -12.080657 -0.024844401 6
2.3763466 -3.7882216 -0.03371777 43
10.847439 -12.732184 -0.22480142 0
8.815424 -12.013928 -0.28819931 34
2.3777823 -3.7905104 -0.11295089 41
10.692782 -12.550655 -0.51325983 0
8.8559504 -12.069159 -0.554932 39
2.3848424 -3.801765 -0.19280522 40
10.646372 -12.496181 -0.80146223 0
8.8511333 -12.062594 -0.81945658 7
2.3805442 -3.7949128 -0.2716403 46
10.638119 -12.486494 -1.0915469 0
2.3839872 -3.8004017 -0.35149997 43
10.652453 -12.50332 -1.3836458 0
8.8568687 -12.070411 -1.3498471 24
2.369761 -3.7777233 -0.42829937 41
10.23763 -12.01642 -1.6093475 2
8.8697491 -12.087964 -1.6171169 10
7.9242349 -10.799389 -1.6821802 2
6.9687619 -9.497241 -1.6878275 2
6.2447166 -8.5104895 -1.7011596 3
5.6394835 -7.6856599 -1.7049069 3
5.1568971 -7.0279765 -1.714473 4
4.7316847 -6.4484844 -1.7148194 4
4.3842459 -5.9749842 -1.7203537 4
4.084269 -5.5661659 -1.7245287 6
3.0051723 -4.09554 -1.7475336 7
2.2370198 -3.0486786 -1.7626355 7
2.2729681 -3.1434455 1.0239682 22
4.8900948 -6.7628522 1.6127009 24
4.3290148 -5.9868956 1.0335896 9
7.1311173 -9.8621187 1.0566232 6
8.7705927 -12.129464 0.77004319 2
13.918891 -19.249403 0.80171394 35
2.3447983 -3.7965529 0.12409703 37
13.843237 -16.480196 0.47188473 56
13.948464 -19.290302 0.38143834 33
2.3413813 -3.7910199 0.04510691 43
13.905613 -16.554455 0.091316052 43
10.82362 -14.968738 -0.03062772 13
2.3477402 -3.801316 -0.03368761 44
10.69912 -12.737165 -0.22356506 0
2.3386543 -3.7866046 -0.11234526 41
10.610045 -12.631124 -0.51350874 0
2.3477433 -3.801321 -0.19194677 46
10.4972 -12.496781 -0.796781 0
9.0803061 -12.557788 -0.84876978 0
2.3476987 -3.8012488 -0.27091399 41
10.491645 -12.490169 -1.0854385 0
9.046752 -12.511383 -1.1189071 2
2.3406336 -3.7898092 -0.34900042 43
10.500813 -12.501082 -1.375252 1
2.3370531 -3.7840118 -0.42715213 39
10.176525 -12.115024 -1.6129986 3
8.9505959 -12.378402 -1.6475719 3
7.8463244 -10.851229 -1.6816818 2
2.7168348 -3.7572999 -0.66435158 7
6.1851521 -8.5538769 -1.7011596 2
5.599535 -7.7439871 -1.7091322 1
2.7182851 -3.7593057 -0.91243005 4
2.7156794 -3.755702 -0.99367291 19
4.3447104 -6.0086026 -1.7212582 3
2.7150657 -3.7548535 -1.1574408 11
2.7061176 -3.7424784 -1.5887852 0
2.2199309 -3.070097 -1.7660154 7
2.2464788 -3.1529377 1.0219264 22
4.8518777 -6.8096204 1.6157366 27
4.261827 -5.981483 1.0274934 9
7.0366564 -9.8759623 1.0528175 6
12.55451 -17.620281 1.1130382 1
13.839841 -19.424246 0.80495209 59
2.3078511 -3.7957473 0.12354103 34
13.845179 -16.718119 0.47591794 65
13.883077 -19.484928 0.38336092 27
2.310703 -3.8004377 0.04502593 40
12.427316 -15.006042 0.082294263 12
10.674754 -14.982039 -0.030501708 12
2.3107557 -3.8005245 -0.033536814 40
9.5435848 -11.523924 -0.20109567 10
10.679734 -14.98903 -0.35595629 0
2.3038533 -3.7891722 -0.11194149 39
9.5194254 -11.494751 -0.4645972 26
9.658453 -13.555659 -0.61701918 0
2.3107681 -3.800545 -0.19108833 49
9.5432863 -11.523563 -0.73046386 0
2.7023599 -3.7927678 -0.25506845 0
2.3086591 -3.797076 -0.26946136 46
9.5335693 -11.51183 -0.99460906 21
8.9406652 -12.548244 -1.1165941 2
2.3099761 -3.7992423 -0.34837553 44
9.5234756 -11.499641 -1.2577378 39
8.9417686 -12.549791 -1.3893583 0
2.2940314 -3.7730176 -0.42409283 40
9.5053844 -11.477797 -1.5192857 39
8.9031916 -12.495648 -1.654864 2
7.777287 -10.915439 -1.683177 0
2.6905377 -3.7761753 -0.66435158 14
2.6788092 -3.7597146 -0.74397892 14
2.6709917 -3.7487426 -0.82322848 1
2.6646442 -3.7398338 -0.90316677 1
2.6371942 -3.7013078 -0.97438639 1
2.6724856 -3.7508392 -1.0691156 1
2.6797781 -3.7610741 -1.1535633 1
2.6733398 -3.752038 -1.5848815 16
2.1879246 -3.0707569 -1.7575656 9
2.214422 -3.1566558 1.0178428 21
4.8018303 -6.8450036 1.6157366 30
4.199666 -5.986619 1.0230597 9
2.6730325 -3.8104045 0.40410477 1
13.608782 -19.399302 1.2190809 19
13.844018 -19.734631 0.81358719 6
2.2697041 -3.7954044 0.12298505 34
9.4296274 -11.557749 0.32704014 60
2.6597745 -3.7915056 0.074211292 1
2.2704651 -3.7966771 0.044782985 43
9.4141092 -11.538728 0.062899105 40
2.6601126 -3.7919872 -0.0076801432 25
2.2725699 -3.8001966 -0.033386018 37
9.4007015 -11.522294 -0.19985932 36
2.6504319 -3.7781875 -0.089259788 0
2.2678063 -3.7922308 -0.11153774 40
9.3843613 -11.502266 -0.46210808 39
2.6743593 -3.8122959 -0.17262904 2
2.2725911 -3.8002322 -0.19022989 47
9.4080458 -11.531297 -0.72656286 29
2.6584289 -3.7895873 -0.25353715 22
2.2725663 -3.8001904 -0.26849294 44
9.3883734 -11.507184 -0.98823506 50
2.6462846 -3.7722754 -0.33393738 40
2.2636442 -3.7852712 -0.34556353 42
9.3834896 -11.501198 -1.2503512 42
2.6630967 -3.796241 -0.41810057 6
2.2581377 -3.7760632 -0.4225632 40
9.3782282 -11.494749 -1.5123891 39
2.6493447 -3.7766378 -0.49757445 33
2.6507802 -3.7786841 -0.57966685 40
2.6491411 -3.7763474 -0.66094756 55
2.6557131 -3.7857156 -0.74525172 1
2.6411793 -3.764998 -0.82252431 23
2.6439204 -3.7689054 -0.90548259 11
2.6571603 -3.7877789 -0.99199581 33
2.6337304 -3.7543797 -1.0645932 17
2.6454501 -3.771086 -1.1506552 3
2.6479363 -3.7746301 -1.5861827 42
2.1674383 -3.0896807 -1.7592555 6
2.1923304 -3.1720383 1.0178428 22
4.73383 -6.8492827 1.6089064 5
2.6194398 -3.7900143 0.6445387 29
2.6123798 -3.7797992 0.39891505 27
2.6164727 -3.7857213 0.23674667 29
2.616169 -3.7852819 0.15529665 26
2.2431517 -3.8111575 0.12298505 36
9.3010912 -11.56409 0.32537425 42
2.6127748 -3.780371 0.07363452 25
2.2398462 -3.8055415 0.044702001 41
9.2831879 -11.54183 0.062561214 47
2.6244776 -3.7973034 -0.007653614 43
2.2378685 -3.8021812 -0.033265382 43
9.2648859 -11.519075 -0.19867672 37
2.6194429 -3.790019 -0.089105092 26
2.2311344 -3.79074 -0.11103304 40
9.2587299 -11.511422 -0.45986786 42
2.6226797 -3.7947023 -0.17099908 41
2.239924 -3.8056736 -0.18971483 50
9.2847471 -11.543769 -0.72324699 43
2.6091993 -3.7751977 -0.2513496 42
2.2378795 -3.8021998 -0.26752454 46
9.2652874 -11.519575 -0.98372012 46
2.6198847 -3.790658 -0.33393738 43
2.2290719 -3.7872355 -0.34431374 44
9.2580032 -11.510519 -1.2443075 42
2.6116133 -3.7786903 -0.41414946 44
2.2317207 -3.7917361 -0.4225632 44
9.2378969 -11.485519 -1.5026526 46
2.6161308 -3.7852266 -0.49628761 52
2.6153097 -3.7840385 -0.57767314 45
2.6024513 -3.7654343 -0.65584153 43
2.613502 -3.7814233 -0.7407968 21
2.6058753 -3.7703881 -0.81970745 51
2.6086183 -3.7743571 -0.90239483 47
2.6106384 -3.7772799 -0.98444891 40
2.6030252 -3.7662647 -1.0627842 39
2.5992005 -3.7607305 -1.1419307 41
2.6086166 -3.7743547 -1.5783755 30
2.1499381 -3.1107018 -1.7626355 7
2.1723094 -3.1904628 1.0188637 21
2.5838754 -3.7949286 0.88717526 27
2.5862288 -3.7983851 0.64287609 39
2.5814433 -3.7913568 0.3982231 32
2.5877321 -3.8005929 0.23654115 34
2.5874298 -3.800149 0.15516174 33
2.2044659 -3.8059652 0.12231786 39
9.1704407 -11.56607 0.32362068 43
2.579567 -3.7886009 0.073442265 23
2.2011955 -3.8003187 0.044459056 42
9.1551676 -11.546805 0.062240213 48
2.5866482 -3.799001 -0.0076204529 34
2.1952317 -3.7900224 -0.03302411 40
9.1419973 -11.530196 -0.19776289 36
2.5884187 -3.8016014 -0.088950396 38
2.2026114 -3.8027637 -0.1109321 44
9.1284609 -11.513123 -0.45737872 45
2.5938749 -3.8096149 -0.1708509 49
2.2032857 -3.8039277 -0.18885639 48
9.1443586 -11.533173 -0.71856582 41
2.5850284 -3.7966223 -0.25156835 46
2.2032762 -3.8039112 -0.26655611 47
9.1400061 -11.527684 -0.97893965 49
2.5731499 -3.779176 -0.33133528 46
2.192584 -3.7854514 -0.34275153 44
9.1278925 -11.512405 -1.2375925 41
2.5829279 -3.7935371 -0.41379026 50
2.1952169 -3.7899966 -0.42065117 46
9.1105137 -11.490486 -1.4949447 48
2.5784509 -3.7869616 -0.49414289 57
2.5687261 -3.7726789 -0.57318729 45
2.5694156 -3.7736914 -0.65413952 46
2.5803723 -3.7897837 -0.73888749 44
2.570626 -3.7754695 -0.81689054 45
2.57337 -3.7794993 -0.89930713 46
2.570998 -3.7760158 -0.97941768 38
2.574476 -3.7811239 -1.0618798 36
2.5706987 -3.7755764 -1.1409613 48
2.563045 -3.7643352 -1.5666645 30
2.1281695 -3.1256349 -1.7626355 7
2.1456742 -3.199127 1.0168219 22
2.5485682 -3.7998283 0.8841396 36
2.5530283 -3.8064783 0.64121348 33
2.5460329 -3.7960482 0.39683917 32
2.5522354 -3.8052957 0.23571911 32
2.55861 -3.8148 0.15502681 31
2.1679423 -3.8038929 0.12176187 44
9.0402193 -11.566792 0.32186711 43
2.5396881 -3.7865882 0.073057748 24
2.1647084 -3.7982185 0.044256601 46
9.0226059 -11.544256 0.061885424 49
2.5466948 -3.797035 -0.0075806594 32
2.1627769 -3.7948298 -0.032933634 46
9.0070934 -11.524409 -0.19658029 39
2.546222 -3.79633 -0.088408962 46
2.1700695 -3.8076255 -0.11062929 46
9.0010834 -11.516719 -0.45501405 41
2.556083 -3.8110323 -0.17011 54
2.1687605 -3.8053288 -0.18816964 52
9.0144129 -11.533773 -0.71466482 47
2.5451117 -3.7946746 -0.25025582 46
2.1707351 -3.8087933 -0.2658298 48
9.0150652 -11.534609 -0.97415912 50
2.5422592 -3.7904215 -0.33075702 50
2.1641285 -3.7972014 -0.34243909 46
9.0006628 -11.51618 -1.2312131 36
2.5408478 -3.7883172 -0.41127592 50
2.1549034 -3.7810149 -0.41797429 47
8.9639091 -11.469155 -1.4839911 7
2.5386586 -3.7850533 -0.49156922 56
2.5312715 -3.7740393 -0.57069522 45
2.5385966 -3.784961 -0.65300488 44
2.5406535 -3.7880275 -0.73506898 46
2.5398192 -3.7867837 -0.81548214 50
2.5338039 -3.7778153 -0.89467549 43
2.538038 -3.784128 -0.97690201 38
2.5328236 -3.7763536 -1.0555482 36
2.5377929 -3.7837625 -1.1380532 45
2.5303819 -3.7727129 -1.5627608 33
2.1042771 -3.1374054 -1.7609456 7
2.1296833 -3.2237091 1.0198846 22
2.5133195 -3.8044205 0.88110393 39
2.5154741 -3.8076823 0.63844246 33
2.5018971 -3.7871306 0.39407134 28
2.5101941 -3.7996895 0.23428056 31
2.5142868 -3.8058846 0.15394743 31
2.1354675 -3.8084719 0.12142827 41
8.9104376 -11.566264 0.32011354 44
2.4977589 -3.7808666 0.072609149 22
2.1303148 -3.7992828 0.044094637 39
8.8978519 -11.549928 0.061581317 47
2.5113051 -3.8013713 -0.0075541306 31
2.1244948 -3.7889028 -0.032752682 43
8.8922462 -11.542652 -0.19582772 40
2.5064301 -3.7939923 -0.087944873 45
2.1317015 -3.8017554 -0.11002365 44
8.8887434 -11.538104 -0.45339611 45
2.5117881 -3.8021026 -0.16892457 50
2.1382334 -3.8134048 -0.18782628 48
8.8946609 -11.545786 -0.71154398 11
2.5053487 -3.7923551 -0.2489433 45
2.1284709 -3.795994 -0.26389298 42
8.8709898 -11.515059 -0.96725398 32
2.50474 -3.7914338 -0.3293114 44
2.1278157 -3.7948253 -0.34087685 45
8.8640976 -11.506113 -1.2234907 13
2.5033591 -3.7893434 -0.40947995 50
2.1206658 -3.7820742 -0.41644463 38
8.9103355 -11.566133 -1.4884537 19
2.5012116 -3.7860928 -0.48942453 55
2.4961116 -3.7783728 -0.56870151 44
2.4902854 -3.7695539 -0.64733148 41
2.507616 -3.7957876 -0.73315972 46
2.4959576 -3.7781396 -0.80984843 49
2.4943881 -3.775764 -0.89004385 40
2.4986231 -3.7821748 -0.97187078 37
2.4978073 -3.7809398 -1.0519303 37
2.4963417 -3.7787213 -1.1312675 41
2.4914725 -3.7713506 -1.5549536 34
2.0843213 -3.1550443 -1.7626355 7
2.1303272 -3.274158 1.0311146 22
2.4695632 -3.7955391 0.8750326 40
2.4758675 -3.8052282 0.63511723 33
2.4645302 -3.7878036 0.39234143 27
2.4705341 -3.7970312 0.2330475 28
2.476754 -3.8065908 0.15327281 31
2.0991716 -3.8057816 0.12087228 37
8.7907801 -11.577228 0.31871068 49
2.4625778 -3.7848029 0.072352804 27
2.0960119 -3.8000531 0.043932673 41
8.8218412 -11.618134 0.061615106 33
2.4737978 -3.8020473 -0.007520969 32
2.0941279 -3.7966378 -0.032692362 41
8.8549862 -11.661784 -0.19679531 24
2.4646144 -3.7879333 -0.087403432 42
2.0915892 -3.7920349 -0.10931708 39
8.8780937 -11.692217 -0.45700535 29
2.4721031 -3.799443 -0.16803549 52
2.098048 -3.8037446 -0.18662445 46
8.8210897 -11.617145 -0.71212912 17
2.4635644 -3.7863193 -0.24741201 40
2.0980616 -3.8037691 -0.26340878 43
8.8531399 -11.659353 -0.97415912 43
2.4651549 -3.7887638 -0.32757667 39
2.0935669 -3.7956207 -0.33962709 37
8.892025 -11.710564 -1.2385998 30
2.4659798 -3.7900317 -0.407684 48
2.086518 -3.7828412 -0.414915 41
8.9232264 -11.751655 -1.5042753 33
2.4638741 -3.7867954 -0.4872798 52
2.4566858 -3.7757473 -0.56571096 43
2.4617486 -3.7835288 -0.64676416 39
2.4616721 -3.7834108 -0.72743189 44
2.4609306 -3.7822714 -0.80703151 44
2.4594054 -3.7799273 -0.8869561 38
2.4593596 -3.7798569 -0.96683955 34
2.4543505 -3.7721581 -1.0446943 34
2.4593179 -3.779793 -1.1264206 41
2.4547684 -3.7728004 -1.5484475 31
2.0661983 -3.1755967 -1.7660154 6
2.1178508 -3.3052318 1.0362191 22
2.4324121 -3.7961531 0.87123799 39
2.4300077 -3.7924008 0.6301294 32
2.4272776 -3.7881398 0.39061153 28
2.4331908 -3.7973683 0.23201996 27
2.4350219 -3.8002262 0.15232834 31
2.0592041 -3.7957416 0.1200939 35
8.7912083 -11.747176 0.32169175 28
2.4296224 -3.7917993 0.072160549 24
2.0598948 -3.7970145 0.043730218 41
8.8267956 -11.794729 0.062223319 34
2.427773 -3.788913 -0.0074612787 33
2.0580344 -3.7935855 -0.032541566 39
8.8500414 -11.825791 -0.19851546 23
2.4316378 -3.7949445 -0.087171391 42
2.0555308 -3.7889705 -0.10881238 42
8.8705111 -11.853143 -0.4608635 29
2.4368927 -3.8031456 -0.16744277 50
2.0619133 -3.800735 -0.18576601 42
8.8283434 -11.796797 -0.71934599 33
2.4262979 -3.7866108 -0.24631824 44
2.0657432 -3.807795 -0.26268247 39
8.8552246 -11.832717 -0.98345453 32
2.4300356 -3.792444 -0.32642016 43
2.059411 -3.796123 -0.3383773 40
8.8912516 -11.880857 -1.2500154 29
2.4308639 -3.7937369 -0.4062472 46
2.048666 -3.7763164 -0.41262054 44
8.9196491 -11.918803 -1.5176629 30
2.4309413 -3.7938578 -0.48599297 52
2.4217021 -3.7794387 -0.56371725 40
2.4160497 -3.7706172 -0.64165813 39
2.4266775 -3.7872036 -0.72488618 47
2.4174716 -3.7728362 -0.8013978 45
2.4223702 -3.7804813 -0.8830964 41
2.4181416 -3.7738817 -0.96096975 36
2.41114 -3.7629547 -1.0374583 33
2.4161215 -3.7707293 -1.1186656 42
2.4222484 -3.7802911 -1.5445439 33
2.040067 -3.1838381 -1.7626355 7
2.1029794 -3.3330202 1.0403028 20
2.4016595 -3.8063993 0.86972016 38
2.3907895 -3.7891715 0.62680417 35
2.3901398 -3.788142 0.38888165 31
2.3895679 -3.7872353 0.23037589 28
2.3998992 -3.8036096 0.15178865 30
2.0251265 -3.7959139 0.1196491 37
8.7873144 -11.914471 0.32458514 27
2.3966892 -3.7985218 0.071968287 23
2.0258057 -3.7971871 0.043568257 42
8.8202124 -11.959076 0.062763952 34
2.3884554 -3.7854722 -0.0074214856 34
2.025852 -3.7972739 -0.032451089 42
8.8527317 -12.003167 -0.20045061 27
2.3965485 -3.7982988 -0.086861998 44
2.0196176 -3.7855883 -0.10830769 42
8.8824673 -12.043486 -0.46584177 30
2.4038835 -3.8099239 -0.16699824 51
2.0296857 -3.8044598 -0.18525095 48
8.8311415 -11.973894 -0.72636783 31
2.389147 -3.7865684 -0.24522446 42
2.0259538 -3.7974648 -0.26098773 44
8.8553152 -12.006671 -0.99274993 33
2.3907268 -3.7890723 -0.32468542 44
2.0291049 -3.8033712 -0.3377524 43
8.8837986 -12.04529 -1.2607596 16
2.3936901 -3.7937689 -0.40445125 48
2.0222526 -3.7905269 -0.41262054 47
8.8858242 -12.048038 -1.5261823 4
2.3959074 -3.7972829 -0.48427719 49
2.3889043 -3.7861836 -0.562222 45
2.389667 -3.7873926 -0.64165813 42
2.393857 -3.7940333 -0.72297692 46
2.3763657 -3.7663112 -0.79646832 50
2.3917298 -3.7906621 -0.88155252 43
2.3833878 -3.7774405 -0.95761555 37
2.3868902 -3.7829914 -1.0383627 34
2.3918087 -3.790787 -1.119635 42
2.3857062 -3.7811148 -1.5380378 32
2.0235937 -3.2072015 -1.7677054 7
2.0787857 -3.34361 1.0392818 18
2.368067 -3.808903 0.8666845 39
2.3614228 -3.7982159 0.62569577 34
2.3628592 -3.8005266 0.38853565 32
2.3601789 -3.7962153 0.22996487 29
2.3682873 -3.8092573 0.15138389 30
1.9980484 -3.8057208 0.1195379 36
8.7974873 -12.095383 0.32791692 27
2.3545499 -3.7871614 0.071455605 23
1.9968593 -3.8034556 0.043487273 46
8.7971697 -12.094946 0.06316942 5
2.3590727 -3.794436 -0.0074082208 35
2.0043421 -3.8177083 -0.032511409 44
2.3586349 -3.7937319 -0.086397909 44
1.9981846 -3.80598 -0.10850957 45
2.3722303 -3.8155992 -0.16655369 49
1.9988366 -3.8072221 -0.18473589 51
8.8361349 -12.148518 -0.73338962 2
2.3597631 -3.7955465 -0.24478695 45
2.0025804 -3.8143528 -0.26122984 45
2.3571184 -3.7912924 -0.32352895 45
2.0038362 -3.8167446 -0.3377524 43
2.3579593 -3.792645 -0.40265527 50
2.0063233 -3.8214819 -0.4145326 40
9.4517574 -12.994917 -1.638151 1
2.3580713 -3.7928255 -0.48170352 50
2.3574543 -3.7918329 -0.5607267 42
2.3435893 -3.7695317 -0.63598478 44
2.3561311 -3.7897046 -0.71915841 46
2.3513341 -3.7819891 -0.79646832 52
2.3520305 -3.7831092 -0.876149 43
2.3541524 -3.7865222 -0.95593846 38
2.3494041 -3.7788846 -1.0329359 36
2.3502226 -3.7802012 -1.1118799 45
2.3485937 -3.777581 -1.5302304 34
2.0118494 -3.2359467 -1.7761552 7
2.0614493 -3.3679373 1.0423445 22
2.3311665 -3.8085935 0.86288989 39
2.3245084 -3.7977157 0.62292475 33
2.3175454 -3.7863398 0.38542184 30
2.3273623 -3.8023784 0.22934833 29
2.3353751 -3.8154693 0.15097912 33
1.9695971 -3.8160241 0.11942671 45
13.861327 -19.339891 0.52168602 55
2.3217893 -3.7932732 0.071263351 23
1.9739267 -3.8244126 0.043568257 44
10.993761 -15.338946 0.079709373 2
2.3262606 -3.8005784 -0.007388324 30
1.9886482 -3.8529348 -0.032692362 25
10.724917 -14.963845 -0.24743207 0
2.3279166 -3.8032837 -0.086243212 46
1.9917393 -3.8589239 -0.1096199 25
10.639175 -14.844214 -0.56851864 7
2.333014 -3.8116117 -0.16566461 47
1.9795403 -3.8352888 -0.18542264 41
9.1118603 -12.713241 -0.76362246 0
2.3227823 -3.7948954 -0.24369317 46
1.9905522 -3.8566239 -0.26316667 30
8.9956293 -12.551071 -1.0275414 1
2.3180962 -3.7872393 -0.32179418 50
1.9917734 -3.85899 -0.34025198 25
8.9767408 -12.524717 -1.2980283 2
2.3210251 -3.7920246 -0.40085933 51
1.9978575 -3.8707776 -0.41835669 25
9.3770351 -13.083224 -1.6409907 0
2.3170018 -3.7854514 -0.47870094 58
2.3143494 -3.7811182 -0.55673933 44
2.3048131 -3.7655382 -0.63258076 43
2.3172467 -3.7858517 -0.71533984 44
2.3166513 -3.784879 -0.79365146 49
2.3112195 -3.7760046 -0.87074542 44
2.3133674 -3.7795136 -0.95006865 37
2.3127944 -3.7785778 -1.0284133 37
2.3136446 -3.7799668 -1.107033 47
2.3103161 -3.7745287 -1.5224231 33
1.983531 -3.2406366 -1.7710854 7
2.0279074 -3.3656826 1.03724 23
2.2923608 -3.8045914 0.85833639 39
2.2897618 -3.8002779 0.62070793 33
2.28283 -3.7887733 0.38403791 30
2.2925146 -3.8048465 0.22852629 28
2.2921767 -3.8042858 0.14989974 28
1.9555717 -3.8546424 0.1202051 23
13.806713 -19.550522 0.52475476 49
2.2890594 -3.7991118 0.071071088 26
1.9725142 -3.8880379 0.044135127 27
10.900251 -15.434926 0.079810739 1
2.2852213 -3.792742 -0.0073418985 30
1.9816077 -3.9059625 -0.03302411 21
2.6487024 -3.7506042 -0.061710194 0
2.2868612 -3.7954638 -0.085701779 44
1.9973153 -3.9369237 -0.1114368 21
2.6614971 -3.7687218 -0.14362314 8
2.2980964 -3.8141105 -0.1650719 48
1.9726053 -3.8882179 -0.1873112 29
2.6573141 -3.7627981 -0.22489315 0
2.2900496 -3.8007555 -0.24303691 44
1.9888694 -3.9202759 -0.26655611 30
2.679934 -3.7948284 -0.30913883 0
2.281306 -3.7862439 -0.32034859 44
1.9954556 -3.9332583 -0.34556353 24
2.6717837 -3.7832875 -0.39014715 17
2.2801042 -3.7842491 -0.39834496 51
2.005013 -3.9520969 -0.42562249 23
2.6513517 -3.7543554 -0.46856475 28
2.2823091 -3.7879086 -0.47698516 52
2.2756073 -3.7767859 -0.55374879 45
2.2702959 -3.7679703 -0.63031137 42
2.286685 -3.7951713 -0.71406698 42
2.2820439 -3.7874689 -0.79083455 49
2.2726493 -3.7718766 -0.86611378 41
2.2768335 -3.7788212 -0.94587594 37
2.2742944 -3.7746069 -1.0229863 36
2.2751834 -3.7760823 -1.1012167 45
2.2721972 -3.7711263 -1.5146159 30
1.9608597 -3.2544045 -1.7710854 6
2.0240891 -3.4130237 1.047449 22
2.2577305 -3.8069906 0.85530072 37
2.257113 -3.8059492 0.61904532 31
2.2481928 -3.7909079 0.38265401 27
2.2475567 -3.7898355 0.22667672 32
2.2655618 -3.8201957 0.14989974 28
1.9589431 -3.929033 0.12209547 23
2.6403325 -3.7946999 0.10135614 6
2.2543201 -3.80124 0.070814751 23
1.972093 -3.9554074 0.044742495 27
2.6477971 -3.805428 0.019581001 37
2.2525663 -3.7982826 -0.0073220017 29
1.9846312 -3.9805551 -0.033536814 22
2.6270223 -3.7755704 -0.061817702 12
2.2541881 -3.8010173 -0.08546973 43
1.9911923 -3.9937148 -0.11264807 22
2.6282711 -3.777365 -0.14324977 43
2.255101 -3.8025565 -0.16388646 51
1.975726 -3.9626939 -0.19022989 26
2.6241341 -3.7714195 -0.224308 27
2.2512355 -3.7960386 -0.24172439 46
1.9899565 -3.991236 -0.27042979 29
2.6191826 -3.7643032 -0.30515507 30
2.2426071 -3.7814894 -0.31861383 46
1.996417 -4.0041938 -0.35056263 24
2.6202645 -3.7658579 -0.38645387 62
2.2475331 -3.7897956 -0.3972674 50
1.9951396 -4.0016317 -0.42944658 25
2.6364403 -3.7891059 -0.47059315 42
2.2497232 -3.7934885 -0.47569832 54
2.2370379 -3.7720985 -0.55075824 43
2.2378757 -3.7735112 -0.62860936 42
2.2480476 -3.790663 -0.71024847 44
2.2434957 -3.7829876 -0.78660929 49
2.2362514 -3.7707722 -0.86225408 41
2.2444119 -3.7845328 -0.94336033 34
2.2379498 -3.7736361 -1.0184639 36
2.238868 -3.7751844 -1.0963699 39
2.238097 -3.7738843 -1.509411 31
1.934393 -3.2617781 -1.7677054 6
2.0021617 -3.4304116 1.0484699 24
2.2192197 -3.8023086 0.85074717 39
2.2224998 -3.8079288 0.6168285 33
2.2156463 -3.796186 0.38161606 29
2.2170165 -3.7985337 0.2262657 34
2.2247305 -3.8117504 0.14895527 32
1.9613707 -4.003655 0.12398583 23
2.5956879 -3.7866523 0.10065471 40
2.2176476 -3.7996149 0.070494317 28
1.9690671 -4.0193653 0.045309365 29
2.6008115 -3.794127 0.019428948 41
2.2199454 -3.8035519 -0.007302105 30
1.9867092 -4.055377 -0.034049518 23
2.589293 -3.7773235 -0.06154893 34
2.2134855 -3.7924836 -0.084928297 46
2.0037251 -4.0901108 -0.11496967 23
2.5860126 -3.7725377 -0.14237857 44
2.2224545 -3.8078508 -0.16344193 53
1.9708698 -4.0230446 -0.19246183 26
2.5909641 -3.7797613 -0.22372285 41
2.2166259 -3.7978644 -0.24084936 45
1.9866362 -4.0552278 -0.27381924 28
2.5928392 -3.7824967 -0.30515507 47
2.2101197 -3.7867169 -0.31774646 48
1.9964849 -4.0753317 -0.35556176 23
2.59391 -3.7840588 -0.38645387 40
2.2149961 -3.7950721 -0.39618981 48
1.9951824 -4.0726728 -0.43556514 24
2.5964236 -3.7877257 -0.46815905 43
2.2131615 -3.7919285 -0.4735536 52
2.2026467 -3.7739131 -0.54876453 48
2.2034934 -3.7753637 -0.62634003 40
2.2115757 -3.7892118 -0.70706636 45
2.2090917 -3.7849555 -0.78379244 50
2.2078934 -3.7829025 -0.86148214 41
2.2080786 -3.7832201 -0.93916762 38
2.2036939 -3.7757072 -1.0148458 35
2.2026768 -3.7739646 -1.0915229 43
2.2059755 -3.7796166 -1.5055073 33
1.920712 -3.2908592 -1.7761552 7
1.9923618 -3.4718313 1.0566372 24
2.1854236 -3.808255 0.84847045 42
2.1886117 -3.8138106 0.61516589 34
2.1818089 -3.8019562 0.38057813 32
2.1811593 -3.8008242 0.22544366 29
2.1867805 -3.8106194 0.14828065 28
1.9614258 -4.0791845 0.12587619 23
2.5700984 -3.8088925 0.10074239 38
2.1837633 -3.805362 0.070302062 29
1.97075 -4.0985761 0.046038203 27
2.5617435 -3.7965107 0.019344473 43
2.1840405 -3.805845 -0.0072755758 31
1.9829284 -4.1239038 -0.034501903 23
2.559298 -3.7928865 -0.061495174 35
2.1776636 -3.7947326 -0.084618904 47
1.9962159 -4.1515374 -0.11628188 22
2.5493448 -3.7781358 -0.14188075 44
2.1825445 -3.8032379 -0.16255285 51
1.9707668 -4.0986109 -0.19538052 24
2.5587192 -3.7920284 -0.22333275 41
2.1807749 -3.8001547 -0.23997433 47
1.9897305 -4.1380496 -0.2784192 28
2.5516489 -3.7815502 -0.30356157 50
2.1803164 -3.7993555 -0.31745735 52
1.9993912 -4.1581411 -0.36149821 25
2.5504966 -3.7798426 -0.38410357 42
2.1811688 -3.8008409 -0.39511225 54
2.0032341 -4.1661339 -0.44397816 24
2.5530088 -3.7835658 -0.46531928 49
2.177388 -3.7942524 -0.47183785 55
2.1729481 -3.7865157 -0.54826611 47
2.1718178 -3.7845459 -0.62520534 46
2.1798091 -3.7984715 -0.7057935 48
2.169528 -3.7805562 -0.77956712 58
2.1703365 -3.7819648 -0.8576225 43
2.1705537 -3.7823431 -0.93497491 41
2.1701393 -3.781621 -1.0121324 37
2.1710899 -3.7832775 -1.0895841 46
2.1706798 -3.7825632 -1.5003024 34
1.9037552 -3.3174281 -1.7829151 7
1.9908937 -3.5260694 1.0688881 23
2.1414053 -3.7926404 0.84164017 45
2.1502469 -3.8082998 0.61184067 38
2.1434574 -3.7962749 0.37850225 34
2.1467152 -3.8020449 0.22462162 34
2.1502962 -3.8083873 0.14760603 34
1.9585127 -4.1470118 0.12754416 25
2.5257356 -3.8000982 0.10004096 40
2.1433787 -3.7961357 0.069853462 25
1.9728341 -4.1773362 0.046767041 30
2.5285342 -3.8043089 0.019293791 45
2.1456177 -3.800101 -0.0072357827 34
1.9831278 -4.1991324 -0.035014607 21
2.5216868 -3.7940063 -0.061226401 36
2.1412868 -3.7924306 -0.084232159 50
1.9893831 -4.2123775 -0.11759409 23
2.5118411 -3.7791929 -0.14125846 43
2.1500437 -3.80794 -0.1621083 55
1.97965 -4.1917686 -0.19915766 24
2.5167029 -3.7865078 -0.2219674 44
2.1424096 -3.7944193 -0.23866181 48
1.9897785 -4.2132149 -0.28253496 29
2.5141401 -3.7826521 -0.30223367 51
2.1419697 -3.7936404 -0.31572261 51
1.9941543 -4.2224803 -0.36587241 25
2.5196335 -3.7909172 -0.38343206 44
2.1428282 -3.7951608 -0.39295706 56
2.0098076 -4.2556248 -0.45200878 25
2.5155184 -3.7847259 -0.46329084 49
2.14498 -3.7989717 -0.47055101 54
2.1425579 -3.7946815 -0.54726928 50
2.1375566 -3.7858241 -0.62293601 45
2.1396463 -3.789525 -0.70133853 49
2.1392102 -3.7887528 -0.77815866 53
2.1380916 -3.7867715 -0.85530668 46
2.1364031 -3.7837813 -0.93162072 41
2.1341074 -3.7797151 -1.0076098 38
2.1350846 -3.781446 -1.0847373 45
2.136781 -3.7844505 -1.4950976 34
1.8787663 -3.327481 -1.7812251 7
1.981253 -3.5669298 1.0770553 22
2.1186903 -3.8143637 0.84315801 40
2.1101434 -3.7989764 0.60796124 39
2.1110978 -3.8006947 0.37746429 29
2.1084821 -3.7959855 0.22338857 30
2.1158926 -3.8093269 0.14706634 33
1.9614756 -4.2295032 0.12965693 23
2.4903834 -3.8042552 0.099690251 38
2.1032314 -3.7865322 0.069404863 30
1.9688644 -4.2454357 0.047374405 26
2.4909596 -3.8051353 0.019209316 44
2.1112673 -3.8009999 -0.0072092535 34
1.982372 -4.2745619 -0.035527308 21
2.4863756 -3.7981329 -0.061011385 33
2.1108756 -3.8002946 -0.084077463 50
1.9969382 -4.3059707 -0.11981475 21
2.4766371 -3.7832568 -0.14076063 40
2.115644 -3.8088791 -0.16151559 52
1.9721949 -4.2526169 -0.2013896 25
2.4770775 -3.7839293 -0.22079709 44
2.1081107 -3.7953169 -0.23778678 49
1.9838333 -4.2777128 -0.2859244 29
2.4767411 -3.7834156 -0.30090576 47
2.1038105 -3.7875752 -0.31398788 50
1.9914712 -4.2941823 -0.37087151 20
2.4821911 -3.7917409 -0.3817533 43
2.1027408 -3.7856491 -0.39044273 53
2.0118771 -4.3381829 -0.45927459 24
2.4803169 -3.788878 -0.4616681 49
2.1087515 -3.7964704 -0.46840629 55
2.1044514 -3.788729 -0.54427874 50
2.0995395 -3.7798855 -0.61953199 44
2.1112218 -3.8009176 -0.70070213 46
2.1050608 -3.7898257 -0.77534181 52
2.1001689 -3.781019 -0.85067505 42
2.1061378 -3.791765 -0.92994368 40
2.0982087 -3.7774899 -1.0030874 37
2.1010966 -3.7826889 -1.0808597 44
2.1011262 -3.7827423 -1.4885916 31
1.8431681 -3.31833 -1.7693954 5
1.9655745 -3.5976448 1.0821599 24
2.0769453 -3.8014901 0.83708668 38
2.0759728 -3.79971 0.60574442 34
2.0730488 -3.7943578 0.37538841 30
2.0780993 -3.803602 0.22297755 29
2.0834966 -3.8134809 0.14666158 31
1.9550964 -4.2940402 0.13121369 23
2.4485955 -3.7980211 0.099076502 37
2.0729098 -3.7941039 0.06927669 29
1.9673539 -4.3209615 0.048062749 27
2.4469948 -3.7955379 0.019074159 43
2.0750909 -3.7980955 -0.0071760924 33
1.9872884 -4.3647442 -0.036160648 18
2.4424613 -3.788506 -0.060581349 35
2.0766232 -3.8009005 -0.08376807 48
8.8217297 -19.375444 -0.53739995 10
2.4436653 -3.7903736 -0.14038727 40
2.083252 -3.8130331 -0.16107105 50
1.9755776 -4.3390236 -0.20482334 22
2.4441056 -3.7910566 -0.22021194 41
2.0700731 -3.7889116 -0.23647426 46
1.9853557 -4.3604994 -0.29052439 15
2.4416168 -3.7871964 -0.29984343 47
2.0773172 -3.8021705 -0.31398788 43
8.9215117 -19.594599 -1.6868874 9
2.4427006 -3.7888772 -0.37973875 40
2.0762606 -3.8002367 -0.39044273 52
2.4430237 -3.7893784 -0.4596397 47
2.0764754 -3.8006296 -0.46711946 54
2.0684357 -3.7859142 -0.54178661 45
2.0598106 -3.770128 -0.61556059 43
2.0713809 -3.7913053 -0.69624716 43
2.0691121 -3.7871525 -0.77182072 52
2.0624309 -3.7749236 -0.84604341 43
2.0721142 -3.7926474 -0.92658949 35
2.0661814 -3.7817883 -1.000374 34
2.0671945 -3.7836425 -1.0769821 40
2.0637853 -3.7774029 -1.4807842 25
1.8286482 -3.3470249 -1.7778451 7
1.9587162 -3.6453481 1.0923688 26
2.0503554 -3.815897 0.83708668 37
2.045645 -3.8071308 0.60463601 34
2.0427363 -3.8017173 0.37469646 32
2.0439312 -3.803941 0.22215551 30
2.0473619 -3.8103256 0.14598696 29
1.9625942 -4.3915453 0.13377126 1
2.407017 -3.7913899 0.098462753 38
2.0387993 -3.79439 0.069020346 28
8.8713551 -19.850746 0.22010878 24
2.4075742 -3.7922676 0.01897279 43
2.0409515 -3.7983956 -0.0071495632 34
19.004652 -42.525242 -0.35120162 31
2.4009471 -3.7818291 -0.060205065 35
2.0405729 -3.7976909 -0.083381332 47
8.7564087 -19.59354 -0.5417403 14
2.4085727 -3.7938404 -0.13988943 40
2.0452294 -3.8063571 -0.16018197 49
8.6924267 -19.450371 -0.91526675 15
2.4090142 -3.7945359 -0.21943174 39
2.0360096 -3.7891979 -0.23559923 46
8.7349949 -19.545622 -1.2981597 3
2.4044223 -3.7873027 -0.2985155 45
2.0450573 -3.8060369 -0.31312048 43
8.9374466 -19.998634 -1.7162572 1
2.4076445 -3.7923782 -0.37839574 39
2.0364799 -3.7900736 -0.38792837 48
7.4714065 -16.718189 -1.7587042 1
2.4079783 -3.7929039 -0.45801696 46
2.0367148 -3.7905107 -0.46411684 52
2.0381975 -3.7932703 -0.54078978 43
2.0278175 -3.773952 -0.61385858 45
2.0373857 -3.7917593 -0.69370145 43
2.0388949 -3.7945681 -0.77041233 49
2.0360267 -3.7892299 -0.84604341 47
2.0418837 -3.8001304 -0.92491239 43
2.0212867 -3.7617979 -0.99132895 32
2.0388925 -3.7945635 -1.0760128 43
2.0463154 -3.8083782 -1.4872903 32
1.798373 -3.346935 -1.7710854 5
1.9567068 -3.703388 1.1056406 22
2.0071533 -3.7988663 0.8302564 32
2.0116143 -3.8073094 0.6024192 31
2.0105608 -3.8053157 0.37365851 29
2.0061278 -3.7969258 0.22092246 30
2.0132406 -3.8103876 0.14544727 31
14.115788 -32.187183 0.97743088 25
2.3720112 -3.7945371 0.098112039 41
2.008523 -3.8014588 0.068892173 30
18.795233 -42.857376 0.47374403 16
2.37256 -3.7954149 0.018905211 46
2.014384 -3.8125517 -0.0071495632 36
25.799858 -58.829502 -0.48435363 25
2.3660069 -3.7849317 -0.059990048 36
2.0084052 -3.8012357 -0.083149284 47
9.9957495 -22.792566 -0.62824517 29
2.3735518 -3.7970014 -0.1393916 42
2.0167389 -3.8170085 -0.16003379 53
8.696064 -19.828989 -0.93020362 2
2.3739944 -3.7977095 -0.21865153 40
2.0113721 -3.8068511 -0.235818 48
8.7137842 -19.869396 -1.3155912 0
2.3694615 -3.790458 -0.29745317 47
2.0109816 -3.8061121 -0.31196401 54
9.0875015 -20.721556 -1.7728096 3
2.3684337 -3.7888141 -0.37638122 44
2.0025265 -3.7901096 -0.3864916 56
7.35291 -16.766294 -1.7583218 1
2.3708942 -3.7927499 -0.45598856 45
2.0083447 -3.801121 -0.4636879 56
2.0061038 -3.7968798 -0.53929448 49
2.0125196 -3.8090229 -0.6172626 43
2.0127094 -3.809382 -0.69433784 45
2.0123541 -3.8087101 -0.77041233 51
2.0168571 -3.8172324 -0.84913117 36
2.0226126 -3.8281255 -0.92826658 24
2.009537 -3.8033779 -0.9985649 35
2.0159776 -3.815568 -1.0779516 38
2.0302801 -3.8426375 -1.4950976 18
1.7868189 -3.3818474 -1.7829151 8
1.9325882 -3.7203898 1.1066616 25
1.9787737 -3.8093007 0.82949752 41
1.9795077 -3.8107135 0.60075659 35
1.9821093 -3.815722 0.37331253 32
1.977731 -3.8072932 0.22071694 32
1.9921193 -3.8349919 0.14585203 33
13.927082 -32.369423 0.97998846 22
2.3328865 -3.79057 0.097585969 37
1.9819357 -3.8153877 0.068892173 31
20.357779 -47.315697 0.52144235 2
2.3376193 -3.79826 0.018837633 44
1.9987826 -3.8478193 -0.0071893567 31
24.968014 -58.030838 -0.47633135 21
2.33114 -3.7877326 -0.059775028 38
1.9799759 -3.811615 -0.08307194 48
2.3281262 -3.7828355 -0.1382715 41
1.9900427 -3.8309944 -0.16003379 52
9.7546368 -22.671797 -1.0603428 38
2.3390477 -3.800581 -0.21787134 42
1.9847471 -3.8207998 -0.235818 34
9.7615137 -22.68778 -1.4976531 3
2.3324821 -3.7899129 -0.29612526 47
2.0082695 -3.8660824 -0.31572261 25
9.0545177 -21.044575 -1.7949932 1
2.3314795 -3.7882841 -0.37470242 42
1.9833642 -3.8181379 -0.38792837 50
7.2577114 -16.868425 -1.7636756 1
2.3339293 -3.7922645 -0.45396012 45
1.9890927 -3.8291655 -0.46540368 36
2.0033321 -3.8565776 -0.54577398 28
2.0169086 -3.8827136 -0.62690735 22
1.9951687 -3.8408623 -0.69752002 28
1.9984219 -3.8471248 -0.77534181 26
2.0154889 -3.8799801 -0.85993832 24
