# .PCD v0.7 - Point Cloud Data file format
VERSION 0.7
FIELDS x y z intensity
SIZE 4 4 4 4
TYPE F F F F
COUNT 1 1 1 1
WIDTH 1381
HEIGHT 1
VIEWPOINT 0 0 0 1 0 0 0
POINTS 1381
DATA ascii
8.4699078 -2.1353536 1.2220187 12
13.767789 -3.4710057 1.2327272 38
13.766468 -3.4706728 0.73037994 30
13.800087 -3.4791484 0.48032677 34
13.786331 -4.5647316 0.40387133 38
5.2380795 -0.92267221 0.11661217 1
13.782904 -3.4748163 0.22776073 26
13.813736 -4.5738058 0.14730605 39
5.219595 -0.91941619 0.022385526 20
13.835076 -3.4879696 -0.023657229 30
13.840631 -4.5827107 -0.10992958 40
5.0419159 -0.88811851 -0.068805791 11
10.31912 -2.6015599 -0.20582348 0
13.86319 -4.5901799 -0.36862972 38
5.0517416 -0.88984936 -0.15967807 3
10.019393 -2.5259953 -0.38304386 0
13.832064 -4.579874 -0.62597311 48
5.0088301 -0.8822906 -0.2482992 0
9.3993626 -2.3696792 -0.5309186 5
9.3772068 -3.1048458 -0.59896445 3
5.0430365 -0.88831592 -0.34074324 66
8.8472385 -2.2304828 -0.6612249 13
8.8054485 -2.9155333 -0.72674572 12
5.0324268 -0.88644707 -0.43043774 7
8.5912371 -2.1659422 -0.79884511 13
8.6634626 -2.868521 -0.87648404 1
5.0438037 -0.88845104 -0.52211499 0
8.6380453 -2.177743 -0.96083343 7
8.5511618 -2.1558387 -1.1074976 4
8.7654066 -2.2098522 -1.2952303 3
9.2514153 -2.3323801 -1.5375988 2
8.4493523 -2.1301715 -1.55843 4
7.7598724 -1.9563463 -1.5739805 4
7.1829023 -1.810886 -1.5881995 4
6.6760325 -1.6830987 -1.5982466 10
6.2578926 -1.5776812 -1.6120805 6
4.6946239 -1.1835645 -1.6655569 6
1.6874242 -0.42541754 -0.81118411 6
6.3527007 -1.6488359 1.7324766 20
5.2725291 -1.3684787 1.0526195 14
7.4386849 -1.9307017 1.0751548 3
13.766365 -3.5730436 1.234803 37
13.761236 -3.5717125 0.73140746 28
13.79481 -3.5804265 0.48100138 35
13.795783 -4.674983 0.4050945 39
5.2747788 -0.96715122 0.11757663 1
13.800893 -3.5820053 0.22846568 28
13.811773 -4.6804018 0.14762998 40
5.2799335 -0.96809632 0.022672737 2
13.833619 -3.5904994 -0.023697022 29
13.842396 -4.6907787 -0.11020101 36
5.0434604 -0.92473805 -0.068913296 8
10.370385 -2.6916211 -0.20721576 0
13.853529 -4.6945515 -0.36923534 37
5.0493388 -0.92581594 -0.15980253 12
10.055681 -2.6099401 -0.38511837 0
13.826247 -4.6853065 -0.62717491 54
5.0379157 -0.92372143 -0.25005466 1
9.3980541 -2.4392536 -0.53179365 5
13.862787 -4.6976891 -0.88755196 42
5.0484886 -0.92566001 -0.34153998 68
8.8546209 -2.2982063 -0.66295964 11
8.864193 -3.003813 -0.73330706 11
5.0378771 -0.92371434 -0.431445 4
8.6028996 -2.2328722 -0.80135942 12
8.6469965 -2.9302115 -0.87686646 0
5.0531349 -0.92651194 -0.52373773 16
8.5456438 -2.2180119 -0.95225453 12
8.5320606 -2.2144861 -1.1069992 35
8.7574301 -2.2729807 -1.296365 2
9.2349072 -2.3969092 -1.5375988 2
8.4418983 -2.1910846 -1.5598384 4
7.7574234 -2.0134299 -1.5762962 3
7.1662998 -1.8600045 -1.587361 4
6.6528053 -1.7267277 -1.595533 12
6.2542386 -1.6232802 -1.6140193 5
4.6935692 -1.2182103 -1.6681594 6
1.6879222 -0.43809819 -0.81287408 6
6.3528366 -1.6939211 1.7355393 20
5.2709265 -1.4054404 1.0541372 10
8.8228226 -2.3525186 1.2774391 19
13.726963 -3.6601591 1.2334191 35
13.760404 -3.6690757 0.7326405 28
13.786212 -3.675957 0.48154107 32
13.798478 -4.7781515 0.4060953 36
13.765803 -2.6184986 0.30722484 41
13.776833 -3.6734564 0.22846568 21
13.829564 -4.7889156 0.14815636 41
13.796494 -2.6243367 0.059317421 34
13.763123 -3.6698005 -0.023617435 37
13.848778 -4.7955689 -0.1105026 37
11.105833 -2.9612606 -0.22229865 0
13.844761 -4.794178 -0.36984098 14
5.2041206 -0.98991555 -0.16490525 18
10.057462 -2.6817226 -0.38585928 0
13.828856 -4.7886705 -0.6287201 45
5.0316787 -0.95711398 -0.25005466 39
9.4202614 -2.5118196 -0.5339812 4
13.853964 -4.7973647 -0.88900459 20
5.120656 -0.97403908 -0.34685165 27
8.8546038 -2.3609924 -0.66411614 12
8.9345131 -3.0938525 -0.74080575 9
5.1608572 -0.98168606 -0.44252491 24
8.6071482 -2.295011 -0.80315542 11
8.8982706 -3.0813024 -0.90439999 50
5.1954312 -0.98826265 -0.5391537 21
8.6537113 -2.3074267 -0.96598071 3
8.5363607 -2.2761362 -1.1094912 28
8.7306862 -2.327951 -1.294663 1
9.2378855 -2.4631908 -1.5407809 2
8.4271812 -2.2470245 -1.5598384 4
7.7514839 -2.0668566 -1.5778401 4
7.1613641 -1.909507 -1.5890381 4
6.648737 -1.77282 -1.597342 7
6.2433352 -1.6647236 -1.6140193 7
4.6853867 -1.249312 -1.6681594 6
1.7130041 -0.45675564 -0.82639384 5
6.3445859 -1.7392535 1.7365602 19
5.2723494 -1.4453193 1.056414 8
8.817646 -2.4171982 1.2791017 18
13.731822 -3.7643306 1.236187 46
13.703633 -3.7566035 0.73099643 35
13.729368 -3.7636583 0.48046169 38
13.794938 -4.8850441 0.40698487 34
13.774651 -2.7199593 0.30783859 39
13.746995 -3.7684901 0.22840159 28
13.825956 -4.896028 0.1484803 38
13.785686 -2.7221384 0.059351213 42
13.764171 -3.7731986 -0.02366386 34
13.845124 -4.9028158 -0.11074387 16
10.504208 -2.0741737 -0.14390086 0
10.494775 -2.8769529 -0.21046437 0
5.2676854 -1.0401636 -0.16714548 18
5.0131154 -0.98989594 -0.2494695 24
9.4294596 -2.5849159 -0.53551245 3
12.773839 -4.5234537 -0.8216998 3
5.0549979 -0.99816608 -0.34286788 26
8.8532953 -2.426971 -0.66527265 12
9.0179501 -3.1934237 -0.74955416 7
5.2477274 -1.0362227 -0.45058304 11
8.5986004 -2.3571508 -0.80387378 10
8.9853888 -3.1818931 -0.91548985 0
5.2664852 -1.0399266 -0.54726738 1
8.5990381 -2.357271 -0.96169132 4
8.531745 -2.3388238 -1.1109866 21
8.729495 -2.3930333 -1.2969323 1
9.2166567 -2.5265799 -1.5401446 2
8.388504 -2.2995567 -1.5556132 4
7.7255096 -2.1178088 -1.5755243 5
7.1554027 -1.9615244 -1.5907152 4
6.6512294 -1.8233143 -1.60096 7
6.2353039 -1.7092957 -1.6149886 6
4.6801982 -1.2829918 -1.6694607 6
1.6887949 -0.46295258 -0.81625402 6
6.3136759 -1.778262 1.7314557 19
5.2659106 -1.4831564 1.0571729 9
8.8234339 -2.4851415 1.282427 20
13.728222 -3.8665869 1.2382628 41
13.71937 -3.8640938 0.73325706 32
13.737391 -3.8691695 0.48167601 42
13.786817 -4.990757 0.40776327 36
13.767079 -2.8184645 0.30810162 38
13.743449 -3.8708758 0.22878611 28
13.821527 -5.0033221 0.14880422 40
13.789859 -2.823128 0.059452582 42
13.772145 -3.8789582 -0.02372355 37
10.501226 -2.1498628 -0.14406212 0
10.524478 -2.9642446 -0.2114699 0
12.47177 -4.5147171 -0.33481511 0
5.2877131 -1.0825267 -0.16801667 1
10.11138 -2.8478944 -0.38941556 0
12.4417 -4.5038319 -0.56845772 0
5.0647936 -1.0368896 -0.25239527 25
9.4496279 -2.6615105 -0.5377 3
12.460379 -4.5105934 -0.80354202 1
5.0361762 -1.0310309 -0.34207115 25
8.863018 -2.4962904 -0.66729653 11
12.60636 -4.5634379 -1.0504382 4
8.7742929 -1.7963165 -0.7544412 23
8.5934401 -2.4203629 -0.80495137 9
8.9067965 -3.224215 -0.90975374 3
8.6897907 -1.7790167 -0.9042691 0
8.5708876 -2.414011 -0.96040446 3
8.5343103 -2.4037092 -1.1134787 27
8.6935205 -2.4485509 -1.2940956 1
9.2215996 -2.597286 -1.5439631 2
8.3987761 -2.3655357 -1.5605427 4
7.7332034 -2.1780756 -1.580156 4
7.1528287 -2.0146115 -1.5932308 4
6.6383381 -1.869704 -1.60096 8
6.2381601 -1.7569929 -1.6188661 7
4.6674867 -1.3146089 -1.6681594 6
1.7029703 -0.4796457 -0.82470387 5
6.2713852 -1.8137001 1.7232884 21
5.2629733 -1.5220648 1.0586908 7
8.8248968 -2.552182 1.285198 22
13.739176 -3.9734035 1.2417226 43
13.726597 -3.9697657 0.73510665 35
13.736927 -3.9727533 0.48262048 39
13.792889 -5.1021447 0.40898645 56
13.774452 -2.9203124 0.30871537 38
13.754511 -3.9778383 0.22942697 28
13.781552 -2.9218178 0.059503265 45
13.756258 -3.9783435 -0.023743447 112
12.627378 -4.6710091 -0.10151521 0
10.482049 -2.2222922 -0.14400837 0
10.522737 -3.0432014 -0.21185665 1
12.188673 -4.5087271 -0.32805219 0
10.082895 -2.1376679 -0.32084963 0
10.14501 -2.9339619 -0.39149007 0
12.218801 -4.5198717 -0.55970168 2
5.1551409 -1.0929379 -0.25727153 32
9.4730215 -2.7396212 -0.54010636 3
12.226373 -4.5226727 -0.79046839 1
5.0639949 -1.0736141 -0.34446138 27
8.8568716 -2.5614293 -0.6681639 12
12.301167 -4.5503402 -1.0276297 2
8.738143 -1.8525679 -0.75242668 21
8.5916405 -2.4847236 -0.80638814 9
12.076959 -4.4674029 -1.2367144 1
8.6460161 -1.8330362 -0.90102363 1
8.5309029 -2.4671581 -0.95783079 4
8.5363846 -2.4687433 -1.1159707 27
8.7370729 -2.526783 -1.3031731 6
9.2184172 -2.6659889 -1.5465088 2
8.3820572 -2.4241116 -1.5605427 4
7.7253499 -2.2341902 -1.5816998 5
7.1385899 -2.0644977 -1.5932308 4
6.6138945 -1.9127545 -1.5982466 8
6.2257423 -1.8005 -1.6188661 7
4.669096 -1.350314 -1.672063 7
1.6995802 -0.49152279 -0.82470387 5
6.2474475 -1.8541373 1.7202258 19
5.2748094 -1.5654746 1.0632442 5
8.8144598 -2.6159832 1.2863064 19
13.726381 -4.0737591 1.2431065 42
13.721525 -4.0723176 0.73633969 32
13.751015 -4.0810699 0.48410463 37
13.786858 -5.2096186 0.40987602 69
13.769353 -3.0198317 0.30906609 45
13.760912 -4.0840073 0.23000373 28
12.642814 -4.7773204 0.1368189 0
13.795982 -3.0256717 0.059655316 44
13.777999 -4.0890784 -0.023829667 33
12.325061 -4.6572518 -0.099343762 0
10.442838 -2.2902753 -0.14368585 0
13.740936 -4.0780787 -0.27721584 41
11.996055 -4.5329304 -0.32371178 0
10.106778 -2.2165725 -0.32209417 0
10.223913 -3.0342853 -0.39534274 0
12.022463 -4.5429096 -0.55214745 0
5.1707997 -1.1340362 -0.25844184 7
9.5187559 -2.8250067 -0.54382515 2
11.966671 -4.5218277 -0.77570009 1
5.1148539 -1.1217664 -0.34844515 23
8.8770199 -2.6345501 -0.67105508 9
12.019168 -4.5416646 -1.0066959 1
8.7055292 -1.9092571 -0.75074792 20
8.5969992 -2.5514448 -0.80854332 9
12.056651 -4.5558281 -1.2378616 2
8.6252346 -1.891647 -0.90021223 4
8.5554094 -2.5391016 -0.96254921 3
8.5379648 -2.5339243 -1.1184629 26
8.7533827 -2.5978568 -1.308279 2
9.2033663 -2.7314041 -1.5471451 2
8.3498306 -2.4780891 -1.5577258 4
7.705802 -2.2869523 -1.5809278 5
7.1464992 -2.1209607 -1.5982621 4
6.6003795 -1.9588816 -1.5982466 8
6.1906986 -1.8372951 -1.6130499 7
4.6559291 -1.3818014 -1.6707618 7
1.6995828 -0.50440758 -0.82639384 5
6.2343512 -1.8977069 1.7202258 19
8.7353487 -2.6589987 1.7644846 22
8.8035612 -2.6797624 1.2874148 21
13.728106 -4.1787705 1.2458744 14
13.719512 -4.1761546 0.73777825 34
13.733663 -4.1804619 0.48450938 35
13.798645 -5.3244543 0.41132161 35
13.775236 -3.1220722 0.30967984 70
13.755023 -4.186964 0.23038825 33
12.333014 -4.758914 0.13382258 0
13.790127 -3.125447 0.059722897 46
13.775903 -4.1933198 -0.023876093 36
12.075808 -4.6596665 -0.097594544 0
10.4617 -2.3710799 -0.14416963 0
13.742739 -4.1832242 -0.27783462 49
11.758932 -4.5373945 -0.31816015 0
10.087158 -2.2861922 -0.32196972 0
10.225425 -3.1125708 -0.39623183 1
11.796578 -4.5519209 -0.54321969 0
9.6709156 -2.1918533 -0.48411518 2
9.5981464 -2.9216304 -0.5495128 3
11.767187 -4.5405798 -0.76480544 0
8.9837809 -2.0361185 -0.612966 10
8.8889446 -2.7057526 -0.6733681 11
11.723019 -4.5235367 -0.98451239 0
8.6842136 -1.9682233 -0.75007635 20
8.6018448 -2.6183608 -0.81069845 9
11.686511 -4.5094495 -1.2030623 1
8.6156988 -1.9526949 -0.90061796 5
8.7010717 -2.6485651 -0.98099375 3
8.5466442 -2.601558 -1.1219518 27
8.72367 -2.6554439 -1.3065771 1
9.1916294 -2.7978883 -1.548418 2
8.351161 -2.5420539 -1.5612469 4
7.6934028 -2.3418353 -1.5816998 4
7.1053271 -2.162828 -1.5923922 4
6.590271 -2.0060472 -1.599151 9
6.1962838 -1.8861195 -1.6178968 7
4.6425505 -1.4131703 -1.6694607 7
1.7064251 -0.51942772 -0.83146369 6
6.2461133 -1.951429 1.7273721 21
8.7381144 -2.7299871 1.7690381 27
8.8063688 -2.7513115 1.29074 22
13.773179 -4.3030567 1.252794 37
13.726661 -4.2885237 0.73983335 35
13.74844 -4.2953277 0.48612848 38
13.815041 -5.4474616 0.41298956 25
13.771448 -3.2275281 0.31011823 86
13.800312 -4.3115339 0.23166996 25
12.089423 -4.7670264 0.13155508 0
13.790213 -3.231926 0.059824266 47
13.836427 -4.3228168 -0.024035266 31
9.432868 -3.7195101 -0.076453082 9
10.479086 -2.4559178 -0.14465342 0
13.738426 -4.2921991 -0.27837607 53
9.4003725 -3.7066967 -0.25507319 15
10.081807 -2.3628099 -0.32234308 0
10.297718 -3.2172434 -0.39993632 1
9.4616203 -3.7308478 -0.43694502 0
9.6662579 -2.2654204 -0.48470032 1
9.6260319 -3.0073929 -0.5523566 2
9.4492712 -3.7259781 -0.61591166 16
8.9686146 -2.101918 -0.612966 13
8.9145679 -2.7851155 -0.67683756 8
9.3968954 -3.7053258 -0.79142171 16
8.6734343 -2.0327384 -0.75041217 20
8.6204462 -2.6932251 -0.8142904 11
9.3528872 -3.6879725 -0.96558559 18
8.570158 -2.0085342 -0.89737248 15
8.6206875 -2.6933005 -0.97413063 2
8.5576506 -2.6736062 -1.1259392 31
8.63972 -2.6992466 -1.2969323 2
9.1633339 -2.8628356 -1.5471451 2
8.3510942 -2.6090734 -1.564768 4
7.6685371 -2.3958268 -1.580156 4
7.1042151 -2.2195196 -1.5957464 5
6.5716701 -2.0531404 -1.5982466 7
6.1785874 -1.9303323 -1.6169274 6
4.6392875 -1.4494197 -1.672063 6
1.6956507 -0.52976018 -0.82808381 6
6.2397051 -1.997345 1.7294139 20
8.7263241 -2.793318 1.770556 32
8.7944918 -2.8151388 1.2918484 19
13.784552 -4.4124694 1.2565998 35
13.780087 -4.4110403 0.74435455 28
13.824725 -4.4253287 0.48990631 33
9.3513718 -3.7630193 0.2803303 19
13.779677 -3.3311098 0.31081966 51
13.815585 -4.4224029 0.232439 28
9.2914276 -3.7388976 0.10138933 17
13.79453 -3.3347003 0.059942529 46
13.840198 -4.4302816 -0.024094956 32
9.2508221 -3.7225578 -0.075186402 24
10.488898 -2.5355945 -0.14502971 0
13.807157 -4.4197054 -0.28038713 46
9.2221708 -3.7110283 -0.25093469 21
10.119472 -2.4462888 -0.3240855 0
13.849751 -4.4333396 -0.53907681 51
9.3055849 -3.7445946 -0.43093595 17
9.6579733 -2.3347259 -0.48509043 1
9.6618605 -3.0927856 -0.55563796 2
9.2674599 -3.7292531 -0.60574335 27
8.9614811 -2.1663554 -0.61349714 13
8.9405031 -2.8618772 -0.68030703 9
9.2228193 -3.7112894 -0.77892393 25
8.6745291 -2.0969872 -0.75175518 19
8.6241999 -2.7606277 -0.81644553 10
9.1643848 -3.6877751 -0.94875956 21
8.5752678 -2.0729918 -0.89940089 7
8.6357632 -2.7643294 -0.97799116 1
8.5765762 -2.7453833 -1.1309235 1
8.6206656 -2.7594965 -1.2969323 1
9.1694517 -2.9351642 -1.5516001 3
8.3326769 -2.6673105 -1.564768 4
7.6366725 -2.4445179 -1.5770682 4
7.0997214 -2.2726383 -1.5982621 5
6.5757308 -2.1049078 -1.602769 8
6.1686568 -1.9746023 -1.6178968 6
4.6362605 -1.4840785 -1.6746655 7
1.6884581 -0.5404796 -0.82639384 7
6.2366338 -2.0444717 1.7324766 21
5.321743 -1.7445554 1.0822172 4
8.7896824 -2.8814034 1.2940652 19
13.813998 -4.5284572 1.2621354 38
13.790712 -4.520824 0.74661517 32
13.823885 -4.5316982 0.49098569 35
9.1584234 -3.7598789 0.27532637 23
13.787129 -3.4349613 0.31152108 74
13.807178 -4.5262213 0.23282351 29
9.1170931 -3.7429111 0.099769689 22
13.798081 -3.43769 0.060060792 48
13.839338 -4.5367641 -0.024148015 32
9.0840006 -3.7293253 -0.074040361 24
10.525275 -2.6222944 -0.14578226 0
13.813968 -4.5284472 -0.28116059 47
9.0369749 -3.7100196 -0.24659429 21
10.125423 -2.5226743 -0.32483223 0
13.84885 -4.5398822 -0.54026222 51
9.1276426 -3.7472422 -0.42389676 26
9.6763296 -2.4107859 -0.48684588 1
13.849009 -4.5399342 -0.79823732 41
9.0971518 -3.7347243 -0.59630132 25
8.9616289 -2.2327237 -0.61455947 14
8.950633 -2.9341657 -0.68262005 10
9.0491247 -3.7150075 -0.76642615 23
8.6674128 -2.1594219 -0.75242668 21
8.6350021 -2.8306966 -0.81931907 9
8.9947643 -3.6926904 -0.93384558 22
8.6069221 -2.144351 -0.9042691 9
8.5784645 -2.8121626 -0.97370172 0
8.5986853 -2.8187914 -1.1364062 0
8.6275291 -2.8282468 -1.3009037 1
9.1599951 -3.0027981 -1.5535094 2
8.3138523 -2.7254183 -1.564768 4
7.6641755 -2.5124435 -1.5863314 4
7.0799661 -2.32093 -1.5974236 5
6.5571728 -2.1495497 -1.6018646 8
6.1620965 -2.0200372 -1.6198355 7
4.618598 -1.5140529 -1.672063 6
1.6915338 -0.5545128 -0.82977378 7
6.222209 -2.0879614 1.7324766 21
5.2870941 -1.7741687 1.0776637 2
8.7918854 -2.9502573 1.2973905 21
13.800938 -4.6311245 1.2638654 35
13.781538 -4.6246147 0.74784821 32
13.807071 -4.6331825 0.49152541 34
8.9844246 -3.7619514 0.27087846 19
13.774433 -3.5341113 0.31178412 70
13.828326 -4.6403151 0.2337207 29
8.9616108 -3.752399 0.098352499 24
13.800868 -3.5408936 0.060179055 46
13.849043 -4.6472669 -0.02422097 31
8.9175425 -3.7339466 -0.07289432 25
10.529957 -2.7016749 -0.1461048 0
13.812348 -4.6349535 -0.28177938 46
8.8817596 -3.7189639 -0.24306142 23
10.138546 -2.6012504 -0.3258279 0
13.843346 -4.6453552 -0.54129952 49
8.9538116 -3.7491333 -0.41702926 27
9.7018318 -2.4892025 -0.48899144 1
13.858628 -4.6504836 -0.80064362 45
8.9161768 -3.7333748 -0.58613294 23
8.9458237 -2.2952332 -0.61455947 12
8.975318 -3.011811 -0.68608952 7
8.8758354 -3.7164831 -0.75392836 5
8.6559868 -2.2208695 -0.75276244 20
8.6414671 -2.8997819 -0.82183343 8
8.8034935 -3.6861923 -0.91663712 19
8.5878878 -2.2033975 -0.90386343 10
8.6151781 -2.8909602 -0.98013586 0
8.6126614 -2.8901157 -1.140892 13
8.6338511 -2.8972261 -1.304875 0
9.1500397 -3.0704417 -1.5554186 2
8.2983551 -2.7846453 -1.5654721 4
7.6315646 -2.5608931 -1.5832437 4
7.0487585 -2.3653233 -1.5940694 4
6.5346189 -2.1927955 -1.6000556 8
6.1515236 -2.0642416 -1.6208049 8
4.6150875 -1.5486662 -1.6746655 6
1.6841844 -0.56515491 -0.82808381 8
6.1891913 -2.1250699 1.7273721 20
8.7179136 -2.9933112 1.7811807 26
8.7935553 -3.0192828 1.3007157 23
13.794653 -4.7364187 1.2662872 35
13.794255 -4.7362823 0.7503143 29
13.808418 -4.7411451 0.49273971 34
8.8145266 -3.7633517 0.26654172 22
13.768759 -3.6352916 0.31222251 62
13.840986 -4.7523274 0.23448974 29
8.8027687 -3.7583318 0.09689483 42
13.799017 -3.6432805 0.060280424 45
13.835177 -4.7503328 -0.02425413 29
8.7992907 -3.7568469 -0.072140343 48
10.541777 -2.7832887 -0.14653483 0
13.821262 -4.7455549 -0.28263023 46
8.800416 -3.7573273 -0.24154735 45
11.152254 -2.9444699 -0.35905784 0
13.852164 -4.756165 -0.54292947 47
8.8061333 -3.7597682 -0.41136357 47
9.6803551 -2.5558524 -0.48879638 1
13.859822 -4.7587943 -0.80261242 39
8.7834082 -3.7500656 -0.57911193 16
8.9488773 -2.3627241 -0.6158874 14
9.0861397 -3.1197422 -0.69620883 4
8.7909927 -3.753304 -0.74892926 2
8.6518335 -2.2842972 -0.7537697 19
8.6812992 -2.9807396 -0.82758051 10
8.7995167 -3.7569432 -0.91893154 9
8.680027 -2.2917411 -0.91522253 3
8.6512051 -2.9704068 -0.98657 0
8.6598425 -2.9733722 -1.1498636 38
8.6471186 -2.9690037 -1.3099811 0
9.1358519 -3.1368108 -1.5566915 3
8.2787123 -2.8425107 -1.5654721 4
7.6246367 -2.6179326 -1.5855595 5
7.05057 -2.4208257 -1.5982621 5
6.5412626 -2.2459543 -1.6054826 6
6.1332917 -2.1058767 -1.6198355 6
4.6113181 -1.5833043 -1.6772679 7
1.6904848 -0.58043098 -0.83315367 8
6.1705556 -2.1669445 1.7263511 19
8.730154 -3.0658114 1.7880111 26
8.7834759 -3.0845366 1.3023783 21
13.798851 -4.8458104 1.269747 33
13.794776 -4.8443799 0.75216389 32
13.816474 -4.8519993 0.49422386 31
8.7513762 -3.8088393 0.26542976 42
13.727607 -3.7271359 0.3118718 44
13.826341 -4.8554645 0.23481017 27
8.7726488 -3.8180978 0.096854337 49
13.726923 -3.7269502 0.060077686 52
13.824322 -4.8547554 -0.024293924 29
8.798522 -3.8293583 -0.072351456 46
10.595427 -2.8767283 -0.14755617 0
13.821756 -4.8538542 -0.28332636 44
8.792304 -3.8266521 -0.24205203 43
10.209273 -2.7718852 -0.32931268 0
8.7869997 -3.8243434 -0.41170695 52
9.7162561 -2.6380274 -0.49152708 1
8.7899628 -3.8256333 -0.58129084 50
8.9591255 -2.4324617 -0.61774647 15
9.1732998 -3.2214329 -0.70459342 1
8.7974854 -3.828907 -0.75174129 44
8.6472149 -2.3477757 -0.75477695 20
8.7053843 -3.0571127 -0.83189082 18
8.8132334 -3.8357613 -0.92313808 55
8.5524464 -2.3220456 -0.9034577 3
8.6827898 -3.0491784 -0.99257523 19
8.7250004 -3.0640013 -1.1613274 18
8.7046347 -3.0568495 -1.3218951 8
9.0913744 -3.192663 -1.552873 3
8.258667 -2.9002368 -1.5654721 4
7.6061745 -2.6710978 -1.5855595 4
7.0371885 -2.4712842 -1.5991006 5
6.5180712 -2.2889831 -1.6036736 6
6.129426 -2.1525006 -1.6227436 6
4.5858774 -1.6104453 -1.672063 6
1.6863916 -0.59221846 -0.83315367 8
6.1370769 -2.2034359 1.7212467 20
8.7344122 -3.1359744 1.7933235 33
8.7878256 -3.1551521 1.3062577 22
13.794689 -4.9527998 1.2725148 32
13.783178 -4.948667 0.75339693 30
13.808601 -4.9577947 0.49516833 30
8.7611227 -3.8860548 0.26654172 44
13.71666 -3.8271792 0.31222251 103
13.837276 -4.9680901 0.23557919 29
8.7786865 -3.8938453 0.097218759 48
13.723686 -3.8291397 0.060179055 50
8.7971687 -3.9020431 -0.072562568 45
10.64443 -2.9699752 -0.14852375 5
8.7946167 -3.9009113 -0.24285956 43
10.21663 -2.8506119 -0.33018386 0
12.580528 -4.5168715 -0.49551204 0
8.7820053 -3.8953173 -0.41273707 53
9.7322359 -2.7154577 -0.49328256 1
12.758284 -4.5806923 -0.74245477 2
8.7922382 -3.8998566 -0.58322769 49
8.957304 -2.4992387 -0.61880881 13
12.559996 -4.5094995 -0.96711731 0
8.7960558 -3.9015498 -0.75392836 51
8.6459713 -2.4123716 -0.75611997 20
8.9537926 -3.2147403 -0.85775274 17
8.811717 -3.9084964 -0.92581493 46
8.5475264 -2.3849039 -0.90467477 4
8.7548656 -3.1433182 -1.0032988 25
8.8864288 -3.1905541 -1.1857501 4
8.8694134 -3.1844451 -1.350262 0
9.053997 -3.2507174 -1.5503273 2
8.2308064 -2.9551618 -1.5640638 4
7.5799532 -2.7214813 -1.5840156 4
7.0160823 -2.519031 -1.5982621 5
6.505599 -2.3357489 -1.604578 10
6.1105962 -2.1939282 -1.6217743 7
4.5887623 -1.647534 -1.6772679 7
1.6822159 -0.60397726 -0.83315367 8
6.1150661 -2.2414274 1.7192049 18
8.7171087 -3.1951849 1.7940824 28
8.7890244 -3.221545 1.3095829 24
13.795212 -5.0565219 1.2756287 27
13.787561 -5.0537176 0.75545204 28
13.816705 -5.0644002 0.49665248 31
8.7570229 -3.9539471 0.26720893 44
13.721732 -3.9268701 0.31292394 83
13.830308 -5.0693865 0.23602779 29
8.7745409 -3.9618568 0.0974617 45
13.744135 -3.9332812 0.060381792 50
13.820798 -5.0659008 -0.024406672 1
8.7893229 -3.9685314 -0.07271336 44
13.754554 -3.9362626 -0.19227993 43
12.552814 -4.601131 -0.25857493 0
8.8049965 -3.9756079 -0.24386895 42
10.355094 -2.9634092 -0.33528659 0
12.325111 -4.5176687 -0.48662129 0
8.7887583 -3.9682763 -0.41428226 48
9.7524233 -2.7909377 -0.49523306 0
12.483871 -4.5758605 -0.72823572 1
8.7989311 -3.9728694 -0.5854066 45
8.967391 -2.5662777 -0.62066793 15
12.346266 -4.525423 -0.9529503 2
8.8063326 -3.9762111 -0.75705284 45
8.6527739 -2.4762411 -0.75813448 20
12.553064 -4.601223 -1.2054515 1
8.8146334 -3.9799595 -0.92887425 48
8.5544758 -2.4481103 -0.9071089 1
8.8682499 -3.2505846 -1.0187408 12
8.9656858 -3.286299 -1.1992075 0
10.063783 -3.6887975 -1.5357811 3
9.0693159 -3.3242838 -1.5566915 2
8.2516937 -3.024591 -1.5718101 5
7.5580525 -2.7703424 -1.5832437 4
7.0139103 -2.5708916 -1.6016163 5
6.4826484 -2.3761618 -1.602769 8
6.110486 -2.2397487 -1.6256518 6
4.581286 -1.679233 -1.6785691 7
1.6781732 -0.61512071 -0.83315367 8
6.0630503 -2.2705007 1.7089958 20
5.6934118 -2.1320779 1.1748053 12
8.7997074 -3.2953286 1.3145708 23
13.78943 -5.163888 1.2783965 26
13.781872 -5.1610575 0.75709611 54
13.818452 -5.1747561 0.49800172 33
8.7546349 -4.0266809 0.26798731 44
13.728517 -4.032712 0.31371304 64
8.7757397 -4.0363884 0.097785629 44
13.750882 -4.0392818 0.060533844 54
12.462774 -4.6670794 -0.022065489 0
8.7868423 -4.0414948 -0.07292448 47
13.761275 -4.042335 -0.19276372 41
12.280688 -4.5988922 -0.25362465 0
8.8097239 -4.0520191 -0.2447774 44
10.311137 -3.0288668 -0.33453986 0
12.098616 -4.5307093 -0.47891596 0
8.7898855 -4.0428948 -0.41565576 50
9.7825346 -2.8735912 -0.4977687 0
12.01026 -4.4976215 -0.70242262 1
8.8000002 -4.0475469 -0.58734345 46
8.9837208 -2.638942 -0.62305814 11
12.05284 -4.513567 -0.93271166 1
8.8000965 -4.0475912 -0.75892746 44
8.6505728 -2.541081 -0.7594775 20
12.162477 -4.5546236 -1.170969 1
8.7974863 -4.0463905 -0.93002146 45
8.5562668 -2.5133786 -0.90913731 0
12.178638 -4.5606761 -1.4026452 3
11.27665 -4.222898 -1.5122176 4
10.063742 -3.7686861 -1.5397526 4
9.0421896 -3.3861334 -1.5560551 2
8.2303772 -3.0821247 -1.5718101 4
7.5495539 -2.8271692 -1.5855595 4
6.973815 -2.6115656 -1.5965849 5
6.4877954 -2.4295599 -1.608196 8
6.0947008 -2.2823534 -1.6256518 7
4.5765352 -1.7138283 -1.6811715 7
1.656862 -0.62046432 -0.82470387 8
6.0506639 -2.3141544 1.7100167 21
8.7009935 -3.3278069 1.8001537 25
8.8097887 -3.3694172 1.3195585 24
13.738155 -5.2543344 1.2770126 21
13.786549 -5.2728434 0.75935674 41
13.826797 -5.2882361 0.4996208 33
8.7588978 -4.1029673 0.2689881 45
13.738318 -4.1399951 0.31458983 85
12.495551 -4.7790847 0.21436681 0
8.7727013 -4.1094332 0.098069064 50
13.745326 -4.142107 0.060635213 52
12.190781 -4.6625209 -0.021641025 0
8.7837677 -4.1146173 -0.073135592 47
13.763355 -4.1475401 -0.19319376 39
12.083927 -4.6216536 -0.25022134 0
8.8065681 -4.1252975 -0.24548396 45
13.777075 -4.1516743 -0.44791999 37
11.909884 -4.5550885 -0.47269243 0
8.7867794 -4.1160278 -0.41685757 50
9.8387403 -2.9648709 -0.5016697 0
11.818158 -4.5200067 -0.69301617 0
8.789607 -4.1173525 -0.58855397 50
8.9880075 -2.7085054 -0.62465167 13
11.76765 -4.500689 -0.91305125 0
8.8005142 -4.1224618 -0.76142704 49
8.6631536 -2.6106117 -0.76216358 20
12.018755 -4.5967274 -1.1601932 3
8.8231087 -4.1330457 -0.93575764 46
8.6566257 -2.6086445 -0.92171347 2
12.172504 -4.6555309 -1.4056478 2
11.261722 -4.3071904 -1.5142114 6
10.070472 -3.8515813 -1.5448586 3
9.0367727 -3.4562302 -1.5592372 2
8.2049818 -3.1381011 -1.571106 4
7.5479631 -2.8868158 -1.5894191 4
6.9773316 -2.6685703 -1.6016163 5
6.4633975 -2.4720097 -1.606387 10
6.0822439 -2.3262324 -1.6266211 8
4.557394 -1.743034 -1.6785691 6
1.6761938 -0.64108187 -0.83653361 7
6.0487709 -2.3619666 1.7141004 21
5.3996892 -2.1085086 1.1201631 1
8.782361 -3.4293978 1.3190043 20
13.686291 -5.3443189 1.2756287 26
13.790333 -5.3849459 0.7616173 74
13.830503 -5.4006319 0.50110495 35
8.7589121 -4.1777868 0.26987767 42
13.728185 -4.2417068 0.31502822 63
12.253254 -4.7847366 0.21077801 0
8.7726793 -4.1843534 0.098392993 47
13.75047 -4.2485929 0.060787264 54
9.4528589 -3.6912186 -0.016826013 1
8.798151 -4.1965032 -0.073497497 48
13.77228 -4.2553315 -0.19373131 40
11.89863 -4.6462607 -0.24705006 0
8.7919903 -4.1935644 -0.24588773 44
13.793593 -4.2619171 -0.44941348 42
11.643216 -4.5465245 -0.46335712 0
8.7830791 -4.1893139 -0.41805938 53
9.9246836 -3.066509 -0.5071311 0
9.4610472 -3.6944163 -0.5562942 0
8.8002892 -4.1975226 -0.5912171 48
9.0184526 -2.7865033 -0.62810421 13
9.4690237 -3.697531 -0.73668611 19
8.8111115 -4.2026849 -0.76486391 46
8.6827993 -2.6827939 -0.76552111 18
11.856487 -4.6298041 -1.1476214 2
8.8120079 -4.2031121 -0.93766963 47
8.6648169 -2.677238 -0.92455328 1
9.4761572 -3.7003164 -1.0972375 1
9.4642286 -3.6956584 -1.2759649 18
9.4236965 -3.6798313 -1.449546 17
9.0197811 -3.5221074 -1.56051 2
8.1718702 -3.191009 -1.5689932 4
7.5276251 -2.93944 -1.5894191 5
6.9658179 -2.7200615 -1.6032933 5
6.4604998 -2.5227413 -1.610005 9
6.0622401 -2.3672261 -1.6256518 7
4.5521607 -1.7775596 -1.6811715 7
1.6716774 -0.65276831 -0.83653361 7
6.0213566 -2.3998411 1.7110376 18
5.2826862 -2.1054404 1.0989134 5
8.7471647 -3.4862256 1.3173417 40
9.3286114 -3.7179639 0.87186986 22
9.3921576 -3.7432904 0.52014393 10
9.3843708 -3.7401872 0.34095106 20
8.7690973 -4.2580452 0.27110085 43
13.766863 -4.3591743 0.3166064 41
9.3364944 -3.7211058 0.16104747 14
8.7792339 -4.2629676 0.098797902 46
13.811995 -4.3734651 0.06119274 43
9.3042393 -3.7082503 -0.016607149 16
8.7938271 -4.2700539 -0.073708609 46
13.837563 -4.3815608 -0.19507517 34
9.4065332 -3.7490201 -0.19584557 19
8.8056641 -4.2758017 -0.247099 47
13.854981 -4.3870764 -0.45240045 41
9.3684158 -3.7338281 -0.37385672 12
8.7751875 -4.261003 -0.41908953 51
10.040153 -3.1791394 -0.51415294 3
9.323719 -3.7160141 -0.54973155 18
8.7923203 -4.2693224 -0.59266973 20
9.0406342 -2.8626492 -0.63102567 12
9.2873259 -3.7015095 -0.72454292 28
8.7887316 -4.2675791 -0.7654888 10
8.6904573 -2.7517684 -0.76787138 17
9.3665829 -3.7330976 -0.90911734 22
8.8039408 -4.2749648 -0.93996412 4
8.6421213 -2.7364633 -0.92414761 1
9.3281803 -3.7177923 -1.0830823 25
9.275979 -3.6969869 -1.2540342 17
9.2359371 -3.6810279 -1.4245832 20
9.0023088 -3.5879142 -1.561783 6
8.17134 -3.2567277 -1.5732186 4
7.5032744 -2.9904668 -1.5886472 4
6.9502921 -2.7700732 -1.6041318 4
6.4572086 -2.5735524 -1.613623 4
6.0491714 -2.4109271 -1.6266211 7
4.5326133 -1.8064952 -1.6785691 6
1.6670794 -0.66442269 -0.83653361 6
6.018786 -2.4476473 1.7151213 22
5.176908 -2.1052825 1.0799404 5
8.75564 -3.5606382 1.3223295 32
9.1695356 -3.7289565 0.85941458 20
9.2473812 -3.7606134 0.51356763 25
9.2136049 -3.7468779 0.33568904 19
8.7570801 -4.3280177 0.27165684 37
13.78935 -4.4724498 0.3178339 38
9.1695051 -3.7289438 0.15861222 16
8.7815313 -4.3401022 0.099162325 8
13.822979 -4.483357 0.06137858 45
9.1410275 -3.7173629 -0.016361756 21
13.840878 -4.4891624 -0.19555895 34
9.2393551 -3.7573497 -0.19290635 25
13.85444 -4.4935613 -0.45339611 40
9.1940088 -3.738909 -0.36792955 25
8.7810535 -4.3398657 -0.42080638 7
10.20013 -3.3083191 -0.52351534 1
9.1495581 -3.7208321 -0.54098135 27
8.7909365 -4.3447504 -0.59460658 14
9.0508003 -2.9355447 -0.63315034 9
9.1134338 -3.7061412 -0.71297801 26
9.2413483 -4.5673575 -0.80766881 1
8.7013664 -2.8222089 -0.7705574 17
9.1889877 -3.736867 -0.8943904 25
9.2129326 -4.5533137 -0.98700058 2
8.6038809 -2.7905903 -0.9221192 0
9.1546392 -3.7228985 -1.0659245 28
9.1175909 -3.7078321 -1.2360909 24
9.066967 -3.6872447 -1.402457 22
8.9843569 -3.65365 -1.5630558 7
8.1629944 -3.3196282 -1.5760354 5
7.5040288 -3.0516479 -1.5932789 4
6.9525218 -2.8273678 -1.609163 5
6.449913 -2.6229727 -1.6163365 5
6.0393825 -2.4560232 -1.6285599 9
4.5233946 -1.8395196 -1.6798704 6
1.7127761 -0.69653112 -0.8618831 3
5.9971104 -2.4902182 1.7141004 22
5.1141844 -2.1235952 1.0700746 6
8.7622318 -3.638397 1.3273174 21
8.9873819 -3.7318876 0.84488344 20
9.0756836 -3.7685535 0.50555277 17
9.0234404 -3.7468605 0.32975242 18
13.814474 -6.9539986 0.43011406 34
13.797937 -4.5872884 0.31879836 42
8.9978695 -3.7362425 0.15611288 15
10.496518 -5.2837896 0.11896239 1
13.816313 -4.5933976 0.061496843 41
8.965765 -3.7229116 -0.016096465 18
10.143056 -5.1058621 -0.085621417 0
13.834167 -4.5993333 -0.19593523 32
9.0638247 -3.7636294 -0.18981242 24
13.843892 -4.6025667 -0.45414284 38
9.0223808 -3.7464206 -0.36215055 31
9.4486399 -4.7563033 -0.45445716 0
13.822748 -4.5955372 -0.71115386 42
8.9744921 -3.7265351 -0.53223115 25
9.0669127 -3.0144029 -0.63580614 7
8.9312716 -3.7085886 -0.70083481 26
9.1185713 -4.5901518 -0.79985774 0
8.7220507 -2.8997495 -0.77425075 18
9.0068197 -3.739959 -0.87930429 25
9.0583878 -4.5598559 -0.97399861 1
8.6587162 -2.8786933 -0.93023282 2
8.9728432 -3.7258503 -1.0479089 29
8.9068966 -3.6984673 -1.2111697 17
8.8568525 -3.6776872 -1.3740902 1
8.9427452 -3.7133529 -1.56051 10
8.1311684 -3.3763568 -1.574627 4
7.4560847 -3.0960374 -1.5878752 4
6.9352217 -2.879756 -1.6100017 5
6.4125199 -2.6627111 -1.611814 5
6.0212169 -2.5002282 -1.6285599 7
4.5062957 -1.8711778 -1.6785691 6
1.7511519 -0.72714192 -0.88385272 1
5.9653339 -2.5259924 1.7100167 15
5.0739193 -2.1485269 1.0647621 1
8.7402658 -3.7010241 1.3278716 22
8.8106565 -3.7308307 0.83069825 25
8.9056902 -3.7710724 0.49753791 16
8.8608561 -3.7520871 0.32476026 18
13.804736 -7.070322 0.43133724 55
13.799649 -4.6950974 0.31958747 39
8.8279343 -3.7381468 0.15361352 16
10.491416 -5.3733501 0.11932682 1
13.806629 -4.6974721 0.061598212 40
8.8253717 -3.7370617 -0.015890867 31
12.086586 -6.1903429 -0.10238983 0
13.828224 -4.7048197 -0.19631152 32
8.878973 -3.7597592 -0.18648644 25
10.0722 -5.1586418 -0.28565773 0
13.849273 -4.7119808 -0.45538741 36
8.8524532 -3.7485292 -0.35637155 30
9.3689651 -4.7984686 -0.45222524 0
13.828152 -4.7047944 -0.71310437 45
8.7974644 -3.7252445 -0.5232622 36
9.118763 -4.6703238 -0.62123799 1
9.2194567 -3.136764 -0.64802295 2
8.7986259 -3.7257361 -0.69245023 20
9.0330639 -4.6264315 -0.79517102 1
8.7393284 -2.9734087 -0.77760828 13
8.8080711 -3.7297359 -0.86242223 4
8.9908934 -4.6048336 -0.97017455 0
8.6685476 -2.9493265 -0.9334783 0
8.8037901 -3.7279232 -1.0311801 35
8.8077669 -3.7296069 -1.2012012 22
8.8017931 -3.7270775 -1.3695514 2
8.854784 -3.7495162 -1.5496908 23
8.1291542 -3.4422517 -1.5788523 3
7.4523592 -3.1556661 -1.591735 4
6.8933392 -2.9189517 -1.6049703 5
6.41889 -2.7180486 -1.6181455 5
6.0179095 -2.5482552 -1.6324375 6
4.4931231 -1.9025916 -1.6785691 6
3.391911 -1.4362886 -1.7170064 9
5.922698 -2.5568464 1.7028704 18
8.4986324 -3.668885 1.78877 22
8.7069397 -3.758812 1.3267632 23
8.7478094 -3.7764552 0.82723844 31
8.7801228 -3.7904053 0.49198917 31
8.7683792 -3.7853353 0.32233164 36
13.801138 -7.1905427 0.43278283 76
13.792974 -4.8005228 0.32020122 37
8.7906055 -3.7949305 0.15342127 25
10.471383 -5.4557042 0.11952927 0
13.807498 -4.8055778 0.061750263 41
8.8100843 -3.8033395 -0.015910763 34
12.110474 -6.3096881 -0.10296284 0
13.825261 -4.8117599 -0.19674155 29
8.7717314 -3.7867825 -0.18478478 50
9.9969311 -5.2085094 -0.28454742 0
8.7967091 -3.7975655 -0.35518613 51
9.3352365 -4.8637595 -0.45222524 0
13.813835 -4.8077831 -0.71407962 28
8.7859106 -3.7929037 -0.5241372 19
9.0788536 -4.7301812 -0.62075377 3
9.3518791 -3.2548389 -0.65891188 0
8.8090277 -3.8028836 -0.69534147 42
8.9510336 -4.6635852 -0.79079682 1
8.79741 -3.0618608 -0.78465915 13
8.7671881 -3.7848213 -0.86098546 3
8.902029 -4.6380534 -0.96405596 1
8.7454605 -3.0437803 -0.94402611 0
8.784852 -3.7924466 -1.032038 19
8.8143082 -3.8051634 -1.205687 28
8.8119116 -3.8041284 -1.3752248 43
8.8320169 -3.812808 -1.5503273 24
8.1266146 -3.5082839 -1.5830775 4
7.4373536 -3.2107277 -1.5932789 4
6.8692021 -2.9654551 -1.6041318 4
6.3890262 -2.7581615 -1.615432 5
5.992847 -2.5871298 -1.6304986 6
4.4866757 -1.9369112 -1.6811715 6
3.3684869 -1.4541858 -1.7102466 9
5.9259439 -2.6074774 1.7089958 19
8.4692183 -3.7265446 1.7880111 29
8.6188459 -3.7923825 1.3173417 23
8.7613544 -3.8550878 0.8310442 35
8.7607603 -3.854826 0.4924002 31
8.7563763 -3.8528972 0.32287133 37
13.800065 -7.3129287 0.43433958 72
13.793032 -4.9087658 0.32099032 35
8.7895241 -3.8674827 0.15386987 26
10.489588 -5.5586405 0.12017712 0
13.80376 -4.9125838 0.061885424 42
8.8052845 -3.8744173 -0.015950557 33
10.224753 -5.4183002 -0.087250002 0
8.767045 -3.8575916 -0.18524887 51
9.9779911 -5.2875357 -0.28505212 0
13.789666 -4.907568 -0.45563632 0
8.7992525 -3.8717632 -0.35637155 53
9.2728043 -4.9138432 -0.45085174 0
8.7994308 -3.8718417 -0.5265435 51
9.0244417 -4.7822309 -0.61930114 47
12.818345 -4.5618873 -0.9053731 3
8.8151302 -3.8787494 -0.69794357 50
8.978158 -4.7577043 -0.79610837 12
8.8734541 -3.1579504 -0.79338878 9
8.7843094 -3.8651881 -0.86529577 54
8.8412857 -4.685173 -0.96099669 8
8.7802334 -3.1247742 -0.95011133 15
8.8200445 -3.8809118 -1.03933 56
8.8311214 -3.8857861 -1.2116681 47
8.8286295 -3.8846893 -1.3820329 42
8.8160276 -3.8791444 -1.5522366 27
8.1091337 -3.5681036 -1.584486 4
7.4075727 -3.2594097 -1.591735 4
6.869812 -3.0227892 -1.609163 5
6.3803148 -2.8074052 -1.6181455 5
5.9817438 -2.63203 -1.6324375 6
4.479969 -1.9712332 -1.683774 6
3.3482976 -1.473286 -1.7051766 9
5.9181828 -2.6535316 1.7120585 21
8.4322443 -3.7807598 1.7857343 32
7.2474895 -3.2495518 1.111178 1
8.7633171 -3.9292026 0.83381206 38
8.7591505 -3.9273343 0.49383876 32
8.7803345 -3.9368324 0.32476026 35
13.801475 -7.4375429 0.43600756 58
13.807281 -5.0227103 0.32213014 34
8.7878551 -3.9402046 0.15431847 28
10.503342 -5.6601963 0.12078448 0
13.806717 -5.0225053 0.06205437 8
8.799921 -3.9456143 -0.01599035 37
11.32401 -6.1024494 -0.09699136 0
12.595303 -4.5818257 -0.18013141 0
8.7727423 -3.9334285 -0.185945 51
9.958436 -5.3665495 -0.28555679 0
12.376181 -4.5021152 -0.40996069 0
8.7902451 -3.9412761 -0.35711247 52
9.2277203 -4.9727702 -0.45033666 0
12.667809 -4.608202 -0.65810019 2
8.7976961 -3.9446173 -0.5280748 53
8.9802923 -4.8394327 -0.61857486 10
12.512383 -4.551662 -0.88598549 3
8.8205996 -3.9548862 -0.70054567 51
8.944725 -4.8202658 -0.79610837 16
12.510783 -4.5510798 -1.1214212 2
8.8080034 -3.9492383 -0.87032449 50
8.8118677 -4.7486696 -0.96137911 28
8.9152689 -3.2431304 -0.96715009 5
8.8217669 -3.9554093 -1.0427616 61
8.8218861 -3.9554629 -1.2141603 48
8.8338118 -3.9608102 -1.387139 45
8.8175583 -3.9535224 -1.557328 26
8.0876188 -3.62624 -1.5851902 4
7.4168687 -3.3254964 -1.5986824 4
6.841404 -3.0674756 -1.607486 5
6.3747816 -2.8582563 -1.6217635 5
5.963223 -2.6737263 -1.6324375 6
4.4660978 -2.0024612 -1.683774 7
3.3677039 -1.5099752 -1.7203863 9
5.8924785 -2.6915693 1.7100167 19
8.273469 -3.7791595 1.7576543 26
7.123734 -3.253983 1.0956603 8
8.7465477 -3.9952526 0.83485001 57
8.7424202 -3.9933674 0.49445528 24
8.7817268 -4.011322 0.32583964 41
13.794801 -7.558692 0.43745315 57
13.805616 -5.1315207 0.32291925 40
8.7819614 -4.0114293 0.15470299 29
10.523203 -5.7660599 0.12147284 0
13.823809 -5.1382828 0.062290896 1
8.7976303 -4.0185862 -0.016036775 34
11.161865 -6.1160073 -0.095965959 0
12.454287 -4.6292338 -0.17857252 1
8.7668962 -4.0045471 -0.1864091 50
9.9487829 -5.4513135 -0.28636432 0
12.138333 -4.511795 -0.40311554 0
8.7879677 -4.0141726 -0.35814971 58
9.1927795 -5.0370708 -0.45033666 0
12.328247 -4.5823851 -0.642106 0
8.7990074 -4.0192151 -0.52982485 54
8.9182758 -4.8866601 -0.616638 60
12.173532 -4.524878 -0.86420768 1
8.8181763 -4.0279713 -0.70256954 53
8.903862 -4.8787618 -0.79548347 6
12.183551 -4.5286021 -1.0948967 2
8.8092079 -4.0238748 -0.87319803 54
8.7750101 -4.8081594 -0.96099669 15
12.103973 -4.499023 -1.3164438 1
8.8264952 -4.0317707 -1.0466222 63
8.822937 -4.0301461 -1.2181476 49
8.8275547 -4.0322552 -1.390543 43
8.8184795 -4.0281096 -1.5624193 26
8.0656872 -3.6842487 -1.5858945 4
7.3827624 -3.3723021 -1.5963666 4
6.8269377 -3.118412 -1.609163 5
6.3404951 -2.8962147 -1.6181455 5
5.9550018 -2.720129 -1.6353456 6
4.4554496 -2.0351627 -1.6850752 7
3.3471873 -1.5289299 -1.7153164 10
5.8604689 -2.7240691 1.7059331 19
8.1378202 -3.7826297 1.7341279 32
6.9870424 -3.2477241 1.0779258 2
8.7704496 -4.0766892 0.83969373 39
8.599824 -3.9973788 0.48787898 15
8.7694311 -4.0762157 0.32637933 41
13.80376 -7.683075 0.43934351 79
13.793715 -5.2314777 0.32344532 30
8.7841787 -4.0830708 0.15521567 28
10.561617 -5.8785214 0.12236363 0
12.536522 -4.7546682 0.056631159 0
8.8070574 -4.0937052 -0.016103098 36
10.208864 -5.6821818 -0.088094458 0
12.221367 -4.6351409 -0.17566979 0
8.7691565 -4.0760884 -0.18702789 56
10.020722 -5.5774632 -0.28949344 0
11.910018 -4.5170569 -0.39651933 0
8.7829008 -4.0824766 -0.3590388 57
9.1696453 -5.1037598 -0.45085174 0
11.961381 -4.5365372 -0.62455148 0
8.8119984 -4.0960021 -0.53223115 52
8.8717155 -4.9379344 -0.61566961 3
11.919348 -4.5205951 -0.84827268 0
8.8165932 -4.0981379 -0.70459342 53
8.9061527 -4.9571013 -0.79860795 26
12.030262 -4.5626612 -1.0838168 3
8.8003902 -4.0906062 -0.87499398 55
8.7429276 -4.8662515 -0.96099669 8
12.103636 -4.5904894 -1.3196893 2
8.8139858 -4.0969262 -1.0483379 60
8.821207 -4.1002827 -1.2216367 49
8.8329334 -4.1057329 -1.395649 45
8.820219 -4.099823 -1.5675107 19
8.0375051 -3.7360013 -1.5851902 4
7.3851476 -3.4327719 -1.6017702 4
6.820292 -3.1702151 -1.6125172 5
6.3317475 -2.9431293 -1.620859 5
5.9157152 -2.7497487 -1.6295294 6
4.4384241 -2.0630729 -1.683774 7
3.3369734 -1.5510955 -1.7153164 10
5.8273253 -2.7582977 1.7018495 21
8.0011711 -3.7872627 1.7106014 26
8.0705938 -3.820123 1.2491747 18
8.7705898 -4.1514583 0.84246159 39
8.6078129 -4.0744095 0.48993409 17
8.7660532 -4.1493106 0.32732379 39
13.801987 -7.8087897 0.44101149 54
8.7952232 -4.1631184 0.15592061 25
10.593427 -5.9934735 0.12321394 0
12.212082 -4.7294002 0.055313371 0
8.8071871 -4.1687813 -0.016156156 33
10.214204 -5.7789197 -0.088486522 0
11.998494 -4.6466837 -0.1729283 1
8.765789 -4.1491861 -0.18756932 54
10.002422 -5.6590996 -0.29009905 0
11.661954 -4.5163512 -0.38930085 0
8.7939272 -4.1625047 -0.36066875 53
9.1442251 -5.1735549 -0.45136678 0
11.754314 -4.5521197 -0.6153841 0
8.8048487 -4.1676741 -0.53354371 48
8.8474512 -5.0056486 -0.61639589 2
11.675353 -4.5215402 -0.83313447 0
8.8202219 -4.1749511 -0.70719552 50
8.8574457 -5.0113025 -0.79735816 6
11.775102 -4.5601702 -1.0636715 1
8.7968235 -4.1638756 -0.87750834 55
8.7191381 -4.9330521 -0.9621439 4
9.4848518 -3.6732199 -1.0369277 4
8.8211155 -4.175374 -1.0526273 58
8.8246527 -4.1770482 -1.2261224 45
8.8362646 -4.1825447 -1.400755 41
8.8199368 -4.1748161 -1.5726022 17
8.021903 -3.797076 -1.5873029 4
7.3680978 -3.4876046 -1.603314 4
6.7909231 -3.2144058 -1.6108402 4
6.3110461 -2.9872615 -1.620859 5
5.9139123 -2.7992828 -1.6343762 6
4.4273319 -2.0956268 -1.6850752 6
3.3195095 -1.5712519 -1.7119365 10
5.7870231 -2.7888391 1.695724 21
7.8648591 -3.7901745 1.6870749 31
7.9794912 -3.845417 1.239199 21
8.770113 -4.2264276 0.84522939 35
8.7626896 -4.2228498 0.50041503 32
8.7728853 -4.2277637 0.32867303 35
13.799129 -7.9348502 0.44267944 54
12.361899 -4.8869362 0.29144275 0
8.7947683 -4.2383094 0.1564333 25
10.624143 -6.1091518 0.12406425 0
9.4260826 -3.726342 0.042811263 3
8.8066959 -4.2440572 -0.016209213 32
10.256831 -5.8979383 -0.089210339 0
9.4104376 -3.7201571 -0.13599895 19
8.7798424 -4.2311163 -0.1884975 50
9.9973364 -5.7487226 -0.29110846 0
9.3546772 -3.6981139 -0.3131333 14
8.7970619 -4.2394147 -0.36200237 52
9.1494589 -5.2611709 -0.45342705 0
9.4483929 -3.7351618 -0.49601325 5
8.8043222 -4.2429132 -0.5352937 44
8.8295975 -5.0772429 -0.6176064 2
9.3942318 -3.7137506 -0.67219102 22
8.8052359 -4.2433538 -0.70835203 19
8.7600193 -5.0372334 -0.79173416 2
9.3595409 -3.7000365 -0.84778106 22
8.7962503 -4.2390237 -0.88038188 49
8.7086496 -5.0076947 -0.9648208 3
9.3183508 -3.683753 -1.0215117 26
8.8096638 -4.2454877 -1.054772 44
8.798852 -4.2402773 -1.2266209 20
8.8032827 -4.2424126 -1.4001876 15
8.8048067 -4.2431469 -1.5751477 11
8.0058403 -3.8581152 -1.5894156 4
7.3294272 -3.5321431 -1.6002263 3
6.796504 -3.2753205 -1.6175485 4
6.3005676 -3.0363228 -1.6235725 5
5.911706 -2.8489254 -1.6392231 6
4.4160013 -2.1281266 -1.6863765 6
3.3280554 -1.6038318 -1.7220763 8
5.7639399 -2.8274689 1.6947031 20
7.7606363 -3.8069375 1.6703788 24
7.874207 -3.862649 1.2270066 20
8.7833261 -4.3086119 0.84938115 23
8.7581005 -4.2962379 0.50185359 33
8.7754593 -4.3047528 0.32988733 35
13.802086 -8.0652876 0.44456983 56
9.3197823 -3.7597616 0.22033562 16
8.7793283 -4.3066511 0.15668964 15
13.827435 -8.0801001 0.16212574 36
9.2700062 -3.739681 0.042219948 22
8.8091726 -4.321291 -0.016268903 1
10.429522 -6.0945206 -0.091080196 0
9.2284508 -3.7229171 -0.13374126 20
8.7752228 -4.304637 -0.18903893 49
10.005294 -5.8466215 -0.2925216 0
9.1766148 -3.7020056 -0.30803058 21
8.7851944 -4.3095284 -0.36274326 39
9.1297579 -5.3349996 -0.45428547 0
9.2664719 -3.7382553 -0.48782113 22
8.7888298 -4.3113117 -0.53616875 7
8.7973843 -5.1407762 -0.61784852 2
9.2200222 -3.7195168 -0.66156775 23
8.8076334 -4.3205361 -0.71095413 11
8.7349682 -5.1043034 -0.7926715 16
9.1856241 -3.7056398 -0.83435088 21
8.7700186 -4.3020844 -0.88074106 3
8.6734772 -5.0683708 -0.9648208 2
9.1484804 -3.6906557 -1.00569 26
8.811944 -4.3226509 -1.0586325 12
8.8296089 -4.331316 -1.2350941 7
9.2249212 -4.5252342 -1.4722395 1
8.7501516 -4.2923384 -1.5706928 5
7.9787107 -3.9139125 -1.5894156 4
7.3398266 -3.6005116 -1.6079457 4
6.7875175 -3.3295794 -1.6209027 5
6.2862129 -3.083667 -1.6253815 5
5.8951564 -2.8918364 -1.6401925 6
4.3942447 -2.1555727 -1.683774 7
3.3070126 -1.6222367 -1.7170064 9
5.7440605 -2.8676383 1.6947031 22
7.6108875 -3.7996244 1.6438166 6
7.7797079 -3.8839054 1.2164767 20
13.61266 -6.7959223 1.3209521 16
13.81023 -6.894556 0.79408777 33
13.831354 -6.9051018 0.52174819 34
13.800452 -8.194109 0.44634899 54
9.1453848 -3.7638543 0.21682848 22
13.839473 -8.2172775 0.16293555 38
9.0957146 -3.7434123 0.041544158 23
12.182227 -6.081799 -0.022576172 0
10.355766 -6.1488042 -0.090808764 1
9.0653858 -3.7309303 -0.13175234 18
9.9986162 -5.9367442 -0.293531 0
9.0211458 -3.712723 -0.30367458 22
9.6382523 -4.8117566 -0.39934361 0
9.1438332 -5.4292111 -0.45686078 0
9.0960598 -3.7435544 -0.48021418 22
8.788744 -5.2183747 -0.61978537 2
9.0646534 -3.7306287 -0.65227228 23
8.7608404 -5.2018065 -0.7982955 1
9.0194645 -3.7120311 -0.82159215 21
9.2530375 -4.6194439 -0.93246484 2
8.6960831 -5.1633568 -0.97132176 2
8.9716158 -3.6923387 -0.989057 26
9.1693935 -4.5776858 -1.1053873 2
9.1577988 -4.571897 -1.2854348 1
9.2604151 -4.623127 -1.4830189 2
8.7341051 -4.3603745 -1.5732385 5
7.9688072 -3.9783108 -1.5929366 4
7.3004661 -3.6446512 -1.6048579 4
6.7641082 -3.3768823 -1.6209027 4
6.274991 -3.1326976 -1.6280949 5
5.8782969 -2.934654 -1.6411619 7
4.3926258 -2.1929543 -1.6889788 7
3.2988508 -1.646903 -1.7186964 10
5.6677251 -2.8816223 1.6783687 12
3.9839621 -2.0255523 0.86364883 4
7.6874671 -3.9085126 1.206501 19
13.633523 -6.9316459 1.3278717 22
13.805613 -7.0191407 0.79675943 44
13.830256 -7.0316706 0.52363712 35
13.808476 -8.3363819 0.44857293 58
8.9663877 -3.7672811 0.21323368 21
10.709717 -5.4451051 0.19251357 0
13.8405 -8.3557158 0.1636644 38
8.9242105 -3.7495601 0.040885266 25
10.422263 -5.2989559 -0.019386061 0
13.875058 -8.3765783 -0.12220429 30
8.88661 -3.7337623 -0.1295484 19
10.110178 -5.1402836 -0.21935941 0
10.149955 -6.1276784 -0.29928452 0
8.8536224 -3.7199018 -0.29894522 27
9.5955963 -4.8786564 -0.39904723 0
9.1448441 -5.5208778 -0.45892105 0
8.9247236 -3.7497756 -0.4726072 22
9.192627 -4.6737761 -0.56482565 0
8.7775993 -5.2991672 -0.62172216 2
8.8972387 -3.7382276 -0.64218014 15
9.0685215 -4.6106777 -0.73726434 1
8.7395439 -5.2761922 -0.79985774 2
8.8009272 -3.697762 -0.80413294 11
9.0768795 -4.6149268 -0.91809714 1
8.6682272 -5.2331371 -0.97246897 2
8.8232422 -3.7071376 -0.97566944 39
9.0611458 -4.6069274 -1.0963795 1
9.1452665 -4.6496968 -1.2884254 2
9.2509842 -4.7034464 -1.4869902 1
8.7195082 -4.4332299 -1.5764207 4
7.9359212 -4.0348334 -1.5922323 4
7.2770519 -3.6998467 -1.6056298 5
6.7670641 -3.4405556 -1.627611 5
6.2518587 -3.1786113 -1.6280949 5
5.8497086 -2.9741476 -1.6392231 7
4.386548 -2.2302377 -1.6928825 6
3.2705312 -1.6628251 -1.7102466 11
5.6818213 -2.9388885 1.6885777 20
3.938329 -2.0370774 0.85681856 1
7.6635118 -3.963906 1.2070552 19
13.73346 -7.1035514 1.3424028 17
13.788206 -7.1318684 0.79860896 38
13.830542 -7.1537657 0.52552605 32
13.804479 -8.4660225 0.4503521 61
8.7928324 -3.7667959 0.20972654 26
10.731833 -5.5509768 0.19360304 0
13.843204 -8.4897728 0.16439323 35
8.8095741 -3.773968 0.04047979 51
10.459625 -5.4101791 -0.019525338 0
13.867389 -8.5046043 -0.12265668 33
8.7941504 -3.7673607 -0.12858082 40
10.056285 -5.2015538 -0.21897268 0
10.113747 -6.2025676 -0.2994864 0
8.7943621 -3.767451 -0.2978251 44
9.5257978 -4.9271626 -0.39756545 0
9.1128922 -5.5887628 -0.45926443 0
8.7954998 -3.7679386 -0.4671458 39
9.09237 -4.7029743 -0.5606693 1
8.767621 -5.3770142 -0.62365901 2
8.7828751 -3.7625306 -0.63580614 3
9.0183945 -4.664711 -0.73581874 2
8.8248758 -5.4121275 -0.81110573 5
8.8115368 -3.7748086 -0.80749047 6
8.9736691 -4.6415772 -0.91091329 0
8.6654253 -5.3143392 -0.97629309 1
8.8044624 -3.7717781 -0.97648078 19
8.9545822 -4.6317043 -1.0873717 1
9.1196327 -4.7170758 -1.2894223 2
9.6786423 -5.0062203 -1.5613114 1
8.6953621 -4.4976244 -1.5776935 4
7.9005647 -4.0865207 -1.590824 4
7.2615037 -3.7559698 -1.6079457 4
6.7324576 -3.4823241 -1.6250954 4
6.2225938 -3.2185998 -1.626286 5
5.8356962 -3.0184793 -1.6411619 7
4.354073 -2.2521186 -1.6863765 6
3.2781639 -1.695611 -1.7203863 10
5.6543202 -2.9748821 1.6865358 20
3.986573 -2.0974379 0.87047905 1
7.6531801 -4.0265331 1.2098262 19
13.78228 -7.2512093 1.3520902 23
13.787574 -7.2539945 0.80148613 53
13.822716 -7.2724838 0.52714515 34
13.806127 -8.6002445 0.45235369 68
8.7663202 -3.8280895 0.20972654 43
10.760068 -5.6611466 0.19482066 0
13.844707 -8.6242762 0.16512206 35
8.7903423 -3.8385794 0.040513579 50
10.3862 -5.4644451 -0.019459015 0
13.865393 -8.6371632 -0.12316938 36
8.7896271 -3.8382673 -0.12890334 39
9.9949512 -5.2585988 -0.21843123 0
10.229719 -6.3723946 -0.30423054 9
8.8081493 -3.8463552 -0.29919413 43
9.4805546 -4.9879618 -0.39712089 0
9.1177492 -5.6797156 -0.46149635 0
8.7836246 -3.8356462 -0.467926 41
9.0204334 -4.7458801 -0.558263 0
8.7637577 -5.4592037 -0.62608004 2
8.7856541 -3.8365324 -0.63793081 48
8.9644241 -4.7164121 -0.73408395 1
8.7394905 -5.444087 -0.80673146 2
8.8105383 -3.8473988 -0.80984074 50
8.8881607 -4.6762881 -0.90552539 1
8.6551485 -5.3915482 -0.97935236 1
8.8070908 -3.8458931 -0.97972625 52
8.8797941 -4.671886 -1.0822244 3
8.9986696 -4.7344298 -1.2769617 2
9.6574726 -5.0810432 -1.5635808 1
8.6707401 -4.5618978 -1.5789664 3
7.8718429 -4.1415772 -1.590824 4
7.2385774 -3.8084004 -1.6087176 5
6.7149048 -3.5328827 -1.6267725 4
6.2172132 -3.2710345 -1.6308085 5
5.8076119 -3.0555329 -1.6392231 5
4.3549809 -2.2912667 -1.6928825 4
3.2566209 -1.7133913 -1.7153164 10
5.6095438 -3.0015118 1.6793896 18
3.9545193 -2.1159539 0.8666845 1
7.5934486 -4.0630445 1.2048384 38
13.808622 -7.3886118 1.3597019 26
13.789429 -7.3783426 0.80456877 55
13.835055 -7.4027557 0.52957374 32
