# .PCD v0.7 - Point Cloud Data file format
VERSION 0.7
FIELDS x y z intensity
SIZE 4 4 4 4
TYPE F F F F
COUNT 1 1 1 1
WIDTH 1386
HEIGHT 1
VIEWPOINT 0 0 0 1 0 0 0
POINTS 1386
DATA ascii
13.792249 -5.017242 0.32177943 47
8.7878551 -3.9402046 0.15431847 29
10.489258 -5.6526065 0.12062252 0
13.810476 -5.0238724 0.062071264 7
8.8035707 -3.9472508 -0.015996981 36
11.32401 -6.1024494 -0.09699136 0
12.621613 -4.5913968 -0.18050769 0
8.7727423 -3.9334285 -0.185945 52
9.961956 -5.3684464 -0.28565773 0
12.34988 -4.492548 -0.40908948 0
8.7938929 -3.9429116 -0.35726064 55
9.2277203 -4.9727702 -0.45033666 0
12.656546 -4.6041045 -0.65751499 2
8.8013411 -3.9462512 -0.52829355 51
8.976778 -4.8375387 -0.61833274 9
12.504882 -4.5489335 -0.88545436 3
8.8205996 -3.9548862 -0.70054567 51
8.9412146 -4.8183737 -0.79579592 15
12.484562 -4.5415416 -1.119071 3
8.804368 -3.9476082 -0.86996531 50
8.8118677 -4.7486696 -0.96137911 30
8.9115295 -3.24177 -0.96674436 5
8.8217669 -3.9554093 -1.0427616 57
8.8255072 -3.9570868 -1.2146587 49
8.8301992 -3.9591901 -1.3865715 42
8.8211613 -3.9551382 -1.5579643 24
8.073246 -3.6197958 -1.5823734 4
7.4061251 -3.3206792 -1.5963666 4
6.8485413 -3.0706758 -1.609163 5
6.3676705 -2.855068 -1.6199545 5
5.963223 -2.6737263 -1.6324375 7
4.4626465 -2.0009139 -1.6824727 7
3.3511631 -1.5025587 -1.7119365 10
5.8924785 -2.6915693 1.7100167 21
8.2806139 -3.7824235 1.7591722 26
7.1201305 -3.252337 1.0951061 7
8.7610464 -4.0018754 0.83623391 35
8.7351532 -3.9900477 0.49404427 22
8.763546 -4.0030169 0.32516503 39
13.808827 -7.5663776 0.43789792 68
13.79812 -5.1287341 0.32274389 59
8.7783241 -4.0097675 0.1546389 28
10.509172 -5.7583723 0.12131087 0
13.842555 -5.1452508 0.06237537 1
8.8085451 -4.023572 -0.016056672 35
11.172388 -6.1217732 -0.096056432 0
12.446789 -4.6264472 -0.17846502 1
8.7705326 -4.0062089 -0.18648644 54
9.9593029 -5.4570785 -0.28666714 0
12.130839 -4.5090089 -0.40286663 0
8.791604 -4.0158334 -0.35829788 58
9.1892738 -5.0351501 -0.45016497 0
12.328247 -4.5823851 -0.642106 0
8.7990074 -4.0192151 -0.52982485 51
8.9147749 -4.8847418 -0.61639589 47
12.181015 -4.5276594 -0.86473888 1
8.821806 -4.0296292 -0.70285869 51
8.9003649 -4.8768458 -0.79517102 6
12.21344 -4.5397115 -1.0975827 2
8.798337 -4.018909 -0.87212044 54
8.7750101 -4.8081594 -0.96099669 14
12.100244 -4.4976368 -1.3160381 1
8.8156424 -4.026814 -1.0453353 62
8.822937 -4.0301461 -1.2181476 48
8.8275547 -4.0322552 -1.390543 45
8.8184795 -4.0281096 -1.5624193 25
8.0513611 -3.6777048 -1.5830775 4
7.4006124 -3.3804555 -1.6002263 5
6.8447251 -3.1265373 -1.6133558 4
6.3440394 -2.8978338 -1.61905 5
5.9585314 -2.7217412 -1.636315 6
4.4588904 -2.0367343 -1.6863765 7
3.3570805 -1.5334491 -1.7203863 10
5.8560114 -2.7244833 1.7049122 22
8.1293774 -3.7821567 1.73261 26
7.0110502 -3.2618599 1.0818052 2
8.7690268 -4.0797505 0.83969373 35
8.6020489 -4.0020652 0.4880845 17
8.7680073 -4.0792766 0.32637933 39
13.811556 -7.6937299 0.43967709 55
13.81058 -5.2433891 0.32388371 30
8.782753 -4.0861368 0.15521567 28
10.545588 -5.8744221 0.12220167 0
12.568518 -4.7718215 0.05678321 0
8.8056278 -4.0967793 -0.016103098 36
10.220857 -5.6935306 -0.08821509 0
12.242183 -4.6479239 -0.17599231 0
8.7677336 -4.0791492 -0.18702789 54
9.9558964 -5.5459337 -0.28767651 0
11.904701 -4.5197945 -0.39639488 0
8.7814751 -4.0855422 -0.3590388 59
9.1643724 -5.1050153 -0.45068005 0
11.956062 -4.5392938 -0.62435645 0
8.8105688 -4.0990777 -0.53223115 52
8.8769674 -4.9449167 -0.61615378 2
11.910306 -4.5219221 -0.84774154 0
8.8151627 -4.1012154 -0.70459342 55
8.8974543 -4.9563289 -0.79798305 29
12.039848 -4.5711045 -1.084824 3
8.7953491 -4.0919971 -0.8746348 54
8.7516632 -4.8751159 -0.9621439 8
12.102032 -4.5947137 -1.3196893 2
8.8161621 -4.1016803 -1.0487669 59
8.8197756 -4.1033616 -1.2216367 49
8.8243198 -4.1054754 -1.3945143 46
8.8259487 -4.1062331 -1.5687835 21
8.0540495 -3.7471108 -1.5887113 4
7.3803902 -3.4336936 -1.6009983 5
6.8227315 -3.1742454 -1.6133558 5
6.3377857 -2.9486265 -1.622668 5
5.9464226 -2.7665465 -1.6382537 6
4.4445629 -2.0678132 -1.6863765 6
3.3397191 -1.5537894 -1.7170064 10
5.8343172 -2.7616072 1.7038913 22
8.0082703 -3.7906229 1.7121192 32
8.0705938 -3.820123 1.2491747 18
8.7741919 -4.1531634 0.84280753 34
8.6114235 -4.0761189 0.49013957 18
8.7660532 -4.1493106 0.32732379 41
13.805466 -7.8107586 0.44112268 62
8.7952232 -4.1631184 0.15592061 25
10.603869 -5.999382 0.12333541 0
12.219541 -4.7322893 0.05534716 0
8.8108025 -4.1704922 -0.016162788 33
10.20376 -5.7730112 -0.088396043 0
12.009683 -4.6510167 -0.17308956 1
8.765789 -4.1491861 -0.18756932 53
9.9571781 -5.6335015 -0.28878686 0
11.66941 -4.5192385 -0.38954976 0
8.8011532 -4.165925 -0.36096513 56
9.1442251 -5.1735549 -0.45136678 0
11.754314 -4.5521197 -0.6153841 0
8.8048487 -4.1676741 -0.53354371 51
8.843976 -5.0036821 -0.61615378 2
11.686519 -4.5258641 -0.83393121 0
8.8130102 -4.1715374 -0.70661724 49
8.8470325 -5.0054111 -0.79642081 5
11.793687 -4.5673676 -1.0653502 1
8.7932234 -4.1621714 -0.87714916 53
8.7191381 -4.9330521 -0.9621439 5
9.4811401 -3.6717827 -1.036522 4
8.8139257 -4.1719708 -1.0517694 56
8.8282404 -4.1787462 -1.2266209 46
8.8398438 -4.1842384 -1.4013224 40
8.8092289 -4.1697478 -1.5706928 17
8.021903 -3.797076 -1.5873029 4
7.3610024 -3.4842463 -1.6017702 4
6.808599 -3.2227721 -1.6150329 4
6.3110461 -2.9872615 -1.620859 5
5.9244356 -2.8042638 -1.6372844 6
4.4273319 -2.0956268 -1.6850752 6
3.3260636 -1.5743541 -1.7153164 10
5.7905068 -2.790518 1.6967449 20
7.8719358 -3.7935848 1.6885928 25
7.9723544 -3.8419778 1.2380906 20
8.7737036 -4.228158 0.84557539 33
8.7554922 -4.2193818 0.50000405 31
8.7728853 -4.2277637 0.32867303 36
13.812995 -7.9428229 0.44312423 44
12.365618 -4.8884063 0.29153043 0
8.7911654 -4.2365732 0.15636921 25
10.617208 -6.1051645 0.12398327 0
9.4260826 -3.726342 0.042811263 3
8.803093 -4.242321 -0.016202582 32
10.267234 -5.9039202 -0.089300819 0
9.4104376 -3.7201571 -0.13599895 18
8.7762394 -4.2293801 -0.18842015 48
10.025068 -5.7646689 -0.29191598 0
9.3583965 -3.699584 -0.31325775 14
8.7970619 -4.2394147 -0.36200237 52
9.135601 -5.2532024 -0.45274028 0
9.4483929 -3.7351618 -0.49601325 5
8.800724 -4.2411795 -0.53507495 45
8.815752 -5.0692811 -0.616638 2
9.3979435 -3.7152178 -0.67245662 24
8.798048 -4.2398896 -0.70777375 21
8.7842188 -5.0511489 -0.79392129 2
9.3595409 -3.7000365 -0.84778106 23
8.7962503 -4.2390237 -0.88038188 52
8.7051983 -5.0057101 -0.96443838 3
9.3109493 -3.6808271 -1.0207003 23
8.8060818 -4.2437615 -1.0543431 43
8.7952766 -4.238554 -1.2261224 20
8.8104162 -4.2458506 -1.4013224 15
8.8225937 -4.251719 -1.5783299 11
8.0058403 -3.8581152 -1.5894156 4
7.340034 -3.5372546 -1.6025422 4
6.796504 -3.2753205 -1.6175485 5
6.3005676 -3.0363228 -1.6235725 5
5.9082098 -2.8472404 -1.6382537 7
4.4057794 -2.1232004 -1.6824727 7
3.3247895 -1.6022578 -1.7203863 9
5.770884 -2.8308754 1.6967449 21
7.7571106 -3.805208 1.6696198 30
7.8599806 -3.85567 1.2247897 19
8.7690153 -4.3015919 0.84799725 25
8.7545137 -4.2944784 0.50164813 31
8.7754593 -4.3047528 0.32988733 36
13.80899 -8.0693226 0.44479221 75
9.3234911 -3.7612579 0.2204233 15
8.7793283 -4.3066511 0.15668964 15
13.823981 -8.0780821 0.16208525 37
9.2588778 -3.7351916 0.042169265 22
8.8055811 -4.3195291 -0.016262272 1
10.432976 -6.0965385 -0.091110356 0
9.2284508 -3.7229171 -0.13374126 22
8.7752228 -4.304637 -0.18903893 48
9.9742212 -5.8284645 -0.29161316 0
9.1766148 -3.7020056 -0.30803058 21
8.7959604 -4.3148103 -0.36318782 40
9.1228571 -5.3309669 -0.45394209 0
9.2627659 -3.7367604 -0.48762608 21
8.8031731 -4.3183479 -0.53704375 8
8.8215141 -5.1548767 -0.61954325 2
9.2311268 -3.7239966 -0.66236448 24
8.7968884 -4.3152647 -0.71008676 11
8.752183 -5.1143627 -0.79423374 16
9.1856241 -3.7056398 -0.83435088 22
8.762866 -4.2985754 -0.8800227 3
8.6941032 -5.0804238 -0.96711522 2
9.1447897 -3.6891668 -1.0052843 25
8.8083744 -4.3208995 -1.0582036 14
8.8224831 -4.3278203 -1.2340972 7
9.2569151 -4.5409284 -1.4773455 1
8.760787 -4.2975559 -1.5726022 5
7.9857812 -3.9173808 -1.590824 4
7.3222075 -3.5918686 -1.6040859 4
6.7840066 -3.327857 -1.6200641 4
6.2757187 -3.0785191 -1.622668 4
5.8777361 -2.883291 -1.6353456 7
4.4044323 -2.1605699 -1.6876776 7
3.3037577 -1.6206402 -1.7153164 10
5.7336798 -2.8624561 1.6916404 21
7.6144018 -3.801379 1.6445756 6
7.7832522 -3.885675 1.2170309 20
13.598398 -6.7888021 1.3195682 16
13.803082 -6.8909874 0.79367673 32
13.820624 -6.899745 0.52134341 34
13.817642 -8.2043152 0.44690499 32
9.1490822 -3.7653763 0.21691616 22
13.846351 -8.2213621 0.16301654 38
9.1031132 -3.7464571 0.04157795 23
12.178649 -6.0800123 -0.022569539 0
10.359205 -6.150846 -0.090838924 0
9.0616875 -3.729408 -0.13169858 19
10.008931 -5.9428687 -0.29383382 0
9.0026598 -3.7051148 -0.30305228 21
9.1438332 -5.4292111 -0.45686078 0
9.0886707 -3.7405133 -0.47982407 22
8.788744 -5.2183747 -0.61978537 2
9.0646534 -3.7306287 -0.65227228 23
8.7436962 -5.191627 -0.79673326 2
9.0157795 -3.7105145 -0.8212564 21
9.2459087 -4.6158848 -0.93174648 2
8.6755419 -5.1511602 -0.96902728 2
8.9789762 -3.6953681 -0.98986834 24
9.1693935 -4.5776858 -1.1053873 2
9.1542473 -4.5701241 -1.2849364 1
9.2604151 -4.623127 -1.4830189 2
8.7411718 -4.3639026 -1.5745114 6
7.9652843 -3.976552 -1.5922323 4
7.3074894 -3.6481574 -1.6064018 4
6.7711067 -3.3803761 -1.6225798 5
6.2715049 -3.1309574 -1.6271905 5
5.8713527 -2.9311872 -1.6392231 7
4.3892422 -2.1912649 -1.6876776 7
3.3085818 -1.6517612 -1.7237662 10
5.6608305 -2.8781168 1.6763269 13
3.9839621 -2.0255523 0.86364883 4
7.6909981 -3.9103081 1.2070552 19
13.654837 -6.9424825 1.3299476 22
13.802052 -7.0173302 0.79655391 35
13.830256 -7.0316706 0.52363712 33
13.815321 -8.3405142 0.44879535 32
8.9627008 -3.765732 0.213146 23
10.720413 -5.4505429 0.19270584 0
13.833652 -8.3515806 0.16358341 36
8.9278975 -3.7511094 0.04090216 25
10.461485 -5.3188972 -0.019459015 0
13.878482 -8.3786459 -0.12223445 29
8.88661 -3.7337623 -0.1295484 18
10.038879 -5.1040335 -0.21781245 0
10.156801 -6.1318116 -0.2994864 0
8.8573084 -3.7214508 -0.29906967 25
9.6027222 -4.8822794 -0.39934361 0
9.1380014 -5.516747 -0.45857766 0
8.9247236 -3.7497756 -0.4726072 23
9.192627 -4.6737761 -0.56482565 0
8.7775993 -5.2991672 -0.62172216 2
8.8898792 -3.7351356 -0.64164901 17
9.061409 -4.6070614 -0.73668611 1
8.7429571 -5.2782531 -0.80017018 2
8.8082771 -3.70085 -0.80480444 10
9.059123 -4.6058993 -0.91630119 1
8.6648178 -5.2310791 -0.97208655 2
8.826911 -3.7086792 -0.97607511 37
9.075325 -4.6141367 -1.0980953 1
9.1452665 -4.6496968 -1.2884254 2
9.2651024 -4.7106247 -1.4892596 1
8.7159882 -4.4314404 -1.5757842 4
7.9359212 -4.0348334 -1.5922323 4
7.284049 -3.7034044 -1.6071737 5
6.7600913 -3.4370103 -1.625934 4
6.2518587 -3.1786113 -1.6280949 5
5.8531675 -2.9759061 -1.6401925 6
4.3798051 -2.2268093 -1.6902801 7
3.2866898 -1.6710405 -1.7186964 10
5.6783862 -2.9371116 1.6875567 20
3.9313521 -2.0334687 0.85530072 1
7.6635118 -3.963906 1.2070552 19
13.737 -7.105382 1.3427488 17
13.791755 -7.1337037 0.79881448 40
13.830542 -7.1537657 0.52552605 32
13.828338 -8.4806547 0.45113051 34
8.7928324 -3.7667959 0.20972654 27
10.724729 -5.5473022 0.19347486 0
13.843204 -8.4897728 0.16439323 36
8.8022203 -3.7708175 0.040446002 48
10.473837 -5.4175301 -0.019551868 0
13.870799 -8.5066957 -0.12268683 37
8.7941504 -3.7673607 -0.12858082 37
10.070494 -5.2089033 -0.21928208 0
10.113747 -6.2025676 -0.2994864 0
8.7943621 -3.767451 -0.2978251 44
9.5328989 -4.9308357 -0.39786181 0
9.1299257 -5.5992088 -0.46012285 0
8.7918272 -3.7663655 -0.46695074 38
9.1065598 -4.7103143 -0.56154436 1
8.7642174 -5.374927 -0.6234169 2
8.7535257 -3.7499571 -0.63368148 4
9.0077639 -4.6592126 -0.73495132 2
8.8044796 -5.3996191 -0.80923104 5
8.7748985 -3.7591131 -0.80413294 7
8.9701309 -4.6397471 -0.91055411 0
8.6790018 -5.3226657 -0.97782272 1
8.8044624 -3.7717781 -0.97648078 20
8.9687119 -4.6390133 -1.0890875 1
9.1055326 -4.7097826 -1.2874286 2
9.6891937 -5.0116782 -1.5630133 1
8.7023773 -4.5012531 -1.5789664 4
7.925046 -4.0991831 -1.5957534 3
7.2615037 -3.7559698 -1.6079457 4
6.7324576 -3.4823241 -1.6250954 5
6.2364373 -3.2257602 -1.6299039 5
5.8288026 -3.0149136 -1.6392231 6
4.3607922 -2.255594 -1.6889788 6
3.2813842 -1.6972766 -1.7220763 9
5.6543202 -2.9748821 1.6865358 22
3.986573 -2.0974379 0.87047905 1
7.6496739 -4.0246887 1.209272 19
13.778753 -7.2493539 1.3517443 22
13.787574 -7.2539945 0.80148613 56
13.819179 -7.2706223 0.5270102 32
13.816308 -8.6065865 0.45268726 30
8.7773151 -3.8328907 0.20998958 43
10.752989 -5.6574221 0.19469249 0
13.831126 -8.6158171 0.1649601 36
8.7866774 -3.8369789 0.040496685 49
10.37558 -5.4588575 -0.019439118 0
13.855208 -8.6308184 -0.12307891 36
8.7822962 -3.8350661 -0.12879583 37
11.920324 -6.2715864 -0.26050866 0
10.229719 -6.3723946 -0.30423054 9
8.8044853 -3.8447554 -0.29906967 43
9.4840918 -4.9898229 -0.39726907 0
9.1211414 -5.681829 -0.46166804 0
8.7799635 -3.8340473 -0.46773094 42
9.0098295 -4.7403011 -0.55760676 1
8.7603693 -5.4570928 -0.62583792 2
8.7893124 -3.8381295 -0.63819641 46
8.9644241 -4.7164121 -0.73408395 1
8.719182 -5.4314361 -0.80485684 2
8.7995796 -3.8426132 -0.80883348 49
8.8846359 -4.6744337 -0.90516621 1
8.665288 -5.3978643 -0.98049963 1
8.8143835 -3.8490779 -0.98053765 52
8.865715 -4.6644788 -1.0805086 4
9.0162315 -4.7436695 -1.2794538 2
9.6644812 -5.0847301 -1.5647154 1
8.6777296 -4.5655751 -1.5802392 3
7.8857813 -4.1489105 -1.5936408 4
7.2489977 -3.8138826 -1.6110334 4
6.7149048 -3.5328827 -1.6267725 4
6.2241096 -3.274663 -1.6326175 4
5.8179154 -3.0609539 -1.6421313 6
4.3482862 -2.2877445 -1.6902801 4
3.2630377 -1.7167674 -1.7186964 10
5.6037693 -2.9959071 1.6773478 17
3.9448669 -2.1090186 0.86440772 1
7.6123328 -4.0697322 1.2076094 28
13.814713 -7.3856711 1.3600478 26
13.792003 -7.373529 0.80456877 52
13.841164 -7.3998113 0.52970868 34
13.80624 -8.7279434 0.45424405 44
8.7626638 -3.8958924 0.21025261 41
10.856314 -5.8040409 0.19725592 1
13.834536 -8.7458315 0.16568895 35
8.7829666 -3.9049189 0.040598053 49
10.409698 -5.565269 -0.019571764 0
13.868662 -8.7674046 -0.12371224 35
8.7859068 -3.9062262 -0.12922588 40
10.023337 -5.3587122 -0.21982351 0
13.881538 -8.7755451 -0.41455701 33
8.8007116 -3.9128089 -0.2998164 41
9.4613657 -5.0582685 -0.39771363 0
9.1170368 -5.7635517 -0.46338493 0
8.7798977 -3.9035549 -0.4690963 50
8.9676256 -4.7943039 -0.55695045 1
8.7543564 -5.5342751 -0.62801689 2
8.79284 -3.9093091 -0.64032108 50
8.9083185 -4.7625966 -0.73206013 7
8.7099333 -5.5061913 -0.80735636 2
8.8030386 -3.9138432 -0.8115195 43
8.8358717 -4.7238646 -0.90337026 8
8.6629524 -5.4764915 -0.98432368 1
8.8104801 -3.9171517 -0.98297173 50
8.82757 -4.7194266 -1.0796508 14
8.9635715 -4.7921362 -1.2764633 1
9.6305456 -5.148716 -1.5647154 1
8.6437759 -4.6211662 -1.5796027 3
7.8685079 -4.2066894 -1.5957534 4
7.2166209 -3.8581753 -1.6094896 4
6.6982245 -3.5810282 -1.6284496 4
6.2022543 -3.315871 -1.6326175 5
5.7906413 -3.095813 -1.6401925 6
4.3330178 -2.3165333 -1.6902801 6
3.2451856 -1.7349524 -1.7153164 9
5.2361341 -2.8465395 1.5732154 16
3.9369483 -2.1402581 0.86592555 2
7.5767756 -4.1189909 1.206501 25
13.832839 -7.5199986 1.3669674 25
13.792835 -7.4982514 0.8076514 48
13.82429 -7.5153508 0.53105789 30
13.812266 -8.8673191 0.45646802 31
8.7643938 -3.9701736 0.21095404 46
10.920945 -5.9369946 0.19917849 1
13.843824 -8.8875799 0.16653925 35
8.7882833 -3.9809952 0.040750105 47
11.203473 -6.0905867 -0.021143606 0
13.871069 -8.9050703 -0.12428527 37
8.7948551 -3.9839721 -0.12976342 37
10.003252 -5.4381061 -0.22021025 0
13.893965 -8.9197693 -0.41677767 35
8.7986736 -3.9857018 -0.30068761 42
9.4293346 -5.1261048 -0.39786181 0
9.1169319 -5.8529682 -0.46544516 0
8.7742672 -3.9746461 -0.47026658 47
8.9409561 -4.8606057 -0.55738801 1
8.7692652 -5.6297693 -0.63189054 2
8.7871466 -3.9804804 -0.64191455 52
8.902894 -4.8399138 -0.73437309 5
8.7820206 -5.637958 -0.81766707 2
8.8009157 -3.9867175 -0.81386983 43
8.8026791 -4.7854333 -0.90337026 94
8.7987404 -5.6486926 -1.004209 1
8.8155413 -3.9933426 -0.98662287 49
8.82236 -4.796133 -1.0830823 5
8.9054909 -4.8413258 -1.2729743 1
9.6048031 -5.2214952 -1.5664173 1
8.6182442 -4.6851687 -1.5808756 3
7.8493276 -4.2671595 -1.5978661 4
7.2170968 -3.9234576 -1.6156651 4
6.679934 -3.6314378 -1.6301267 5
6.1892247 -3.3646715 -1.6353309 4
5.7791166 -3.1417232 -1.6431006 5
4.3100939 -2.3431127 -1.6876776 7
3.2457354 -1.7644914 -1.7220763 11
5.5850883 -3.086951 1.684494 21
3.9287853 -2.1714907 0.86744338 3
7.5166316 -4.1545401 1.2015132 20
13.800929 -7.6279531 1.3690432 26
13.782107 -7.6175499 0.81011748 50
13.830967 -7.6445551 0.5333516 35
13.820368 -9.0093822 0.45880318 32
8.7655115 -4.0446677 0.21165547 46
10.86173 -6.0034189 0.19885807 1
13.848457 -9.0276937 0.16734907 31
8.7820673 -4.0523071 0.040851474 47
10.33098 -5.7100673 -0.019571764 0
13.872228 -9.043189 -0.12485828 39
8.7958803 -4.0586805 -0.13019346 39
11.361619 -6.2797146 -0.25107217 1
13.908402 -9.0667715 -0.41909927 35
8.7996759 -4.060432 -0.30168328 45
9.4213057 -5.2072783 -0.39904723 0
9.1327639 -5.9535723 -0.46836385 0
8.7680712 -4.0458488 -0.47143689 47
8.9137964 -4.9267707 -0.55782551 1
8.7832651 -5.7257371 -0.63576418 2
8.7808876 -4.0517626 -0.64350808 51
8.8828545 -4.9096694 -0.7355296 5
8.7958975 -5.7339721 -0.82266617 1
8.8090601 -4.0647626 -0.81722736 41
8.7551088 -4.8390622 -0.90193349 44
8.7757711 -5.7208514 -1.006121 1
8.8235807 -4.0714622 -0.99067974 49
8.8095465 -4.8691506 -1.0856559 2
8.8089514 -4.8688216 -1.2640027 2
9.5819788 -5.2960839 -1.5686867 1
8.5922375 -4.7490411 -1.5821484 3
7.819346 -4.3218541 -1.5978661 4
7.1929655 -3.9756455 -1.616437 4
6.6783805 -3.6912277 -1.6359965 5
6.1689939 -3.4096832 -1.6362355 4
5.7672324 -3.1876242 -1.6460088 6
4.3068724 -2.3804643 -1.6928825 7
3.2269917 -1.7836002 -1.7186964 10
5.5768886 -3.133445 1.6885777 22
3.930649 -2.2084846 0.87123799 4
7.4736295 -4.1991529 1.1992964 21
13.667433 -7.6792192 1.3610858 24
13.801726 -7.754674 0.81443322 77
13.83651 -7.7742176 0.53564531 32
13.813816 -9.1431637 0.46069354 34
8.7732553 -4.1227698 0.21253225 44
13.853072 -7.7835231 0.25461265 31
13.848467 -9.1660986 0.1681184 36
8.7861462 -4.1288276 0.041003529 49
10.357123 -5.8192801 -0.019697776 0
13.8788 -9.1861763 -0.12549162 35
8.7999105 -4.1352959 -0.13067725 39
10.086733 -5.6673579 -0.22376826 0
13.891449 -9.1945477 -0.42051244 36
8.7928257 -4.1319666 -0.30243 45
9.4230556 -5.2944622 -0.4006772 0
9.1976156 -6.0877686 -0.47385788 1
8.7866201 -4.1290503 -0.47397256 49
8.8896294 -4.9947505 -0.55848175 1
8.826314 -5.8420086 -0.64181679 3
8.7921228 -4.1316361 -0.64642948 50
8.8309717 -4.9617925 -0.73408395 1
8.7390251 -5.784234 -0.82110393 1
8.8129358 -4.1414165 -0.82024914 42
8.7280588 -4.9039698 -0.90265185 17
8.8119841 -5.8325238 -1.0149165 1
8.8237543 -4.1465006 -0.99392521 50
8.8030758 -4.9461188 -1.0890875 2
8.7712851 -4.928257 -1.2635043 2
9.5344152 -5.3570313 -1.5669848 1
8.5692024 -4.814714 -1.5840577 3
7.7958484 -4.3801956 -1.5992745 4
7.1718783 -4.0296102 -1.6179808 5
6.6422191 -3.7320144 -1.6334808 4
6.165421 -3.4641197 -1.6416625 4
5.7482209 -3.2297103 -1.6469781 6
4.2901487 -2.4104741 -1.6928825 7
3.2207828 -1.8096373 -1.7220763 10
5.540338 -3.1665647 1.684494 19
3.9245837 -2.2430849 0.87351471 5
7.4426475 -4.2538242 1.1992964 4
13.458545 -7.6921935 1.3458626 24
13.800002 -7.8873525 0.81772137 38
13.8208 -7.8992395 0.53726441 28
13.819417 -9.2932663 0.46313989 35
8.7680454 -4.1990614 0.213146 44
13.844256 -7.9126463 0.25550985 31
13.847285 -9.312007 0.16892822 30
8.7845049 -4.206944 0.041138686 49
10.460044 -5.9784088 -0.019976331 0
13.874154 -9.3300762 -0.12606464 37
8.7873974 -4.2083292 -0.13094603 39
9.9893627 -5.7093925 -0.22253069 0
13.899995 -9.3474531 -0.42283404 32
8.8019657 -4.2153058 -0.30379903 43
9.4291077 -5.3891802 -0.40260354 0
9.2688103 -6.2330794 -0.47986692 0
8.7813396 -4.2054281 -0.47533789 47
8.8631802 -5.0657258 -0.559138 1
8.8196974 -5.9310603 -0.64447993 1
8.7867975 -4.2080417 -0.64828855 47
8.7943621 -5.0263934 -0.73408395 2
8.759263 -5.8904195 -0.82704037 1
8.8039103 -4.2162371 -0.82226366 42
8.7160883 -4.9816556 -0.90516621 9
8.7491674 -5.8836308 -1.012622 1
8.8361912 -4.2316966 -0.99879342 31
8.7078848 -4.9769673 -1.0817955 3
8.7418146 -4.9963598 -1.2645011 0
9.5120783 -5.4366016 -1.5698214 2
8.5508204 -4.8871975 -1.5872399 3
7.7772055 -4.4450397 -1.6020914 4
7.1489615 -4.085969 -1.6195247 4
6.607892 -3.7767222 -1.6318038 4
6.1364794 -3.5072877 -1.6407579 4
5.7243915 -3.27176 -1.6469781 6
4.2789316 -2.4456115 -1.6954849 6
3.2105784 -1.8349972 -1.7237662 9
3.9224131 -2.2783184 0.87655044 5
8.7898188 -5.1055317 1.4220862 22
13.30114 -7.7259154 1.3354832 27
13.78951 -8.0095825 0.82039297 52
13.834456 -8.0356903 0.53996283 33
13.826853 -9.4391146 0.46558625 35
8.7636795 -4.2724385 0.21375975 44
13.850932 -8.0452604 0.25666341 27
13.844703 -9.4512997 0.16969755 33
8.7800894 -4.2804389 0.041256949 48
10.49069 -6.0934763 -0.020115608 0
13.871448 -9.4695578 -0.12663767 35
8.7865648 -4.2835956 -0.13137606 37
10.028801 -5.8251896 -0.2243097 0
13.903751 -9.4916105 -0.42495376 34
8.8046656 -4.2924204 -0.30491915 25
9.4465599 -5.4869971 -0.4049744 0
13.855758 -9.458847 -0.72074467 38
8.7733135 -4.2771358 -0.4765082 37
8.8379612 -5.1334949 -0.55979431 1
8.8572178 -6.0465159 -0.65029043 1
8.7715549 -4.2762785 -0.64935088 18
8.7694082 -5.0936766 -0.73495132 1
8.7706232 -5.9874015 -0.83203948 0
8.7599297 -4.2706108 -0.82092065 1
8.6983223 -5.0523863 -0.90696216 5
8.8065338 -6.0119162 -1.0240943 1
8.8350477 -4.3072319 -1.0020388 10
8.662611 -5.0316439 -1.0805086 2
8.8817492 -5.1589293 -1.2899207 1
9.4704695 -5.5008855 -1.569254 2
8.5164948 -4.9467726 -1.5872399 3
7.7527943 -4.50318 -1.6034999 4
7.1270509 -4.1397195 -1.6210686 4
6.5915117 -3.8286538 -1.6343194 4
6.1219535 -3.5559127 -1.6434715 4
5.7014117 -3.3116429 -1.6469781 5
4.2584839 -2.4735239 -1.6941837 7
3.1820152 -1.8482611 -1.7153164 9
3.0109155 -1.7771056 0.92289859 10
3.9334695 -2.3216164 0.88262177 5
8.8085461 -5.1989889 1.4309535 23
13.226289 -7.8064332 1.3334073 16
13.788301 -8.1381445 0.82368112 55
13.829662 -8.1625576 0.5419867 32
13.819775 -9.5764065 0.4675878 34
8.7587147 -4.3459587 0.2143735 22
13.839204 -8.168189 0.25749651 26
13.85071 -9.5978432 0.17058834 36
10.43067 -6.1564007 -0.020082448 0
13.877328 -9.6162882 -0.12730116 33
10.011998 -5.9092917 -0.22485113 0
13.89631 -9.6294422 -0.42677066 35
9.8990517 -4.9117789 -0.34399858 0
9.4355621 -5.569067 -0.40615985 0
13.858365 -9.6031475 -0.72435009 41
8.7647133 -4.3489351 -0.47767851 19
8.8397427 -5.2174015 -0.56220061 1
9.051075 -6.2719383 -0.66772187 32
8.7843914 -4.3586993 -0.65253788 1
8.767992 -5.1750531 -0.73784256 3
8.7908859 -6.0916405 -0.83797592 0
9.2226334 -4.576149 -0.86725485 0
8.673131 -5.1190643 -0.90803975 3
8.8658018 -6.1435537 -1.0359491 1
9.1933126 -4.5616007 -1.0462584 2
8.6306973 -5.0940189 -1.0809376 2
8.7874126 -5.1865153 -1.2814475 1
9.4318361 -5.5668678 -1.569254 2
8.47155 -5.0000868 -1.5853306 3
7.7211671 -4.5571952 -1.6034999 4
7.101357 -4.19137 -1.6218406 5
6.5814629 -3.8845177 -1.6385121 4
6.0869126 -3.5926237 -1.6407579 4
5.7082319 -3.3691185 -1.6557026 6
4.2313399 -2.4974256 -1.6902801 7
3.1815233 -1.8778019 -1.7220763 10
2.9990628 -1.7970356 0.92289859 13
3.9247229 -2.3516901 0.8841396 6
8.8112497 -5.2796922 1.4370497 30
13.075091 -7.8345823 1.3233739 16
13.799129 -8.268424 0.82758582 40
13.840377 -8.2931404 0.54455024 27
13.831202 -9.7207298 0.47014537 36
13.813991 -6.9688706 0.33922741 24
13.846479 -8.2967968 0.25865006 26
13.848928 -9.7331886 0.17135768 35
12.135126 -6.1219182 0.057408318 0
13.868825 -8.3101864 -0.026807547 32
13.878698 -9.7541103 -0.12790434 34
12.116283 -6.1124125 -0.1823891 0
10.061779 -6.0290084 -0.22686219 0
13.907388 -9.7742739 -0.42909226 34
9.9090939 -4.9989314 -0.34549206 0
9.425849 -5.6479597 -0.40734529 0
13.872842 -9.7499943 -0.72847062 46
8.8117971 -5.2800198 -0.5626381 1
13.902645 -9.7709408 -1.0303931 28
9.1294489 -4.6056166 -0.68042415 0
8.7505875 -5.2433434 -0.73928821 3
8.8383837 -6.211719 -0.84641194 0
9.0746441 -4.5779691 -0.85617495 1
8.6697454 -5.1949029 -0.91127247 2
8.9160757 -6.2663217 -1.0466566 2
9.0918007 -4.5866237 -1.0381447 1
8.6206026 -5.1654568 -1.0839401 1
8.8515491 -5.3038397 -1.2959018 0
9.4116888 -5.6394749 -1.5720907 2
8.468689 -5.0744305 -1.5910584 3
7.714416 -4.6224709 -1.6084293 4
7.0835023 -4.2444277 -1.6241564 5
6.5488453 -3.9240618 -1.636835 4
6.0729785 -3.6389227 -1.6434715 4
5.6791039 -3.4029133 -1.6537639 6
4.2309055 -2.5351546 -1.6967862 7
3.1752191 -1.9025881 -1.7254562 10
3.0194798 -1.8380389 0.93310761 4
3.9350467 -2.3953693 0.89021093 5
8.8317003 -5.3760943 1.4464712 24
12.92817 -7.8697267 1.3140324 13
13.802488 -8.401947 0.83128494 36
13.833364 -8.420742 0.54657406 31
13.837871 -9.8704576 0.47270292 31
13.811253 -7.0888796 0.34036723 30
13.853129 -8.4327736 0.2598677 27
13.849023 -9.8784122 0.17220798 36
10.37685 -5.3261094 0.049265053 0
13.878806 -8.4484043 -0.026940191 26
13.881904 -9.901866 -0.12856784 31
11.222881 -5.7603502 -0.16954176 0
10.180001 -6.1968417 -0.23049755 0
13.913687 -9.9245358 -0.43141386 32
9.8739529 -5.0679884 -0.34549206 1
9.399847 -5.7219405 -0.407938 0
13.872758 -9.8953419 -0.73207605 43
9.1987591 -4.7214322 -0.50479054 0
8.8088369 -5.3621774 -0.56482565 1
13.905604 -9.9187708 -1.0357194 43
9.0544624 -4.6473699 -0.67723715 1
8.8057795 -5.3603158 -0.74709451 3
13.921045 -9.9297848 -1.3397616 26
8.9928179 -4.6157293 -0.85147434 0
8.6468782 -5.263588 -0.91270924 1
12.723068 -9.0752764 -1.5009598 5
8.9604301 -4.5991058 -1.0267856 1
8.6047134 -5.2379212 -1.0865139 1
8.8176966 -5.3675699 -1.2964002 0
9.3889999 -5.7153382 -1.5749274 2
8.4398022 -5.1375356 -1.5923312 2
7.6785936 -4.6741672 -1.6077251 5
7.0570507 -4.2958174 -1.6249282 4
6.5379944 -3.9798539 -1.6410277 6
6.0640669 -3.6913614 -1.6479939 4
5.6618381 -3.4465139 -1.6557026 6
4.2131038 -2.56463 -1.6967862 7
3.1556654 -1.9209387 -1.7220763 9
3.0125034 -1.8641932 0.93514943 5
3.9173827 -2.4241493 0.89021093 5
8.8055296 -5.4490256 1.448688 22
13.801675 -8.5407333 0.83498412 34
13.846055 -8.5681963 0.54954237 32
13.826668 -10.016196 0.4748157 31
11.51184 -6.015686 0.28477919 2
13.848761 -8.5698709 0.26095715 25
13.860456 -10.040673 0.17326075 37
10.383615 -5.4261155 0.049484685 0
13.877729 -8.5877972 -0.027059572 29
13.88021 -10.054982 -0.12923133 34
10.070827 -5.2626629 -0.15271661 0
10.127502 -6.267087 -0.23034286 1
13.918282 -10.082562 -0.4338364 29
9.8400812 -5.1420832 -0.34561652 1
9.4018402 -5.8180337 -0.40986434 0
13.877522 -10.053036 -0.73619658 36
9.1214104 -4.766531 -0.50244993 0
8.7964659 -5.4434166 -0.56657571 1
13.913358 -10.078995 -1.041772 41
9.0236902 -4.7154655 -0.67750269 2
8.7662506 -5.4247193 -0.74709451 2
13.928618 -10.090051 -1.3475728 32
8.9234152 -4.6630654 -0.84811682 1
8.648715 -5.3519859 -0.91701955 1
12.717467 -9.212678 -1.5082256 3
8.8735733 -4.6370201 -1.0207003 4
8.6032867 -5.323874 -1.0912322 9
8.8759861 -5.4926252 -1.3108544 1
9.3704224 -5.7985921 -1.5788988 2
8.4086332 -5.2034187 -1.5936041 2
7.6575179 -4.7386146 -1.6105421 4
7.0420594 -4.3577576 -1.628788 4
6.511972 -4.0297294 -1.6418662 3
6.0434728 -3.7398133 -1.6498029 5
5.6463227 -3.4940498 -1.6586107 6
4.1974082 -2.5974343 -1.6980873 7
3.1414998 -1.9440186 -1.7220763 9
3.0125132 -1.8934112 0.93923306 11
3.9169888 -2.4618881 0.89400554 5
8.8075209 -5.5356631 1.4553384 24
12.615159 -7.9288225 1.2936196 5
13.789062 -8.6666384 0.83786124 32
13.840056 -8.6986895 0.55170119 30
13.843389 -10.176423 0.47781804 35
11.314187 -6.0133276 0.28092134 3
13.839386 -8.6982679 0.26191843 27
13.854477 -10.184574 0.17407057 36
10.363142 -5.5078607 0.04956916 0
13.878397 -8.7227869 -0.027178952 28
13.87413 -10.199022 -0.12983452 33
10.1292 -5.3835239 -0.15416798 0
10.202013 -6.4121227 -0.23305005 2
13.918433 -10.231589 -0.43605706 32
9.8463078 -5.2331705 -0.34711 0
9.4049883 -5.911181 -0.41179067 0
13.868178 -10.194647 -0.73945862 45
9.0702734 -4.8207197 -0.50147468 0
8.7988272 -5.5301991 -0.56920075 1
13.900558 -10.21845 -1.0461298 42
9.0398912 -4.8045716 -0.68122089 132
8.7011433 -5.4688034 -0.74478155 6
13.938164 -10.246094 -1.3553839 28
8.8660059 -4.7121544 -0.84576654 2
8.6381235 -5.429194 -0.91989309 1
12.700962 -9.3366137 -1.5139618 5
8.8480129 -4.7025914 -1.0215117 5
8.5995808 -5.4049692 -1.0955217 12
8.8844671 -5.5840249 -1.3178324 0
9.3464746 -5.874404 -1.5817355 2
8.3821325 -5.2682996 -1.5955133 3
7.6242495 -4.7919588 -1.6105421 4
7.0147872 -4.4089022 -1.6295599 4
6.4836802 -4.0750933 -1.6418662 3
6.027113 -3.7881339 -1.6525164 5
5.6152205 -3.529253 -1.656672 6
4.1759696 -2.6246614 -1.6967862 7
3.1462686 -1.9774785 -1.7322161 9
3.0220416 -1.9289623 0.94637942 4
3.9394319 -2.5145304 0.90311253 6
8.8154087 -5.6268559 1.4630972 24
12.529267 -7.9974036 1.2905058 4
13.792199 -8.8035297 0.84176594 33
13.836277 -8.831665 0.55399483 27
13.8297 -10.315851 0.4798196 33
13.852493 -8.8420153 0.26332831 26
13.853574 -10.333658 0.17496137 32
10.391296 -5.6162105 0.049890161 0
13.874482 -8.8560505 -0.0272917 27
13.889158 -10.360202 -0.13064881 34
10.098406 -5.457911 -0.15427548 0
13.824711 -8.8242817 -0.31720486 42
13.907567 -10.373934 -0.4379749 32
9.806016 -5.2998824 -0.34698555 0
9.4376183 -6.0240107 -0.41505063 0
13.870347 -10.34617 -0.74340743 45
9.0258532 -4.8782258 -0.50088954 0
8.8071384 -5.6215768 -0.57226336 0
13.905693 -10.372536 -1.0519403 42
8.9359055 -4.8296113 -0.67590922 8
8.8678875 -5.6603527 -0.76241803 4
13.943011 -10.400372 -1.3628825 28
8.8013344 -4.7568793 -0.84274471 1
8.6335917 -5.5108018 -0.92348504 1
12.68973 -9.4655247 -1.5204628 5
8.888484 -4.8039813 -1.0300311 45
8.5951605 -5.4862719 -1.0998111 23
8.9322481 -5.7014337 -1.3307915 0
9.3185863 -5.9480329 -1.5840049 2
8.3617926 -5.3373132 -1.5986954 3
7.5839715 -4.8408322 -1.6091336 4
6.9805288 -4.4556561 -1.628788 4
6.4616666 -4.1244674 -1.6435434 3
5.9972363 -3.8280225 -1.6516119 4
5.6002588 -3.5746324 -1.6595801 5
4.1639209 -2.6578214 -1.6993886 6
3.1232188 -1.9935435 -1.7271461 10
3.2915967 -2.1318753 1.0351982 6
3.9325573 -2.5470076 0.90538931 6
8.8244457 -5.7153468 1.4708561 23
13.833923 -8.9598455 1.4309738 31
13.797214 -8.9360695 0.84567058 33
13.831085 -8.9580069 0.55615366 29
13.818382 -10.45076 0.48182115 36
10.97889 -6.0282111 0.27460849 0
13.850613 -8.9706545 0.26441777 29
13.854918 -10.478391 0.17585216 35
10.721972 -5.8871441 0.051664107 0
13.875872 -8.9870148 -0.027411081 29
13.890326 -10.505171 -0.13131231 37
11.215434 -6.1580906 -0.17196073 0
13.83973 -8.9636059 -0.31890652 41
13.92457 -10.531069 -0.44070026 33
9.7706518 -5.3648 -0.34698555 0
9.6021147 -6.2190213 -0.42408955 1
13.874734 -10.493378 -0.74735624 38
8.9933014 -4.9379783 -0.50088954 0
8.8300028 -5.718946 -0.5762009 0
13.903469 -10.51511 -1.0570246 39
8.9771471 -4.9291081 -0.68148649 182
8.8334999 -5.721211 -0.76270717 1
13.940517 -10.54313 -1.3694439 28
8.7835684 -4.8228192 -0.84408772 1
8.6436653 -5.5982604 -0.92851377 0
12.671133 -9.5831022 -1.5258164 3
8.9261904 -4.9011292 -1.0381447 5
8.6119919 -5.5777464 -1.1066742 22
8.9608612 -5.8036995 -1.3407599 1
9.2689629 -6.0032482 -1.5823028 3
8.32621 -5.3926535 -1.5986954 3
7.5913582 -4.9167104 -1.6175841 4
6.9771781 -4.5189233 -1.6349635 4
6.4308867 -4.1651058 -1.6427048 4
5.9684453 -3.8655951 -1.6507074 5
5.5861993 -3.6180253 -1.6624882 6
4.1398525 -2.6812668 -1.6967862 7
3.116014 -2.0181551 -1.7305261 10
3.2443197 -2.1335518 1.0249891 8
3.9179618 -2.5765569 0.9061482 1
8.8141203 -5.796402 1.4758439 25
13.840958 -9.1021852 1.4382393 33
13.791235 -9.0694866 0.84916425 32
13.845037 -9.1048679 0.55925685 32
13.833906 -10.61513 0.48493472 36
13.799872 -7.7030077 0.34650472 38
13.851142 -9.1088829 0.2656354 27
13.860758 -10.635734 0.17686445 35
10.516455 -5.870223 0.050870053 0
13.886321 -9.1320181 -0.027556989 28
13.892808 -10.660327 -0.13203613 33
10.134928 -5.6572571 -0.15599562 0
13.840303 -9.1017551 -0.32037613 42
13.920503 -10.681578 -0.44292092 33
9.8237267 -5.4835463 -0.35022143 0
13.880148 -9.1279583 -0.61583376 41
13.883571 -10.653239 -0.75182015 37
8.9830284 -5.0142736 -0.50225484 0
8.8365812 -5.8111734 -0.57926351 1
13.905743 -10.670252 -1.062835 37
8.8484221 -4.939137 -0.67431569 15
8.8366785 -5.8112369 -0.76646578 1
13.955157 -10.708169 -1.3781923 23
8.7705669 -4.895679 -0.8461023 1
8.6409874 -5.6825452 -0.93246484 0
12.588128 -9.6592102 -1.5239044 3
8.7701416 -4.8954415 -1.0239458 3
8.6060724 -5.659584 -1.1109636 32
9.1787777 -6.0362105 -1.379637 1
9.253294 -6.0852146 -1.5868415 2
8.3015585 -5.4593277 -1.6012411 3
7.5469799 -4.9630966 -1.6154715 4
6.9421816 -4.5653648 -1.6341915 4
6.3951178 -4.2056012 -1.6410277 3
5.9543357 -3.9157312 -1.6543254 4
5.5640483 -3.6590674 -1.6634576 7
4.1241941 -2.7121806 -1.6980873 7
3.0897326 -2.0318911 -1.7237662 10
3.190748 -2.1303785 1.0127382 8
5.6963053 -3.8032734 1.3235532 22
8.8261518 -5.8929896 1.4847112 25
13.83673 -9.2384214 1.4444669 31
13.807316 -9.2187824 0.85409647 35
13.840981 -9.2412596 0.5616855 31
13.84465 -10.777769 0.48793706 37
13.815323 -7.8386307 0.34825829 33
13.860389 -9.2542181 0.26704529 26
13.861917 -10.79121 0.17783622 33
10.548275 -5.9849515 0.051224843 0
13.888762 -9.2731619 -0.027689636 26
13.893797 -10.816029 -0.13275994 34
10.140409 -5.7535334 -0.15669444 0
13.829642 -9.2336893 -0.3216137 43
13.930785 -10.844823 -0.44564626 32
9.8582287 -5.5934281 -0.352835 0
13.875923 -9.2645893 -0.61850101 42
13.87508 -10.801457 -0.75542557 46
8.9651775 -5.0867229 -0.50323009 0
8.855587 -5.912643 -0.58320111 1
13.906526 -10.825937 -1.0686455 41
8.8102531 -4.9988208 -0.67405015 4
8.7726669 -5.8572793 -0.76444191 0
13.952434 -10.861676 -1.3853786 24
8.750042 -4.9646573 -0.84744531 1
8.6541166 -5.7781262 -0.93821198 0
12.539238 -9.7615328 -1.5261989 3
8.7807455 -4.9820786 -1.0292197 2
8.6126556 -5.7504439 -1.1169689 36
9.1892252 -6.1354041 -1.3876117 1
9.2171717 -6.1540637 -1.5879762 2
8.2763796 -5.5259213 -1.6037868 3
7.5186963 -5.0200357 -1.6168799 5
6.9166684 -4.6180778 -1.6357354 4
6.3851175 -4.2631755 -1.6460589 2
5.9268541 -3.9572048 -1.6543254 5
5.5286851 -3.6913579 -1.6605495 6
4.1145959 -2.7472079 -1.701991 6
3.0754721 -2.053412 -1.7237662 10
3.1565888 -2.1395826 1.0066128 6
4.8373775 -3.2788458 1.1292702 5
8.8307037 -5.9855809 1.49247 22
13.831271 -9.3750401 1.4506946 29
13.808754 -9.3597775 0.85820669 30
13.845619 -9.3847656 0.56451887 29
13.84752 -10.93611 0.49071699 38
13.81569 -7.9668517 0.34966114 38
13.871589 -9.4023676 0.26851928 26
13.861582 -10.947214 0.178808 33
10.554748 -6.086421 0.051461369 0
13.886594 -9.4125385 -0.027815647 27
13.890148 -10.969775 -0.13345361 31
10.11039 -5.8301811 -0.1568557 0
13.844292 -9.3838654 -0.32347006 53
13.923777 -10.996333 -0.44786692 35
9.8085489 -5.6561236 -0.35246164 0
13.877081 -9.4060907 -0.62146455 40
13.890287 -10.969886 -0.76040453 38
8.9432917 -5.1571712 -0.50401032 0
8.8901339 -6.0258641 -0.58823246 0
13.912077 -10.987094 -1.0749402 39
8.7682257 -5.0562186 -0.67351896 1
8.7810974 -5.9519572 -0.76877874 0
13.951377 -11.01813 -1.3928772 27
8.7117157 -5.0236325 -0.84710956 1
8.6630316 -5.8719306 -0.94359982 0
12.480161 -9.8562346 -1.5273461 5
8.7560921 -5.049222 -1.0304368 1
8.5953436 -5.8260508 -1.1199714 3
9.2151575 -6.24617 -1.3980787 2
9.1936483 -6.2315907 -1.5913802 2
8.2343302 -5.5813508 -1.6031504 3
7.4965034 -5.0812407 -1.6196969 4
6.8972549 -4.6750612 -1.6388232 4
6.3616743 -4.312037 -1.6477361 3
5.892632 -3.994113 -1.6525164 4
5.5220532 -3.7429295 -1.6663657 7
4.0953164 -2.775866 -1.701991 7
3.0640626 -2.0768669 -1.7254562 10
3.1185224 -2.1473105 0.99946648 3
5.5248432 -3.8042231 1.2962321 18
8.8159552 -6.0703726 1.4974579 29
13.82454 -9.5191174 1.4572682 31
13.805575 -9.5060587 0.86231685 36
13.839014 -9.5290842 0.56708241 32
13.829375 -11.087345 0.49294096 36
13.801766 -8.0942078 0.35080096 58
13.858294 -9.5423594 0.26960874 26
13.855859 -11.108577 0.1797798 34
10.492598 -6.1535068 0.051376898 1
13.896293 -9.5685244 -0.027974822 28
13.893622 -11.138854 -0.1342679 35
10.157084 -5.9567413 -0.15825331 0
13.827836 -9.5213871 -0.32470763 64
13.914552 -11.155633 -0.45018852 33
9.7392349 -5.711689 -0.35146597 0
13.880189 -9.557436 -0.62472451 44
13.881215 -11.128906 -0.76435333 38
8.9224796 -5.2326932 -0.50498557 0
8.9444113 -6.1588235 -0.59479511 0
13.915272 -11.156211 -1.081477 40
8.7687969 -5.1425643 -0.67644036 3
8.9541016 -6.1654959 -0.78786093 9
13.960464 -11.192442 -1.4019381 26
8.7090406 -5.1075191 -0.85046709 1
8.68538 -5.980463 -0.95078373 0
12.432428 -9.9673786 -1.5304054 3
8.7531719 -5.1334004 -1.0344936 1
8.6342936 -5.9452872 -1.130695 2
9.2246952 -6.3518176 -1.4065518 2
9.1640282 -6.3100448 -1.5942169 2
8.2094593 -5.6527596 -1.6063325 3
7.4590549 -5.1360564 -1.6196969 4
6.8692651 -4.7299471 -1.640367 4
6.3331161 -4.3607726 -1.6485746 3
5.8696141 -4.0416207 -1.6543254 5
5.491272 -3.7811069 -1.6653965 7
4.0842047 -2.812247 -1.7058947 7
3.0457702 -2.0972159 -1.7237662 9
5.2210326 -3.6490209 1.6814313 17
5.4434261 -3.8044538 1.2833306 29
8.8220654 -6.1658115 1.5057709 26
13.845937 -9.6770353 1.4666097 31
13.804359 -9.6479769 0.86642706 33
13.844239 -9.675849 0.57005072 30
13.844697 -11.259306 0.49627692 38
13.810192 -8.2292595 0.35246685 58
13.850345 -9.6801157 0.27076226 24
13.858649 -11.270654 0.18083255 36
13.840878 -8.2475452 0.068052001 32
13.901281 -9.7157164 -0.028120732 27
13.889997 -11.296146 -0.13499171 34
10.314532 -6.146255 -0.16137108 0
13.836419 -9.6703835 -0.32648665 65
13.929401 -11.328193 -0.4532167 31
9.7815504 -5.8286605 -0.35445294 0
13.868825 -9.6930323 -0.62724358 42
13.880692 -11.28858 -0.76864552 39
8.9200516 -5.3153081 -0.50693607 0
13.900139 -9.7149172 -0.92883414 32
13.91139 -11.313545 -1.0872875 39
8.7943964 -5.2404323 -0.68122089 4
9.0056705 -6.2941346 -0.79624546 47
13.953143 -11.347501 -1.4091244 24
8.6868668 -5.1763573 -0.8518101 1
8.7119894 -6.0888786 -0.95832676 0
12.381074 -10.069004 -1.5326998 3
8.8606958 -5.2799387 -1.0515323 3
8.6740694 -6.0623765 -1.1414186 0
10.188573 -7.1208744 -1.5610632 1
9.1067705 -6.3647943 -1.5919476 1
8.1762686 -5.7144589 -1.6076053 3
7.4230165 -5.188005 -1.6196969 4
6.8425102 -4.7822847 -1.6419109 4
6.308929 -4.4093604 -1.6502516 4
5.8476419 -4.0869637 -1.6561344 4
5.4774647 -3.8282435 -1.669274 6
4.055171 -2.8341911 -1.701991 7
3.0310545 -2.118428 -1.7237662 11
5.2112036 -3.6965687 1.6865358 23
5.3718886 -3.8105505 1.2727057 28
8.8240414 -6.2593365 1.5135298 22
13.839799 -9.8172655 1.4731833 28
13.801835 -9.7903357 0.87053722 35
13.861133 -9.8323975 0.57355875 33
13.833612 -11.411664 0.49872327 38
13.807142 -8.3586092 0.35386971 46
13.854197 -9.8274784 0.27217215 26
13.862935 -11.435853 0.18192582 34
13.844555 -8.381258 0.068356104 40
13.895105 -9.8564968 -0.028246744 28
13.884851 -11.453932 -0.13571553 40
10.233735 -6.1953292 -0.16077977 1
13.837073 -9.8153315 -0.32811096 39
13.886992 -11.455699 -0.45442799 37
9.7782431 -5.9195819 -0.35582197 0
13.879066 -9.8451195 -0.63079989 42
13.878614 -11.448788 -0.77293772 39
8.8963985 -5.3857284 -0.5077163 0
13.900392 -9.8602467 -0.93342799 40
13.902906 -11.468826 -1.0928559 53
8.7951546 -5.3244371 -0.68414229 4
13.927114 -9.8792019 -1.2374476 33
13.898192 -11.464937 -1.4116238 33
8.6812057 -5.2554541 -0.85483187 1
8.7764988 -6.2256117 -0.97018015 0
12.374978 -10.208404 -1.5407305 3
8.8576622 -5.3622775 -1.0555891 1
8.8521099 -6.2792463 -1.1705868 0
10.167747 -7.2124944 -1.565549 2
9.0653448 -6.4305048 -1.5925149 1
8.1490612 -5.7805386 -1.6101511 3
7.3801951 -5.2351432 -1.6182884 4
6.7993541 -4.8231235 -1.6395952 4
6.2811837 -4.4555593 -1.6510903 5
5.8253245 -4.1321955 -1.6579434 4
5.4442754 -3.8618982 -1.6673352 7
4.0414567 -2.8668084 -1.7045934 7
3.025063 -2.1458292 -1.7288362 10
5.1897116 -3.7333078 1.6875567 22
5.2922993 -3.8071063 1.259804 29
8.8370018 -6.357049 1.5229512 23
13.839083 -9.9553814 1.4801029 32
13.807941 -9.9329786 0.87505841 36
13.84754 -9.9614649 0.57571751 27
13.80057 -11.539064 0.50028002 38
13.819546 -8.4918718 0.35562328 43
13.869881 -9.9775362 0.2737743 28
13.811335 -11.548066 0.18224974 45
13.84319 -8.5064011 0.068626426 41
13.90736 -10.004498 -0.028405918 28
13.842337 -11.573987 -0.13604727 39
13.865918 -8.5203667 -0.21872716 33
13.839848 -9.9559317 -0.32973525 37
13.875134 -11.60141 -0.45654771 39
9.8205204 -6.0345397 -0.35880893 0
13.884853 -9.988307 -0.63405985 45
13.826906 -11.561086 -0.77431124 57
8.8843107 -5.4592552 -0.5090816 0
13.909262 -10.005865 -0.93845934 39
13.872485 -11.599195 -1.0964874 51
8.7528467 -5.3784728 -0.68361109 3
13.935774 -10.024938 -1.2440975 31
13.889154 -11.613133 -1.4184977 34
8.6801186 -5.3337827 -0.85818946 1
12.751636 -9.1731071 -1.4162978 46
12.294785 -10.280034 -1.5392008 3
8.852416 -5.4396567 -1.0592403 2
11.473689 -8.2537947 -1.5244652 4
10.119689 -7.2797713 -1.565549 2
9.0417824 -6.5043607 -1.5959189 2
8.1265717 -5.8459888 -1.6133332 3
7.3772759 -5.3069696 -1.6253306 4
6.7608438 -4.8635287 -1.6380513 4
6.2610197 -4.5039716 -1.6536058 5
5.8136058 -4.182117 -1.6624658 4
5.4279933 -3.9047198 -1.6702433 7
4.0223541 -2.8935494 -1.7045934 7
3.02548 -2.1764309 -1.737286 10
5.1572747 -3.7648876 1.6855149 23
5.214839 -3.8069105 1.2476614 29
8.8276024 -6.4442816 1.5290475 24
13.846491 -10.108146 1.4884064 31
13.812469 -10.083308 0.87978512 32
13.855152 -10.114468 0.57895565 29
13.780665 -11.686852 0.50250399 40
13.807421 -8.6177826 0.35685077 49
13.864492 -10.121286 0.275056 25
13.80359 -11.706293 0.18322152 44
13.844549 -8.6409559 0.068930529 38
13.885637 -10.136723 -0.028505402 27
13.834411 -11.732432 -0.1367711 39
13.867172 -8.655076 -0.21969473 30
13.850759 -10.11126 -0.33166897 40
13.873094 -11.765238 -0.4591721 38
9.9579105 -6.2151442 -0.36540514 1
13.892268 -10.141563 -0.63761616 47
13.825103 -11.724538 -0.7787751 56
8.8934317 -5.5507588 -0.51181233 0
13.910038 -10.154535 -0.94327199 39
13.855115 -11.74999 -1.1015716 50
8.721858 -5.4436722 -0.68414229 4
13.942781 -10.178439 -1.2510364 32
13.889857 -11.779454 -1.4269336 31
8.6595783 -5.4048009 -0.85986823 1
12.735549 -9.2971411 -1.4216857 230
12.243975 -10.383644 -1.5418776 4
8.8547354 -5.5266066 -1.0641085 1
11.46718 -8.371213 -1.5313282 3
10.097469 -7.3713036 -1.5700349 2
8.9993515 -6.5696611 -1.5964862 2
8.0887508 -5.9049091 -1.6139696 2
7.3209648 -5.3444138 -1.6211052 4
6.7552562 -4.931438 -1.6449987 4
6.2294235 -4.5475721 -1.6536058 5
5.7716789 -4.2134118 -1.6588479 5
5.4100041 -3.949384 -1.6731515 7
4.0020556 -2.9215605 -1.7045934 7
3.0160685 -2.2017751 -1.7406659 10
5.1308651 -3.8008003 1.6855149 22
5.1250191 -3.7964699 1.232483 29
8.8301439 -6.5411224 1.5373605 23
13.846033 -10.256751 1.4960179 32
13.809145 -10.229426 0.88410085 31
13.851662 -10.260921 0.58178908 31
13.777555 -11.850568 0.50539517 42
13.800962 -8.7482233 0.35825363 53
13.867412 -10.272588 0.27653 25
13.815532 -11.883233 0.18447673 38
13.841318 -8.7738047 0.069217741 40
13.8981 -10.295321 -0.02867784 28
13.834041 -11.899153 -0.13758539 38
13.870596 -8.7923632 -0.22071607 26
13.85053 -10.260082 -0.33337063 40
13.872471 -11.932208 -0.46189746 36
13.902275 -8.8124447 -0.51238865 34
13.895002 -10.293027 -0.64102429 43
13.824716 -11.891132 -0.78341067 40
8.8915825 -5.636241 -0.51395792 0
13.912623 -10.30608 -0.94830334 37
13.857503 -11.919333 -1.1083505 55
8.6971245 -5.5129771 -0.68520463 2
13.932293 -10.32065 -1.2565297 33
13.891934 -11.948949 -1.4356821 31
8.6620321 -5.4907327 -0.86389726 0
12.731155 -9.4308815 -1.4285103 130
12.162127 -10.461081 -1.5407305 4
8.8159361 -5.5882902 -1.0641085 1
11.443611 -8.4771051 -1.5360466 2
10.068086 -7.4581547 -1.5735238 2
8.9819021 -6.6535401 -1.6015923 3
8.0568495 -5.9682875 -1.6158789 2
7.3246064 -5.4258623 -1.63026 4
6.7080483 -4.9691334 -1.6419109 3
6.219523 -4.6072478 -1.6594757 5
5.748385 -4.2582417 -1.6606569 5
5.3916554 -3.9939866 -1.6760596 6
3.9906797 -2.9561832 -1.708497 7
2.9918838 -2.2163033 -1.7355961 9
5.0763822 -3.8156128 1.6763269 24
5.0701356 -3.8109179 1.2256527 29
8.8317652 -6.6383095 1.5456736 25
13.847358 -10.408231 1.5039755 30
13.810842 -10.380783 0.88882756 32
13.849997 -10.410214 0.58475739 28
13.778854 -12.020061 0.50850868 42
13.810167 -8.8898144 0.36009488 34
13.872089 -10.42682 0.27806804 25
13.798545 -12.037239 0.18536754 41
13.843632 -8.911356 0.069538735 37
13.909023 -10.454581 -0.028850278 26
13.8501 -12.082213 -0.13858064 41
13.869411 -8.9279509 -0.22168365 29
13.842504 -10.404582 -0.33491758 36
13.924429 -12.147055 -0.46643972 29
13.880756 -8.9352541 -0.5138821 33
13.880322 -10.433008 -0.64369148 40
13.825685 -12.060914 -0.7882179 45
8.8889704 -5.7219653 -0.51610345 0
13.907383 -10.453348 -0.95289719 35
13.888285 -12.115524 -1.1175505 42
8.7960205 -5.6621318 -0.69609356 3
13.946011 -10.482382 -1.264336 34
13.958428 -12.176715 -1.4513043 28
8.6737614 -5.5834322 -0.86893362 0
12.725514 -9.5650082 -1.4353349 67
12.127806 -10.57976 -1.5457017 3
8.917243 -5.7401648 -1.0811472 2
11.409586 -8.5759029 -1.5394782 2
10.025291 -7.5354123 -1.5750191 2
8.9130783 -6.6994276 -1.597621 3
8.0276146 -6.0338778 -1.6184245 3
7.2896976 -5.4792295 -1.6309643 4
6.6920195 -5.0299907 -1.6465425 2
6.1809549 -4.645854 -1.6577985 4
5.7216325 -4.3006091 -1.6615614 4
5.3574371 -4.026865 -1.6741208 7
3.9699452 -2.9839702 -1.708497 7
2.985033 -2.2436707 -1.7406659 9
5.0113821 -3.8245654 1.664076 22
5.0202103 -3.8313029 1.2203404 28
8.8364019 -6.7437277 1.5550951 23
13.840384 -10.562645 1.5115871 31
13.823291 -10.549601 0.89458179 33
13.849586 -10.569668 0.58799553 35
13.822098 -12.237365 0.51340139 35
13.814909 -9.0367813 0.36193612 41
13.87159 -10.586461 0.2796061 26
13.841706 -12.254725 0.18714914 40
13.828147 -9.0454407 0.069792159 37
13.89561 -10.604793 -0.028982924 28
13.889938 -12.297427 -0.13987747 34
13.860494 -9.0665998 -0.22259748 27
13.845342 -10.566429 -0.3368513 39
13.924832 -12.328321 -0.46946791 31
13.881802 -9.0805378 -0.51637125 35
13.88609 -10.597528 -0.64754415 40
13.880526 -12.289094 -0.7964589 38
8.8969393 -5.8197775 -0.5190292 0
13.919283 -10.622859 -0.95902234 35
13.90672 -12.312284 -1.1262662 40
8.82442 -5.7723398 -0.70167077 2
13.938568 -10.637577 -1.2706968 33
13.964338 -12.363297 -1.4613025 24
8.6826344 -5.6795936 -0.87396991 0
12.72473 -9.7112055 -1.4432372 63
12.067815 -10.684214 -1.5479963 3
8.8549452 -5.7923074 -1.0787131 1
11.362222 -8.6713724 -1.5416229 1
9.9760962 -7.6135149 -1.5760159 2
8.8857632 -6.7813988 -1.6015923 2
7.9925871 -6.0997486 -1.6203338 2
7.2649879 -5.5444627 -1.6344854 4
6.6612072 -5.083672 -1.6480864 2
6.1560607 -4.6981564 -1.6603142 5
5.7085385 -4.3566179 -1.6669884 5
5.3370304 -4.073092 -1.677029 6
3.9690127 -3.0290542 -1.7176056 7
2.9569778 -2.2566938 -1.733906 10
4.9325733 -3.8192065 1.6467205 23
4.9405503 -3.8253829 1.2074387 16
8.8360901 -6.8416319 1.5634081 22
13.841927 -10.717566 1.5198907 31
13.809319 -10.692317 0.8984865 31
13.851321 -10.724839 0.59123367 29
13.831536 -12.419043 0.51695973 37
13.801454 -9.166194 0.36325127 42
13.870077 -10.739362 0.28108007 26
13.862959 -12.447256 0.18860681 44
13.844632 -9.1948709 0.070197634 37
13.903467 -10.765215 -0.029155362 29
13.896014 -12.476935 -0.1408124 34
13.866827 -9.2096119 -0.22372633 26
13.831319 -10.709352 -0.33832091 38
13.921737 -12.500032 -0.47229421 31
13.891339 -9.2258921 -0.51910931 32
13.890781 -10.755392 -0.65124863 42
13.883603 -12.465792 -0.80160958 40
8.8960314 -5.9082723 -0.52136981 0
13.914258 -10.77357 -0.96383494 36
13.912523 -12.491759 -1.1337714 37
8.7938805 -5.8404293 -0.7024675 1
13.939672 -10.793247 -1.2776357 31
13.960772 -12.53508 -1.4700509 25
8.662694 -5.7533026 -0.87598443 0
12.747972 -9.8705349 -1.4536538 22
11.972194 -10.749578 -1.5453193 2
8.7645683 -5.820962 -1.0726279 1
11.304551 -8.7529192 -1.5420518 1
9.9603577 -7.7121329 -1.581997 2
8.8632498 -6.8626614 -1.606131 2
7.9529305 -6.1578169 -1.6209702 2
7.2198758 -5.5902252 -1.6330769 3
6.6317611 -5.1348581 -1.6496303 2
6.1138339 -4.7338362 -1.6577985 5
5.6749034 -4.39398 -1.6660838 5
5.3115335 -4.1126285 -1.6779984 6
3.9417875 -3.052058 -1.7150031 7
2.9325514 -2.2706239 -1.7288362 9
4.8692927 -3.8248801 1.6344697 22
4.2775025 -3.3600228 1.0511016 5
8.8348398 -6.939858 1.5717212 23
13.845111 -10.875479 1.5285401 29
13.816012 -10.852621 0.90382975 32
