# .PCD v0.7 - Point Cloud Data file format
VERSION 0.7
FIELDS x y z intensity
SIZE 4 4 4 4
TYPE F F F F
COUNT 1 1 1 1
WIDTH 1368
HEIGHT 1
VIEWPOINT 0 0 0 1 0 0 0
POINTS 1368
DATA ascii
2.0993891 -3.8030365 -0.26340878 44
8.8596239 -11.65944 -0.97442472 35
2.4686539 -3.7912459 -0.32786578 42
2.0929644 -3.7913983 -0.33931464 38
8.8961124 -11.707459 -1.2385998 30
2.4673026 -3.7891705 -0.407684 48
2.0936112 -3.7925701 -0.41606224 39
8.9321442 -11.754877 -1.5050868 35
2.4673657 -3.7892675 -0.48770875 53
2.4623349 -3.7815416 -0.56670779 45
2.4565873 -3.7727146 -0.64506215 41
2.4673023 -3.78917 -0.72870475 44
2.4579535 -3.7748127 -0.80562311 49
2.4521582 -3.7659128 -0.88386834 40
2.4628129 -3.7822754 -0.96767807 35
2.457793 -3.7745662 -1.0455987 33
2.4606371 -3.7789342 -1.1264206 41
2.458149 -3.7751129 -1.5497487 33
2.0593936 -3.1627226 -1.7592555 7
2.1169167 -3.3012369 1.0351982 22
2.4358568 -3.7986097 0.87199688 40
2.4377463 -3.8015563 0.63179201 33
2.4264483 -3.7839379 0.39026555 29
2.4366722 -3.7998815 0.23222546 26
2.4385061 -3.8027413 0.15246327 29
2.0624371 -3.7985368 0.1202051 35
8.7953081 -11.744106 0.32169175 27
2.4352639 -3.7976849 0.072288722 27
2.0612199 -3.7962954 0.043730218 39
8.823719 -11.782042 0.062172633 37
2.4355729 -3.798167 -0.0074811755 33
2.0612671 -3.7963822 -0.032571726 42
8.858964 -11.829104 -0.19862296 27
2.4372797 -3.8008287 -0.087326087 42
2.0625772 -3.798795 -0.10911521 41
8.8842344 -11.862845 -0.46136132 31
2.4425352 -3.8090243 -0.16773912 50
2.0670536 -3.8070395 -0.18610939 42
8.8396454 -11.803308 -0.71993113 33
2.4297752 -3.7891259 -0.246537 42
2.0651672 -3.803565 -0.26244035 43
8.8713169 -11.845597 -0.98478246 37
2.4292054 -3.7882373 -0.32613105 43
2.0569303 -3.7883949 -0.3377524 44
8.8930082 -11.874562 -1.2496797 27
2.4321878 -3.7928882 -0.4062472 47
2.0537837 -3.7825994 -0.41338536 43
8.9190378 -11.909318 -1.5168515 30
2.4279721 -3.7863138 -0.48513508 51
2.4251635 -3.781934 -0.56421572 42
2.4216404 -3.7764397 -0.64279282 43
2.4216042 -3.7763836 -0.72297692 44
2.4251647 -3.7819362 -0.80351049 46
2.4258082 -3.7829397 -0.88386834 41
2.4236813 -3.7796223 -0.96264684 36
2.4187632 -3.7719529 -1.0401717 35
2.4237218 -3.7796857 -1.1215737 42
2.4256094 -3.7826293 -1.545845 32
2.0431352 -3.186178 -1.7643255 6
2.1041427 -3.3322861 1.0403028 21
2.402988 -3.8055608 0.86972016 38
2.3942268 -3.7916861 0.62735838 31
2.3935895 -3.7906768 0.38922763 29
2.3908896 -3.786401 0.23037589 28
2.4012268 -3.8027716 0.15178865 27
2.0321012 -3.8057885 0.1199827 35
8.7890978 -11.908185 0.32449746 28
2.3894734 -3.784158 0.07171195 28
2.0290148 -3.8000081 0.043608747 41
8.8291368 -11.962434 0.06279774 35
2.3961835 -3.7947848 -0.0074413824 31
2.0271771 -3.7965665 -0.032451089 41
8.8545446 -11.996859 -0.20039687 25
2.3957388 -3.7940805 -0.086784653 44
2.0247056 -3.7919378 -0.10850957 44
8.8914185 -12.046818 -0.46609068 31
2.4052131 -3.8090847 -0.16699824 50
2.0291312 -3.800226 -0.18507926 47
8.8305759 -11.964382 -0.72597772 30
2.3947334 -3.7924883 -0.24566197 44
2.02916 -3.8002799 -0.26122984 43
8.8642454 -12.010001 -0.99328113 33
2.3941793 -3.791611 -0.32497457 45
2.0266757 -3.7956274 -0.33712754 46
8.8880024 -12.042189 -1.2607596 16
2.3950143 -3.792933 -0.40445125 48
2.0273261 -3.7968454 -0.41338536 45
8.9042072 -12.064145 -1.5286164 4
2.3908629 -3.7863586 -0.48299035 51
2.392345 -3.7887056 -0.56272042 43
2.3804188 -3.7698183 -0.63882142 43
2.3909645 -3.7865195 -0.72170407 45
2.3881915 -3.7821281 -0.7999894 50
2.3930528 -3.7898269 -0.88155252 43
2.3826182 -3.7733016 -0.95677704 39
2.3840497 -3.7755687 -1.0365537 36
2.3910599 -3.7866707 -1.1186656 45
2.3870258 -3.7802818 -1.5380378 33
2.0208418 -3.2003641 -1.7643255 7
2.0767436 -3.3403256 1.0382609 19
2.3639197 -3.8022323 0.86516666 41
2.3635144 -3.8015802 0.62624997 33
2.3586512 -3.7937582 0.3878437 30
2.3580697 -3.7928226 0.22975935 28
2.3682873 -3.8092573 0.15138389 30
1.9980484 -3.8057208 0.1195379 37
8.79984 -12.098617 0.3280046 27
2.3587735 -3.7939546 0.071583778 28
1.9987185 -3.8069971 0.043527763 45
8.8230515 -12.130529 0.063355267 6
2.3611848 -3.7978332 -0.0074148532 34
1.996905 -3.8035426 -0.032390773 46
2.3607464 -3.7971282 -0.086475261 45
2.0037611 -3.8166013 -0.10881238 46
2.3595672 -3.7952313 -0.16566461 47
1.9988366 -3.8072221 -0.18473589 51
8.8220348 -12.129132 -0.73221934 2
2.3576543 -3.7921546 -0.2445682 46
2.0044363 -3.8178878 -0.26147196 45
2.3592248 -3.7946806 -0.32381806 45
1.998275 -3.8061521 -0.33681509 47
2.3663731 -3.8061781 -0.40409204 45
2.0007706 -3.8109057 -0.41338536 40
9.4494171 -12.991699 -1.6377454 1
2.3580713 -3.7928255 -0.48170352 55
2.3511677 -3.7817214 -0.55923146 48
2.3498611 -3.7796197 -0.63768679 42
2.358216 -3.7930579 -0.71979481 43
2.3534133 -3.7853332 -0.79717249 53
2.3541028 -3.7864423 -0.87692094 44
2.3458922 -3.773236 -0.95258433 38
2.3494041 -3.7788846 -1.0329359 36
2.3440754 -3.7703137 -1.1089717 46
2.3485937 -3.777581 -1.5302304 32
2.0041926 -3.2236311 -1.7693954 7
2.0634685 -3.3712358 1.0433654 22
2.3291163 -3.805244 0.86213094 41
2.3245084 -3.7977157 0.62292475 34
2.3237867 -3.7965364 0.38645977 32
2.3252769 -3.7989712 0.22914283 30
2.329114 -3.8052399 0.15057434 33
1.9714309 -3.819577 0.1195379 43
13.852009 -19.326891 0.5213353 55
2.3217893 -3.7932732 0.071263351 24
1.9775956 -3.831521 0.043649238 41
10.98444 -15.325941 0.079641789 2
2.3262606 -3.8005784 -0.007388324 31
1.9868134 -3.8493803 -0.032662202 26
2.323741 -3.7964618 -0.086088516 45
1.9935733 -3.8624773 -0.10972083 26
10.641504 -14.847464 -0.56864309 6
2.3351007 -3.815021 -0.16581279 49
1.9777074 -3.8317375 -0.18525095 43
9.1025505 -12.700252 -0.76284224 0
2.3248672 -3.7983019 -0.24391194 47
1.9868897 -3.8495281 -0.26268247 29
8.9863291 -12.538095 -1.026479 1
2.3222618 -3.7940452 -0.32237244 45
1.9972603 -3.8696208 -0.3411893 24
8.9767408 -12.524717 -1.2980283 2
2.3189454 -3.7886269 -0.40050012 50
1.9942049 -3.8637009 -0.41759187 24
9.3793535 -13.086459 -1.6413965 1
2.3149257 -3.7820597 -0.47827199 55
2.3122776 -3.7777331 -0.55624092 48
2.3130815 -3.7790468 -0.63485008 42
2.3193083 -3.7892201 -0.71597624 44
2.3187068 -3.7882371 -0.79435563 46
2.3153174 -3.7826998 -0.8722893 42
2.3113256 -3.7761779 -0.94923013 38
2.3148289 -3.7819014 -1.0293179 36
2.3136446 -3.7799668 -1.107033 47
2.3083415 -3.7713027 -1.521122 34
1.9740676 -3.2251754 -1.7626355 7
2.0338955 -3.3756208 1.0403028 24
2.2923608 -3.8045914 0.85833639 40
2.2938507 -3.8070641 0.62181634 30
2.2869432 -3.7955997 0.38472989 29
2.290453 -3.8014247 0.22832079 31
2.29424 -3.8077102 0.15003465 30
1.9646167 -3.8724711 0.12076109 23
13.792872 -19.530922 0.52422869 54
2.2890594 -3.7991118 0.071071088 26
1.9761333 -3.8951719 0.044216111 27
10.914096 -15.454531 0.079912104 2
2.2831571 -3.7893162 -0.0073352661 31
1.9797978 -3.902395 -0.032993954 23
2.674082 -3.7865422 -0.062301494 0
2.2909892 -3.8023148 -0.085856475 42
1.9918878 -3.9262257 -0.11113399 22
2.6591907 -3.7654557 -0.14349869 8
2.2980964 -3.8141105 -0.1650719 48
1.9689894 -3.8810904 -0.18696783 28
2.6619234 -3.769325 -0.22528325 0
2.2859271 -3.7939134 -0.2425994 45
1.9834501 -3.9095938 -0.2658298 31
2.679934 -3.7948284 -0.30913883 0
2.281306 -3.7862439 -0.32034859 50
1.9990641 -3.9403708 -0.34618843 25
2.674083 -3.7865434 -0.3904829 17
2.2842162 -3.791074 -0.39906335 51
2.0014102 -3.9449954 -0.42485768 24
2.6536469 -3.7576058 -0.46897042 29
2.2864141 -3.7947216 -0.47784305 51
2.2756073 -3.7767859 -0.55374879 47
2.2764261 -3.7781448 -0.63201338 44
2.2805707 -3.7850235 -0.71215773 46
2.2779796 -3.7807231 -0.78942615 54
2.2685986 -3.7651534 -0.8645699 42
2.2748151 -3.7754712 -0.94503742 37
2.2763054 -3.7779446 -1.0238909 35
2.2731805 -3.772758 -1.1002474 45
2.2741492 -3.7743659 -1.5159171 35
1.9589887 -3.2512994 -1.7693954 6
2.0228977 -3.4137299 1.047449 23
2.2443891 -3.7875063 0.85074717 40
2.2537649 -3.8033288 0.61849111 33
2.2509325 -3.7985487 0.38334596 27
2.2482705 -3.7940564 0.22688222 32
2.2540383 -3.8037901 0.14922512 27
1.9575715 -3.9297163 0.12209547 23
2.6458566 -3.8054714 0.10161918 5
2.2529933 -3.8020265 0.070814751 28
1.974279 -3.9632559 0.044823475 27
2.6464689 -3.8063519 0.019581001 38
2.2512405 -3.7990685 -0.0073220017 30
1.9832416 -3.9812477 -0.033536814 22
2.6279876 -3.7797709 -0.061871458 12
2.2508225 -3.7983632 -0.085392386 44
1.9915812 -3.9979889 -0.11274901 22
2.6223879 -3.7717168 -0.14300086 53
2.2598872 -3.8136601 -0.164331 48
1.9743426 -3.9633834 -0.19022989 26
2.6205373 -3.7690549 -0.22411294 27
2.2458384 -3.789952 -0.24128687 44
1.9850026 -3.9847829 -0.26994556 28
2.6155903 -3.76194 -0.3048895 29
2.2453549 -3.7891362 -0.31919208 43
1.9950192 -4.0048904 -0.35056263 24
2.6166747 -3.7634995 -0.38611811 66
2.2502723 -3.7974346 -0.39798579 49
1.9937426 -4.0023279 -0.42944658 25
2.6351175 -3.7900257 -0.47059315 45
2.2463715 -3.7908518 -0.47526938 54
2.2377446 -3.7762933 -0.55125666 45
2.2385771 -3.7776983 -0.62917674 45
2.2487376 -3.7948449 -0.71088487 45
2.2401681 -3.7803833 -0.78590506 49
2.2369359 -3.774929 -0.86302602 40
2.2450848 -3.7886806 -0.94419891 35
2.2406051 -3.7811208 -1.0202729 37
2.2395287 -3.7793045 -1.0973392 43
2.2348511 -3.7714109 -1.5081098 32
1.9314064 -3.2593341 -1.7660154 6
2.0107062 -3.4478147 1.0535744 23
2.2238278 -3.8132603 0.85302395 38
2.225162 -3.8155482 0.61793691 33
2.2103059 -3.7900741 0.38092411 33
2.2116656 -3.7924058 0.22585468 34
2.2173581 -3.8021669 0.1485505 33
1.9546996 -3.9935651 0.12365223 25
2.5943658 -3.7875581 0.10065471 39
2.2183359 -3.8038433 0.070558406 28
1.9659057 -4.0164595 0.045268875 30
2.5972264 -3.7917345 0.019412054 42
2.2145875 -3.797416 -0.0072888406 31
1.9905689 -4.0668478 -0.034139995 21
2.5902345 -3.7815268 -0.061602686 34
2.2101469 -3.7898014 -0.084850945 45
1.9899915 -4.0656686 -0.11426309 22
2.5869551 -3.7767389 -0.14250302 44
2.2211254 -3.8086264 -0.16344193 51
1.9712223 -4.0273218 -0.19263352 26
2.5873868 -3.7773695 -0.22352779 42
2.209264 -3.7882876 -0.2401931 44
1.9852206 -4.0559211 -0.27381924 28
2.5847523 -3.7735231 -0.30435833 47
2.2087977 -3.787488 -0.31774646 50
1.9880497 -4.0617013 -0.35431197 22
2.5925889 -3.7849641 -0.38645387 41
2.2116642 -3.7924035 -0.39583063 50
2.0077643 -4.1019793 -0.43862444 22
2.5951011 -3.7886317 -0.46815905 42
2.2098341 -3.7892652 -0.47312465 53
2.2053282 -3.781539 -0.54976141 49
2.2041702 -3.7795529 -0.62690735 44
2.2082636 -3.786572 -0.7064299 46
2.2077703 -3.7857263 -0.78379244 52
2.2045956 -3.7802825 -0.86071026 44
2.2106986 -3.7907474 -0.94084471 36
2.1964872 -3.7663786 -1.0121324 35
2.2033143 -3.7780855 -1.0924923 41
2.2008452 -3.7738519 -1.5029049 32
1.9159104 -3.2852657 -1.7727753 7
1.9942868 -3.4751856 1.0576581 23
2.1912878 -3.8184741 0.85074717 38
2.1866398 -3.8103745 0.61461169 36
2.1778421 -3.7950437 0.37988615 31
2.1831474 -3.8042886 0.22564916 29
2.1828008 -3.8036845 0.14801081 32
1.9596932 -4.0755811 0.125765 22
2.561151 -3.7956324 0.10039168 37
2.1877446 -3.8122997 0.070430234 28
1.97595 -4.1093903 0.046159677 30
2.5617435 -3.7965107 0.019344473 43
2.1840405 -3.805845 -0.0072755758 32
1.9881284 -4.1347179 -0.034592379 22
2.5548236 -3.7862556 -0.061387666 35
2.175673 -3.7912641 -0.084541552 47
1.9927502 -4.14433 -0.11608 22
2.5515814 -3.7814503 -0.14200521 43
2.188513 -3.8136389 -0.16299738 51
1.9776938 -4.1130171 -0.19606727 23
2.5609539 -3.7953403 -0.22352779 39
2.1708355 -3.7828341 -0.23888056 47
1.9897305 -4.1380496 -0.2784192 29
2.5516489 -3.7815502 -0.30356157 50
2.1743593 -3.7889748 -0.31658998 51
1.9993912 -4.1581411 -0.36149821 22
2.5482671 -3.7765386 -0.38376781 42
2.1772029 -3.7939298 -0.39439383 53
2.0084107 -4.176899 -0.4451254 24
2.5530088 -3.7835658 -0.46531928 51
2.177388 -3.7942524 -0.47183785 57
2.1729481 -3.7865157 -0.54826611 48
2.1599932 -3.7639406 -0.62180132 45
2.1719468 -3.7847707 -0.70324779 46
2.169528 -3.7805562 -0.77956712 58
2.1703365 -3.7819648 -0.8576225 43
2.1763935 -3.7925196 -0.93749052 37
2.1662607 -3.7748623 -1.0103234 35
2.1710899 -3.7832775 -1.0895841 41
2.1725624 -3.7858436 -1.5016037 36
1.8965372 -3.3048501 -1.7761552 7
1.9794844 -3.5058627 1.0627626 23
2.1491289 -3.80632 0.84467584 41
2.148299 -3.8048501 0.61128646 35
2.1434574 -3.7962749 0.37850225 34
2.148679 -3.8055232 0.22482713 30
2.1483307 -3.8049061 0.14747111 33
1.9602201 -4.1506271 0.12765537 24
2.5235219 -3.7967675 0.099953286 40
2.1453452 -3.7996187 0.069917545 25
1.9728341 -4.1773362 0.046767041 29
2.52632 -3.8009775 0.019276895 46
2.1515176 -3.8105507 -0.0072556795 37
1.9831278 -4.1991324 -0.035014607 21
2.5194726 -3.7906752 -0.061172649 36
2.1471858 -3.8028781 -0.084464207 49
1.9962137 -4.226841 -0.11799785 23
2.5162671 -3.7858522 -0.14150737 42
2.1500437 -3.80794 -0.1621083 55
1.9779434 -4.1881547 -0.19898596 25
2.5211258 -3.7931623 -0.2223575 44
2.1443734 -3.7978971 -0.23888056 46
1.9897785 -4.2132149 -0.28253496 28
2.5141401 -3.7826521 -0.30223367 50
2.1419697 -3.7936404 -0.31572261 55
1.9924514 -4.2188745 -0.36555997 24
2.5196335 -3.7909172 -0.38343206 43
2.1428282 -3.7951608 -0.39295706 54
2.006407 -4.2484245 -0.45124397 25
2.5177212 -3.7880399 -0.46369654 48
2.1410692 -3.7920454 -0.46969312 55
2.1386549 -3.7877693 -0.54627246 46
2.1375566 -3.7858241 -0.62293601 41
2.141588 -3.792964 -0.70197493 50
2.1411462 -3.7921815 -0.77886289 51
2.1380916 -3.7867715 -0.85530668 43
2.140249 -3.7905924 -0.93329781 39
2.1341074 -3.7797151 -1.0076098 38
2.1350846 -3.781446 -1.0847373 42
2.1386406 -3.787744 -1.4963988 36
1.8769838 -3.3243239 -1.7795352 7
1.9737412 -3.553406 1.0729717 23
2.1091552 -3.7971973 0.8393634 45
2.1120667 -3.8024392 0.60851544 33
2.105293 -3.7902439 0.37642637 30
2.1123617 -3.8029699 0.22379959 31
2.1158926 -3.8093269 0.14706634 34
1.9614756 -4.2295032 0.12965693 22
2.4903834 -3.8042552 0.099690251 41
2.1090574 -3.7970209 0.069597118 27
1.9755957 -4.2599502 0.047536369 28
2.4887686 -3.8017886 0.019192422 45
2.1112673 -3.8009999 -0.0072092535 28
1.9857378 -4.2818193 -0.035587627 21
2.477613 -3.7847476 -0.060796365 33
2.1089337 -3.7967985 -0.084000118 47
1.9969382 -4.3059707 -0.11981475 21
2.478827 -3.786602 -0.14088508 42
2.115644 -3.8088791 -0.16151559 53
1.9839641 -4.2779951 -0.2025914 24
2.4770775 -3.7839293 -0.22079709 41
2.1042321 -3.7883339 -0.23734929 47
1.9888728 -4.2885795 -0.28665072 28
2.4789274 -3.7867551 -0.30117133 49
2.1096222 -3.798038 -0.31485525 43
1.9931489 -4.2978001 -0.37118396 22
2.4800079 -3.7884059 -0.38141754 43
2.1104784 -3.7995796 -0.3918795 53
2.0035012 -4.3201222 -0.45736253 23
2.4759579 -3.7822189 -0.46085674 49
2.1068201 -3.7929933 -0.46797734 58
2.1044514 -3.788729 -0.54427874 46
2.0995395 -3.7798855 -0.61953199 44
2.1035516 -3.7871087 -0.69815642 48
2.0974128 -3.7760568 -0.77252495 52
2.1039805 -3.7878811 -0.85221893 44
2.1023397 -3.7849269 -0.92826658 38
2.0982087 -3.7774899 -1.0030874 37
2.1029809 -3.7860813 -1.0818291 42
2.1029627 -3.7860487 -1.4898927 30
1.8361264 -3.3056524 -1.7626355 5
1.9711374 -3.6078267 1.0852225 24
2.0807116 -3.8083832 0.83860451 38
2.0797713 -3.8066626 0.60685283 34
2.0692275 -3.7873638 0.37469646 28
2.0800145 -3.8071074 0.22318305 29
2.079663 -3.8064642 0.14639172 31
1.9650376 -4.3158741 0.13188089 22
2.4507623 -3.8013818 0.09916418 40
2.0729098 -3.7941039 0.06927669 29
1.9739836 -4.3355227 0.048224714 27
2.449162 -3.7988997 0.019091053 44
2.073173 -3.7945855 -0.0071694599 29
1.9872884 -4.3647442 -0.036160648 19
2.4446282 -3.7918673 -0.060635101 35
2.0766232 -3.8009005 -0.08376807 49
8.8167591 -19.364527 -0.5370971 11
2.4436653 -3.7903736 -0.14038727 41
2.0813353 -3.8095253 -0.16092287 51
1.9772335 -4.3426609 -0.20499504 22
2.4419408 -3.787699 -0.22001688 41
2.0739031 -3.7959216 -0.23691177 46
1.9837012 -4.3568659 -0.29028228 14
2.4437795 -3.7905507 -0.300109 49
2.0754044 -3.7986696 -0.31369874 44
8.9016819 -19.551046 -1.6831381 8
2.4448602 -3.7922273 -0.3800745 42
2.0781708 -3.8037329 -0.39080191 51
2.4408677 -3.7860341 -0.459234 47
2.0745685 -3.7971399 -0.46669051 55
2.0684357 -3.7859142 -0.54178661 45
2.0598106 -3.770128 -0.61556059 43
2.0675943 -3.7843745 -0.6949743 46
2.0653362 -3.7802417 -0.77041233 49
2.0699577 -3.7887003 -0.84913117 41
2.0702388 -3.7892151 -0.92575097 37
2.0661814 -3.7817883 -1.000374 33
2.0690551 -3.7870483 -1.0779516 42
2.0637853 -3.7774029 -1.4807842 25
1.8251717 -3.340662 -1.7744653 7
1.9568855 -3.6419411 1.0913479 22
2.0429199 -3.8020587 0.83405101 41
2.0437703 -3.8036416 0.60408181 33
2.0370779 -3.7911863 0.37365851 30
2.0401497 -3.7969031 0.22174449 30
2.0454695 -3.8068039 0.14585203 30
1.918546 -4.2929821 0.13076891 1
2.407017 -3.7913899 0.098462753 39
2.0369065 -3.7908671 0.068956263 28
8.8680916 -19.843443 0.22002779 29
2.409718 -3.7956443 0.018989684 43
2.0447381 -3.8054426 -0.007162828 30
18.97854 -42.466816 -0.35071909 32
2.4073782 -3.7919588 -0.060366329 33
2.0424657 -3.8012137 -0.083458677 46
8.7596722 -19.600842 -0.54194218 15
2.4085727 -3.7938404 -0.13988943 40
2.0452294 -3.8063571 -0.16018197 51
8.6891661 -19.443075 -0.91492337 16
2.4025903 -3.7844172 -0.21884659 43
2.0360096 -3.7891979 -0.23559923 48
8.7398815 -19.556559 -1.2988861 3
2.4065614 -3.7906721 -0.2987811 47
2.0393925 -3.7954938 -0.31225312 44
8.9472084 -20.020477 -1.7181319 1
2.4076445 -3.7923782 -0.37839574 41
2.0383658 -3.7935832 -0.38828757 51
7.4535365 -16.678204 -1.7544978 1
2.4079783 -3.7929039 -0.45801696 44
2.0404797 -3.7975173 -0.46497473 51
2.032562 -3.7827818 -0.53929448 43
2.0296917 -3.7774401 -0.61442596 43
2.0373857 -3.7917593 -0.69370145 43
2.0295765 -3.7772255 -0.76689124 53
2.0415995 -3.7996016 -0.84835923 44
2.0418837 -3.8001304 -0.92491239 40
2.0323522 -3.7823915 -0.9967559 33
2.0223608 -3.7637968 -1.0672884 45
2.0427349 -3.8017144 -1.4846879 33
1.793225 -3.3373542 -1.7660154 6
1.9530932 -3.6965487 1.1035988 24
2.0071533 -3.7988663 0.8302564 43
2.0097635 -3.8038068 0.60186499 32
2.0105608 -3.8053157 0.37365851 31
2.0023956 -3.7898617 0.22051144 35
2.0151081 -3.8139219 0.14558218 33
14.117393 -32.190845 0.9775421 26
2.3720112 -3.7945371 0.098112039 37
2.008523 -3.8014588 0.068892173 28
18.792021 -42.850048 0.47366306 18
2.3746803 -3.7988069 0.018922105 43
2.014384 -3.8125517 -0.0071495632 32
25.804678 -58.840492 -0.48444411 23
2.3660069 -3.7849317 -0.059990048 37
2.0084052 -3.8012357 -0.083149284 45
9.9925375 -22.785242 -0.62804329 25
2.3629556 -3.7800505 -0.13876933 41
2.0148714 -3.8134742 -0.15988562 53
8.6896439 -19.81435 -0.92951685 3
2.3697591 -3.7909338 -0.21826144 40
2.0095062 -3.8033197 -0.23559923 52
8.7153873 -19.873051 -1.3158333 0
2.371577 -3.7938423 -0.29771876 48
2.0128453 -3.8096392 -0.31225312 53
9.0891037 -20.725208 -1.7731221 3
2.3705466 -3.7921939 -0.37671697 41
2.0081098 -3.8006768 -0.38756919 54
7.3593063 -16.78088 -1.7598515 1
2.3666754 -3.786001 -0.45517719 43
2.0120604 -3.8081539 -0.46454579 56
2.0098116 -3.8038979 -0.54029137 48
2.0069704 -3.7985203 -0.61556059 43
2.0090199 -3.8023989 -0.69306505 46
2.0086753 -3.8017471 -0.76900387 49
2.0168571 -3.8172324 -0.84913117 37
2.0262666 -3.8350415 -0.92994368 24
2.009537 -3.8033779 -0.9985649 37
2.0141647 -3.8121364 -1.0769821 36
2.028513 -3.839293 -1.4937963 18
1.7766569 -3.3626142 -1.7727753 8
1.9379367 -3.7306859 1.1097243 27
1.9805841 -3.8127859 0.8302564 39
1.9795077 -3.8107135 0.60075659 37
1.9821093 -3.815722 0.37331253 34
1.977731 -3.8072932 0.22071694 32
1.984748 -3.8208015 0.14531234 33
13.933403 -32.384117 0.98043323 24
2.3328865 -3.79057 0.097585969 38
1.9800922 -3.8118386 0.068828091 30
20.353037 -47.304672 0.52132088 3
2.3355229 -3.7948537 0.018820737 43
1.9950947 -3.8407197 -0.0071760924 29
24.974339 -58.045536 -0.47645196 22
2.3332365 -3.7911389 -0.059828784 37
1.9836632 -3.8187132 -0.083226636 47
2.3302219 -3.7862406 -0.13839595 43
1.9918854 -3.8345416 -0.16018197 53
9.7546368 -22.671797 -1.0603428 38
2.3348594 -3.7937756 -0.21748123 41
1.9847471 -3.8207998 -0.235818 36
9.7646694 -22.695116 -1.4981374 3
2.3282983 -3.7831149 -0.2955941 47
2.0045915 -3.8590019 -0.31514436 25
9.0497894 -21.033585 -1.7940558 1
2.3314795 -3.7882841 -0.37470242 40
1.9815279 -3.8146029 -0.38756919 52
7.259285 -16.872082 -1.764058 1
2.3401866 -3.8024313 -0.45517719 46
1.9927593 -3.8362241 -0.46626157 36
1.9978435 -3.8460116 -0.54427874 28
2.0096078 -3.8686588 -0.62463802 23
1.9988096 -3.8478713 -0.69879282 27
2.0056822 -3.8611016 -0.77815866 27
2.0118704 -3.8730142 -0.85839444 24
2.0156708 -3.8803306 -0.93749052 26
1.9991015 -3.8484333 -1.0067054 26
2.0107586 -3.8708744 -1.0895841 33
2.0278153 -3.9037097 -1.5133146 19
1.7598238 -3.387804 -1.7795352 8
1.9188796 -3.7579021 1.1138079 25
1.9539176 -3.82652 0.8302564 39
1.9582602 -3.8350246 0.6024192 28
1.973545 -3.8649578 0.37677234 20
1.9565527 -3.8316805 0.22133347 28
1.9634794 -3.8452456 0.14571711 23
13.722526 -32.517437 0.98154521 25
2.3001499 -3.7965035 0.097322933 41
1.9807148 -3.8789992 0.069789372 15
19.686384 -46.649628 0.51257485 3
2.3006821 -3.7973821 0.018753158 42
1.9809664 -3.879492 -0.0072225179 18
24.290121 -57.558826 -0.47105351 37
2.2984223 -3.7936521 -0.059613768 34
1.9660488 -3.8502777 -0.083613373 27
2.2954454 -3.7887385 -0.13789813 42
1.9886984 -3.8946342 -0.1621083 28
9.5665989 -22.66939 -1.0570807 45
2.3021061 -3.7997324 -0.21689609 40
1.9870862 -3.8914766 -0.23931807 25
9.5547628 -22.641342 -1.4901479 15
2.2894213 -3.7787957 -0.2940006 46
1.9939306 -3.9048808 -0.31774646 25
8.952342 -21.213821 -1.804054 1
2.2925832 -3.7840142 -0.37268791 45
1.9802128 -3.8780162 -0.39259788 30
7.1614437 -16.970039 -1.7690293 1
2.2970872 -3.7914486 -0.45193172 50
1.9858232 -3.8890033 -0.47097996 33
2.0052378 -3.9270246 -0.55374879 27
2.0023577 -3.9213846 -0.63087875 28
1.9952443 -3.9074535 -0.70706636 28
2.0001657 -3.9170914 -0.78660929 27
2.0151255 -3.9463885 -0.87151736 22
2.0258837 -3.9674573 -0.95509994 23
2.0005372 -3.917819 -1.0211773 24
2.0154531 -3.9470303 -1.107033 31
2.0297549 -3.9750385 -1.5354353 18
1.7361295 -3.4000075 -1.7795352 7
1.897386 -3.7774582 1.1158497 28
1.9425985 -3.8674707 0.83632773 21
1.9541192 -3.8904071 0.60906965 19
1.9746983 -3.9313776 0.38196203 20
1.9526135 -3.8874094 0.22379959 21
1.9684379 -3.9189141 0.14801081 22
13.54482 -32.700081 0.98432517 29
2.2687712 -3.8013735 0.097059898 40
1.978282 -3.9385123 0.070622489 15
19.059721 -46.014233 0.50419325 3
2.267246 -3.7988181 0.018685579 45
1.9839193 -3.9497354 -0.0073286342 18
23.976734 -57.884945 -0.47241068 30
2.265012 -3.7950749 -0.059398748 35
1.9656004 -3.9132648 -0.084696248 26
9.7645025 -23.573591 -0.64409262 0
2.2600219 -3.7867138 -0.13727584 41
1.978972 -3.9398861 -0.16344193 25
2.2666168 -3.7977638 -0.21592084 44
1.9917094 -3.9652443 -0.24303691 24
9.3814754 -22.64888 -1.4865165 22
2.2561271 -3.7801883 -0.29293826 49
2.0002213 -3.9821906 -0.32295069 22
8.8297663 -21.316938 -1.8078034 1
2.2572222 -3.782023 -0.37100914 43
1.9902122 -3.9622638 -0.39978173 26
7.0715966 -17.072342 -1.7747655 1
2.2637331 -3.7929323 -0.45030898 50
1.9885474 -3.9589496 -0.47784305 34
2.0058696 -3.9934359 -0.56122518 26
2.0047421 -3.9911911 -0.63995612 24
1.9941007 -3.9700053 -0.71597624 24
1.9988855 -3.9795313 -0.79646832 27
2.0118091 -4.0052609 -0.88155252 24
2.0241029 -4.029736 -0.96683955 23
1.9989935 -3.9797463 -1.0338403 22
2.0136175 -4.0088611 -1.1206044 27
2.0305109 -4.0424933 -1.5562547 19
1.7184235 -3.4211664 -1.784605 6
1.8726798 -3.7940805 1.1168706 27
1.9381483 -3.9267206 0.84619367 20
1.9584714 -3.9678957 0.61904532 19
1.9701329 -3.9915223 0.38645977 20
1.9554838 -3.9618428 0.22729324 22
1.9693413 -3.9899182 0.15016958 22
13.338765 -32.849419 0.98599315 32
2.2320509 -3.7998784 0.096621506 38
1.9772905 -4.0060234 0.071583778 15
18.429531 -45.386459 0.49589258 5
2.2325673 -3.8007574 0.018618001 41
1.9899342 -4.0316401 -0.0074546468 17
23.75563 -58.503059 -0.47609007 28
2.2242827 -3.7866538 -0.059022468 33
1.9647839 -3.980685 -0.085856475 25
9.855442 -24.271025 -0.66125226 6
2.2254317 -3.7886095 -0.13677801 41
1.9797251 -4.0109563 -0.16581279 25
9.2962036 -22.893787 -1.0615447 6
2.2258844 -3.7893806 -0.21455547 42
1.9904945 -4.0327749 -0.24631824 23
9.1945868 -22.643538 -1.4819164 7
2.2236178 -3.7855217 -0.2921415 47
1.9988582 -4.0497198 -0.32728752 22
8.6777306 -21.370672 -1.8071785 1
2.2206707 -3.7805045 -0.36933035 43
1.9801344 -4.011785 -0.40337366 27
6.9717112 -17.169252 -1.7797368 1
2.2230906 -3.7846243 -0.44746917 46
1.9907837 -4.033361 -0.48513508 33
2.0113168 -4.0749612 -0.57069522 27
2.0136323 -4.0796523 -0.65187019 24
1.9977975 -4.0475712 -0.72743189 25
2.0076523 -4.0675368 -0.81125683 30
2.0133293 -4.0790386 -0.89467549 23
2.028811 -4.110405 -0.98277181 23
2.002203 -4.0564966 -1.0501213 21
2.0182161 -4.0889397 -1.1390226 29
2.0373957 -4.1277976 -1.5835803 18
1.6896834 -3.4233267 -1.7795352 6
1.8549353 -3.828589 1.1229961 24
1.9349979 -3.9938383 0.85757744 20
1.9569687 -4.039186 0.62791258 20
1.9634086 -4.0524778 0.39095753 17
1.9472907 -4.0192108 0.22975935 19
1.9731593 -4.0726037 0.15273312 21
13.128629 -33.024342 0.98832828 27
2.1961362 -3.8022866 0.0962708 38
1.9705417 -4.0672007 0.072416894 16
17.814112 -44.810413 0.48815882 5
2.1966443 -3.8031662 0.018550422 44
1.9899766 -4.1073146 -0.007567395 19
23.39707 -58.854034 -0.47753769 29
2.1944652 -3.7993934 -0.058968712 35
1.9686824 -4.0633631 -0.087326087 25
11.302202 -28.430063 -0.77228528 15
2.1896014 -3.7909725 -0.13628019 41
1.9781562 -4.0829172 -0.16818367 26
9.0174103 -22.682796 -1.048668 40
2.1900542 -3.7917566 -0.21377528 41
1.9939671 -4.1155505 -0.25047457 25
9.0091801 -22.662094 -1.4787691 3
2.1898205 -3.791352 -0.29134476 48
2.0004296 -4.1288896 -0.33249176 21
8.535574 -21.470766 -1.810303 1
2.1889117 -3.7897782 -0.36865884 45
1.9836768 -4.0943117 -0.41019833 26
6.8706722 -17.282797 -1.7862377 1
2.1813564 -3.7766976 -0.4446294 46
1.9941103 -4.1158462 -0.493285 30
2.0056186 -4.1395998 -0.57767314 26
2.016475 -4.1620073 -0.66264957 21
1.9973452 -4.1225233 -0.73825109 22
2.0086846 -4.1459279 -0.82393271 28
2.0124662 -4.1537328 -0.90779841 21
2.0242054 -4.1779628 -0.99534994 22
2.0012949 -4.1306753 -1.0654978 20
2.0169539 -4.1629953 -1.1555021 27
2.0334702 -4.1970849 -1.6043998 18
1.6550593 -3.4160447 -1.7693954 6
1.8198526 -3.8239839 1.1178916 27
1.9425106 -4.0817204 0.87351471 20
1.9508532 -4.0992503 0.63511723 18
1.976169 -4.1524453 0.39926106 19
1.9483675 -4.094027 0.23325302 19
1.9721668 -4.1440358 0.15489189 19
11.381311 -29.221697 0.87212634 10
2.16361 -3.8070953 0.096007764 37
1.9764737 -4.1530857 0.073698603 15
14.565647 -37.39753 0.40628612 3
2.1581814 -3.7975433 0.018449053 46
1.9973514 -4.1969552 -0.007706672 18
14.529689 -37.305206 -0.30186149 21
2.1599822 -3.8007119 -0.058753695 34
1.9660463 -4.131175 -0.088486306 24
11.096191 -28.489647 -0.77178061 13
2.1551805 -3.7922626 -0.13578236 41
1.9822415 -4.165205 -0.17099908 28
8.8486814 -22.71913 -1.0474663 54
2.1536593 -3.7895861 -0.21280003 42
1.9926487 -4.1870737 -0.25397468 25
8.8290138 -22.668631 -1.4751376 49
2.1554105 -3.7926676 -0.29028243 49
2.0058448 -4.2148018 -0.33827421 21
8.401392 -21.570707 -1.8137399 1
2.1564925 -3.7945714 -0.36765158 43
1.9909967 -4.1836023 -0.41774139 25
6.771524 -17.385994 -1.7919739 1
2.154937 -3.7918344 -0.4446294 49
1.9943814 -4.1907144 -0.50057703 30
2.0005479 -4.2036719 -0.58465105 23
2.0162966 -4.236764 -0.67229432 25
1.997366 -4.1969857 -0.74907029 23
2.0101495 -4.2238474 -0.83660859 27
2.0171511 -4.2385597 -0.92323714 21
2.0286036 -4.2626238 -1.0121208 21
2.0092456 -4.2219481 -1.0853966 19
2.0178604 -4.2400498 -1.1729509 28
2.0382538 -4.2829018 -1.6317253 17
1.6467509 -3.4602523 -1.7862951 6
1.7898368 -3.8295887 1.1158497 27
1.9422363 -4.1556668 0.88641638 20
1.9590882 -4.1917238 0.64730972 18
1.9741279 -4.2239032 0.40479672 18
1.9484921 -4.1690521 0.23674667 20
1.9651926 -4.2047849 0.15664589 23
11.141408 -29.207043 0.86934638 9
2.1174629 -3.7872024 0.09513098 40
1.9796064 -4.2356253 0.074916236 15
14.147406 -37.087219 0.40183213 35
2.1257608 -3.8020437 0.018398369 48
1.9951006 -4.2687769 -0.0078127878 19
14.154856 -37.10675 -0.29944876 40
2.1216841 -3.7947521 -0.058431167 38
1.9642506 -4.2027693 -0.089723878 26
10.887056 -28.540262 -0.77107406 11
2.1208484 -3.7932575 -0.13528453 46
1.9818864 -4.2405038 -0.17351812 28
8.7639284 -22.974512 -1.056394 65
2.1193519 -3.7905805 -0.21201982 46
1.9938086 -4.2660127 -0.25791225 25
8.7018538 -22.811785 -1.4804639 41
2.1191413 -3.7902043 -0.2889545 47
2.0050876 -4.2901459 -0.34318933 21
8.280448 -21.707075 -1.8203012 1
2.1221681 -3.7956178 -0.36630857 43
1.9870431 -4.2515368 -0.42312929 26
6.6840448 -17.522127 -1.8011518 1
2.1225865 -3.7963662 -0.44341233 52
1.9937018 -4.2657843 -0.50786906 27
2.0047605 -4.2894459 -0.59461951 21
2.0168464 -4.3153048 -0.68250638 21
2.004802 -4.2895346 -0.7630716 24
2.0122888 -4.3055539 -0.8499887 25
2.0224092 -4.3272076 -0.93944788 21
2.0319154 -4.3475471 -1.0288917 15
2.0143671 -4.3099999 -1.1043911 20
2.0227163 -4.3278646 -1.1933079 26
2.2004862 -4.7082262 -1.7878712 5
1.6194835 -3.4650955 -1.7829151 7
1.7598314 -3.8349602 1.1138079 28
1.9393848 -4.2262363 0.89855903 21
1.9562119 -4.2629056 0.65617698 20
1.9828185 -4.3208852 0.41275427 18
1.9609914 -4.2733207 0.2418844 19
1.9724714 -4.298337 0.15961421 21
10.909253 -29.209196 0.86712241 16
2.0871184 -3.7948842 0.094955623 42
1.9850177 -4.3256779 0.076262034 16
13.924528 -37.282501 0.4028849 43
2.0895288 -3.7992671 0.018313896 48
1.9886063 -4.333498 -0.0079056397 18
13.950036 -37.3508 -0.30062497 38
2.0855038 -3.7919486 -0.058162395 38
1.9682215 -4.2890763 -0.091270842 24
10.688942 -28.619318 -0.77117497 9
2.0866091 -3.7939584 -0.13478671 43
1.9822427 -4.3196306 -0.17618535 26
8.6270924 -23.09878 -1.0593127 9
2.0889871 -3.7982819 -0.21162972 45
1.9889646 -4.3342786 -0.26119357 23
8.5787067 -22.969227 -1.4867585 40
2.0868602 -3.7944145 -0.28815776 51
2.000047 -4.358429 -0.34752616 10
8.1426544 -21.801712 -1.8234257 1
2.0898566 -3.7998629 -0.36530131 44
1.9905444 -4.3377213 -0.43031314 24
6.5559821 -17.553444 -1.7996221 1
2.0902791 -3.8006313 -0.4421953 51
2.0003636 -4.3591189 -0.51730585 27
5.8117375 -12.664725 -1.7499658 2
5.1359487 -11.192071 -1.764418 2
1.9945711 -4.3464961 -0.77070868 9
4.145009 -9.0326519 -1.7774411 3
3.768225 -8.2115774 -1.777 3
3.4451492 -7.5075426 -1.7710018 3
3.1916664 -6.9551625 -1.7764325 4
2.9603543 -6.4510956 -1.7729977 5
2.1691403 -4.7269111 -1.7891725 4
1.6013014 -3.4894974 -1.789675 6
1.7282503 -3.8365741 1.1107452 30
1.9404805 -4.3077078 0.91297847 20
1.95569 -4.3414717 0.6661526 18
4.4584203 -9.8973284 0.94244981 1
1.9557208 -4.3415403 0.24496704 19
1.9670445 -4.3666778 0.16163805 8
10.915107 -29.859222 0.88413572 7
2.0548661 -3.7988102 0.094692588 41
8.9065256 -19.771757 0.34747291 15
13.709226 -37.502781 0.40422109 39
2.0534384 -3.7961709 0.018229421 46
8.9421568 -19.850857 -0.036099326 10
10.513896 -28.761677 -0.23089735 4
2.0513685 -3.7923441 -0.057947375 38
1.9546558 -4.3391757 -0.092044324 12
10.480643 -28.670712 -0.77056932 20
2.046756 -3.7838171 -0.13391551 43
8.750514 -19.425425 -0.78979641 24
8.5150156 -23.293566 -1.0654935 13
2.0491133 -3.7881749 -0.21026437 42
8.7335768 -19.387827 -1.1646521 9
2.0489256 -3.787828 -0.28656426 49
8.7876921 -19.507957 -1.5505681 1
8.0409088 -21.996605 -1.8349861 1
2.0537956 -3.7968311 -0.36362252 41
6.4510479 -17.647402 -1.8045934 2
2.0542283 -3.7976308 -0.44016686 44
6.6495776 -14.761518 -1.7462289 2
5.7427406 -12.748414 -1.7559469 2
5.0625672 -11.238484 -1.76612 3
4.5187454 -10.031245 -1.7730755 3
4.0834656 -9.0649595 -1.7781454 3
3.7059698 -8.2269497 -1.7746842 3
3.3974721 -7.54211 -1.7735175 4
3.1398318 -6.9701695 -1.7746235 5
2.9216206 -6.4857588 -1.7768753 5
2.137641 -4.745388 -1.7904737 5
1.5605216 -3.4642303 -1.7710854 6
1.6998608 -3.8450084 1.1097243 25
2.1930242 -4.9605217 1.0480659 19
3.4069769 -7.7064276 1.1787908 17
4.3747153 -9.8954086 0.939336 2
7.8064485 -17.657833 0.99322623 4
11.889022 -26.892429 0.99236047 24
11.100922 -31.037813 0.91671675 12
2.0189052 -3.7954102 0.094254196 40
18.822208 -42.574986 0.74589396 9
2.0193722 -3.7962885 0.018161843 44
26.107626 -59.054268 -0.10705774 18
9.6905184 -27.094372 -0.21696389 10
2.0154514 -3.7889175 -0.057678603 35
8.6545706 -19.576248 -0.41396743 10
9.6823215 -27.071451 -0.72575235 39
2.0202901 -3.7980142 -0.13391551 42
8.7052011 -19.690771 -0.79809445 5
8.4477425 -23.61961 -1.0776833 5
2.0207405 -3.7988605 -0.21006931 43
8.7611265 -19.817272 -1.1867464 2
8.5475998 -23.898808 -1.539053 5
2.0168087 -3.7914691 -0.2857675 46
8.7674379 -19.831549 -1.5713849 0
7.8696895 -22.003393 -1.8309243 1
2.0178792 -3.7934818 -0.36194375 44
7.9011726 -17.872095 -1.7618414 1
6.354506 -17.766991 -1.8122417 1
2.0295343 -3.8153927 -0.44057256 49
6.5399323 -14.793032 -1.7445132 3
5.6776743 -12.842643 -1.7634232 2
4.9983959 -11.306146 -1.771226 2
4.4565902 -10.080606 -1.7762575 3
4.0216751 -9.0968475 -1.7788496 3
3.6484463 -8.2526207 -1.7746842 3
3.3478999 -7.5727983 -1.7751945 4
3.0910959 -6.991919 -1.7746235 4
2.8809793 -6.516645 -1.7797834 5
2.1075196 -4.7671146 -1.7930762 4
1.5582886 -3.5247784 -1.7964349 5
1.6652807 -3.8390415 1.1046197 27
2.1864717 -5.0405645 1.0617265 30
3.3467867 -7.715488 1.1765741 17
4.3007684 -9.9147415 0.93829805 3
7.6639066 -17.667925 0.99076015 5
11.673942 -26.912426 0.99006683 30
7.6111193 -21.758299 0.64105678 1
1.9886522 -3.8023252 0.094078839 40
19.629084 -45.251747 0.79036951 2
9.4877043 -27.12299 0.29088694 35
1.9909661 -3.8067491 0.018144948 48
25.249012 -58.207603 -0.10520072 27
9.4799967 -27.100954 -0.21648134 38
1.9926578 -3.8099837 -0.057786115 34
8.6306887 -19.896687 -0.41945913 2
9.4693251 -27.070448 -0.72393548 35
1.9955788 -3.8155687 -0.13403997 42
9.8480358 -22.703089 -0.9173789 40
9.4913225 -27.133333 -1.2349491 36
1.9941702 -3.8128755 -0.21006931 46
9.8193893 -22.637051 -1.351469 32
9.4839783 -27.112337 -1.7416936 37
1.9958391 -3.8160665 -0.28656426 51
9.7750444 -22.534819 -1.7801319 1
7.76197 -22.189543 -1.8418598 1
1.9987357 -3.8216047 -0.36328676 34
7.7936478 -17.967022 -1.7657925 1
6.2566085 -17.886087 -1.8198899 1
2.0102255 -3.8435736 -0.4421953 27
6.4808116 -14.940486 -1.7565236 2
5.5957742 -12.900172 -1.7659154 2
4.9303722 -11.366194 -1.7751974 2
4.3939633 -10.129588 -1.7794397 3
3.9643366 -9.1391516 -1.7816665 3
3.6032381 -8.3066959 -1.7808597 3
3.3089581 -7.6282797 -1.7827414 4
3.053062 -7.0383515 -1.780955 4
2.8338699 -6.5330391 -1.778814 4
2.0711772 -4.7747712 -1.7904737 5
1.5249865 -3.5156152 -1.7862951 7
1.6382669 -3.8464434 1.1035988 25
2.1822333 -5.1236072 1.0761459 28
3.2908852 -7.7265816 1.1749115 21
4.2317929 -9.9357147 0.9376061 2
7.5293407 -17.677938 0.98849952 5
11.471697 -26.934092 0.98804295 23
9.2941341 -27.145939 0.79795724 37
1.965221 -3.8189857 0.094166517 42
18.997847 -44.604538 0.77684742 3
9.2842951 -27.117201 0.29015809 39
1.9748269 -3.8376529 0.018229421 29
24.473686 -57.461117 -0.10355592 30
9.2961674 -27.151878 -0.21639086 39
1.9819866 -3.8515663 -0.058216147 18
9.2779284 -27.098604 -0.72302699 33
1.9903529 -3.8678243 -0.135409 23
9.6565218 -22.672289 -0.91352624 57
9.2826862 -27.112503 -1.231172 46
1.965183 -3.818912 -0.20967922 22
9.6393023 -22.631861 -1.3473127 2
9.2793884 -27.102869 -1.7370937 38
1.9850967 -3.8576097 -0.28868893 25
9.6660175 -22.694586 -1.7876492 1
7.6340132 -22.297123 -1.8465465 1
1.9952321 -3.877306 -0.36731583 24
7.6946082 -18.065966 -1.770462 1
6.1636443 -18.002529 -1.827538 1
2.0083611 -3.9028194 -0.44746917 23
6.3862543 -14.994117 -1.7578104 2
5.5380869 -13.002728 -1.774887 2
4.8579831 -11.40593 -1.776332 2
4.3328738 -10.173039 -1.7819854 2
3.9113507 -9.1833563 -1.7851876 3
3.5526805 -8.3412437 -1.7831755 3
3.2582924 -7.6500578 -1.7827414 4
3.0032606 -7.0512757 -1.779146 4
2.7950408 -6.5624018 -1.7817221 4
2.039464 -4.788403 -1.7904737 5
1.498795 -3.518981 -1.7829151 6
1.6039207 -3.8399432 1.0984943 27
2.169116 -5.1930761 1.0875297 26
3.2139609 -7.6945372 1.1665984 20
4.1101046 -9.8399925 0.92584276 4
7.382647 -17.67478 0.98541689 4
10.63778 -25.467888 0.93151009 1
9.0853615 -27.153284 0.79628927 27
1.9673909 -3.8897095 0.095569372 25
18.968079 -45.411438 0.78857511 5
9.075717 -27.12446 0.28955075 45
1.9696516 -3.8941791 0.018432159 24
24.122812 -57.752373 -0.10377479 30
9.0695782 -27.106113 -0.21551625 38
1.976712 -3.9081383 -0.058861203 17
9.8711452 -23.632488 -0.49533769 0
9.0745602 -27.121002 -0.72191668 25
1.9921739 -3.9387078 -0.1374003 21
9.4718122 -22.676447 -0.91100723 65
9.0703535 -27.108431 -1.2280816 61
1.9691292 -3.8931463 -0.21299507 20
9.4579763 -22.643322 -1.3440313 57
9.0696774 -27.106409 -1.73322 19
1.9905423 -3.935482 -0.29346943 24
9.4335365 -22.58481 -1.7737713 3
7.5047359 -22.429293 -1.8531078 1
2.002296 -3.9587202 -0.37369516 22
7.5913286 -18.174383 -1.7758499 1
6.0517101 -18.086655 -1.8317446 1
2.0080066 -3.9700105 -0.45355445 27
6.2998133 -15.08237 -1.7629577 2
5.4578838 -13.066709 -1.778376 2
4.7843409 -11.45418 -1.7786014 2
4.2678356 -10.217617 -1.7845311 2
3.8516967 -9.2213392 -1.7873002 4
3.4958737 -8.3694639 -1.7839473 4
3.2002831 -7.6617908 -1.7802258 4
2.9599674 -7.0864515 -1.782764 4
2.7461672 -6.5745926 -1.7797834 8
2.007443 -4.806015 -1.791775 4
1.4811782 -3.5460856 -1.7913649 7
1.5741433 -3.8438888 1.0964525 27
2.1744835 -5.309855 1.1087793 28
3.1586649 -7.7131205 1.1660442 19
4.0609436 -9.9163876 0.93034053 3
7.2454534 -17.692619 0.9835673 4
10.406702 -25.412048 0.92678779 3
8.8881207 -27.193247 0.79562205 11
1.9597673 -3.9427412 0.096533827 26
14.008029 -34.206104 0.59228045 1
8.94205 -27.358242 0.29137284 20
1.9780248 -3.9794724 0.018770054 21
23.917629 -58.404282 -0.10464361 29
8.9994173 -27.533758 -0.21841152 13
1.9885455 -4.000638 -0.060043804 17
9.9453897 -24.285574 -0.5075587 1
9.4664001 -28.962494 -0.76915622 32
1.9913214 -4.0062227 -0.13926715 23
9.2829781 -22.668036 -0.90804362 50
8.9553738 -27.399008 -1.2383829 26
1.9703547 -3.964041 -0.21611588 23
9.2936163 -22.694014 -1.3431563 3
9.0228672 -27.605501 -1.7610619 11
1.9878896 -3.9993188 -0.2971876 27
9.2665691 -22.627966 -1.7720366 2
7.3739839 -22.560736 -1.8596692 0
2.0029964 -4.0297112 -0.37906724 23
7.494462 -18.300671 -1.7830337 1
5.9376636 -18.166309 -1.8355687 1
2.0068102 -4.037384 -0.4596397 27
6.2049189 -15.151746 -1.7659603 2
5.3755555 -13.126529 -1.7813665 2
4.7222681 -11.531272 -1.7854095 2
4.200891 -10.258124 -1.7864404 2
3.7842433 -9.240716 -1.7858918 3
3.4433103 -8.4081936 -1.7870351 3
3.1511643 -7.6948047 -1.7827414 4
2.9089475 -7.1033373 -1.7818595 4
2.706085 -6.6079688 -1.7836609 10
1.9781431 -4.8304129 -1.7956786 5
1.4536386 -3.5496292 -1.787985 7
1.5487103 -3.8583741 1.0974734 30
2.160768 -5.3832221 1.1209221 30
3.0944109 -7.7092505 1.1621648 17
3.9916153 -9.9444971 0.93034053 3
7.1009269 -17.69087 0.98069018 3
10.206701 -25.428431 0.92476398 4
7.5784411 -23.746386 0.69320863 1
1.9655383 -4.0246015 0.098199718 21
13.570739 -33.809414 0.58375704 1
8.7630024 -27.458107 0.29177773 6
1.9782805 -4.0506921 0.019040368 25
23.574871 -58.733173 -0.10493543 26
19.911173 -62.389927 -0.4937934 3
1.9868956 -4.0683322 -0.060850121 18
12.011685 -29.925272 -0.6236583 0
9.2676268 -29.039301 -0.76945901 31
1.9913764 -4.077507 -0.14125846 23
9.1140766 -22.706326 -0.90700638 63
9.343442 -29.276861 -1.3202779 6
1.9706849 -4.0351396 -0.21923669 22
9.0858593 -22.636024 -1.3359374 4
9.4781551 -29.698973 -1.8903453 2
1.9879447 -4.0704808 -0.30143693 28
9.2540092 -23.054943 -1.8003706 1
7.2502532 -22.718039 -1.8684176 1
2.0097985 -4.1152277 -0.38578236 24
7.3843246 -18.396912 -1.7873441 1
5.8361206 -18.286976 -1.8435993 1
2.0117552 -4.1192346 -0.46734768 27
6.1108398 -15.22422 -1.7693919 2
5.2956114 -13.193204 -1.7853539 2
4.6372252 -11.552936 -1.7837075 2
4.136529 -10.305528 -1.7896224 2
3.7328393 -9.2997971 -1.7922298 3
3.3991463 -8.4684515 -1.7947545 4
3.1061089 -7.7383938 -1.7877727 4
2.8621888 -7.1307049 -1.7836685 4
2.6656692 -6.6411061 -1.7875384 10
1.9443723 -4.8441052 -1.7956786 5
1.4328736 -3.5697849 -1.7930549 7
1.5132426 -3.847497 1.0913479 28
2.1633823 -5.5005107 1.1421717 28
2.6214833 -6.6652565 1.002 16
3.9162581 -9.9572868 0.92895657 6
6.9538541 -17.680532 0.97740203 3
9.9982014 -25.42094 0.92193055 5
7.5634832 -24.283545 0.70733082 2
1.9598818 -4.0850973 0.099339537 22
13.113329 -33.341312 0.57408011 14
12.073993 -38.765118 0.41102356 3
1.974177 -4.1148934 0.019276895 24
14.696173 -37.365772 -0.066574506 6
9.0982246 -29.211031 -0.23068623 18
1.987857 -4.1434073 -0.061763946 19
9.0599127 -29.088024 -0.76905525 34
1.9939916 -4.1561942 -0.14349869 21
8.9787436 -22.828918 -0.90937722 8
9.0627651 -29.097183 -1.3092899 26
1.970118 -4.1064334 -0.2223575 23
8.9027567 -22.635717 -1.3322185 23
9.2444649 -29.680553 -1.8850191 1
1.9888289 -4.1454334 -0.30595183 25
9.1570797 -23.282347 -1.813092 1
7.1211219 -22.863285 -1.8762287 1
2.0051584 -4.1794701 -0.3904829 23
7.2775822 -18.503626 -1.792732 1
5.7237039 -18.376694 -1.8485706 1
2.008769 -4.186996 -0.47343293 26
6.0160508 -15.296119 -1.7728235 3
5.2237134 -13.28156 -1.7923318 2
4.5695009 -11.618191 -1.7888135 2
4.0760455 -10.363555 -1.7947139 2
3.672147 -9.3366222 -1.7943424 3
3.3385057 -8.4883223 -1.7939826 3
3.0534403 -7.7635293 -1.7886112 4
2.8123374 -7.1505122 -1.7836685 7
2.6249223 -6.6739998 -1.7914159 9
1.9091222 -4.8540416 -1.7943773 5
1.4039359 -3.5695794 -1.787985 6
1.4793931 -3.8399229 1.0862434 28
2.1616385 -5.610764 1.1619036 27
2.554949 -6.6316433 0.99424112 18
3.8222928 -9.9211693 0.9230749 4
6.8101454 -17.67646 0.97452492 3
9.7974911 -25.430435 0.91977179 4
7.5483618 -24.844584 0.72212017 1
1.9619975 -4.1637959 0.10091775 20
14.293649 -37.100693 0.63707638 19
9.9845276 -32.862949 0.34769574 1
1.9777964 -4.1973248 0.019597895 23
14.268142 -37.034489 -0.065805167 34
9.9731274 -32.825428 -0.25867379 19
1.9895697 -4.2223101 -0.062731527 16
8.8670807 -29.184998 -0.76996368 32
1.9938984 -4.2314968 -0.14561445 20
8.8536386 -22.980566 -0.91293353 11
8.8640547 -29.175039 -1.3099767 29
1.9686494 -4.1779127 -0.22547831 23
8.7559996 -22.727135 -1.3339685 23
9.0335484 -29.732908 -1.8842927 1
1.9887611 -4.2205944 -0.31046674 22
9.041647 -23.468561 -1.822633 1
6.9879951 -23.0002 -1.883415 1
2.0031152 -4.2510571 -0.39585498 21
7.1682768 -18.60603 -1.7977606 1
5.613791 -18.477161 -1.8546891 1
2.0134137 -4.2729125 -0.48154661 24
5.9248443 -15.378567 -1.7775418 2
5.1351438 -13.328815 -1.7938271 2
4.5010905 -11.683063 -1.7939196 2
4.0050144 -10.395443 -1.7953503 2
3.6125383 -9.376729 -1.7971592 3
3.280576 -8.5150862 -1.7947545 3
3.0033848 -7.7956066 -1.7911268 4
2.7665513 -7.1808801 -1.786382 5
2.5754747 -6.6849198 -1.7894771 7
1.8806274 -4.8813696 -1.7995822 4
1.3828915 -3.589443 -1.7930549 6
1.4525502 -3.850157 1.0862434 22
2.1487563 -5.6955342 1.1763231 28
2.5043957 -6.6381989 0.99257851 17
3.7388725 -9.910326 0.91961515 4
6.6837583 -17.716097 0.97411388 2
7.5989718 -20.141979 0.72656173 0
7.9947796 -26.989929 0.78283429 3
1.9631085 -4.2427206 0.10249595 23
14.044179 -37.225769 0.63752496 32
9.6560249 -32.598202 0.34417301 24
1.9753206 -4.2691135 0.019868212 23
14.054435 -37.252949 -0.066017397 32
9.6210289 -32.480057 -0.25541663 36
1.9869167 -4.2941751 -0.063591599 16
8.7108145 -29.407221 -0.77420312 7
1.9962075 -4.3142548 -0.14797913 20
8.8044605 -23.337269 -0.9246397 7
8.6669683 -29.259201 -1.3110068 27
1.9729884 -4.2640729 -0.22937931 23
8.6662083 -22.970816 -1.3446876 255
8.8518353 -29.883299 -1.8898611 1
1.9877394 -4.2959533 -0.31498167 22
8.8832226 -23.546038 -1.8237896 1
6.853303 -23.136368 -1.8906012 1
2.0018427 -4.3264337 -0.40156284 21
7.0564928 -18.704073 -1.8024302 1
5.4891825 -18.531174 -1.8562188 1
2.0169549 -4.3590951 -0.48966029 16
5.8355904 -15.467926 -1.783118 3
5.0545778 -13.397759 -1.7983129 3
4.4250112 -11.729018 -1.7961888 2
3.9323452 -10.423149 -1.7953503 2
3.5414307 -9.3869829 -1.7943424 3
3.2321346 -8.5671568 -1.80093 4
2.9461288 -7.8090649 -1.7894497 4
2.7204797 -7.2109551 -1.7890955 6
2.5342233 -6.7172604 -1.7933547 6
1.8478395 -4.8979182 -1.8008834 4
1.3577996 -3.5990095 -1.7930549 6
1.2380519 -3.3522825 0.9433167 5
2.1483991 -5.8172364 1.1983317 27
2.4387774 -6.6034961 0.98481965 18
3.6585493 -9.9062815 0.91684729 5
6.5336185 -17.691128 0.97020924 1
7.5883579 -20.547052 0.73924446 8
7.778439 -26.949045 0.78005433 4
1.9615576 -4.3182192 0.10398649 19
13.826906 -37.439217 0.63951164 36
9.4137917 -32.614861 0.34364665 35
1.9719373 -4.3410687 0.020138526 22
13.830048 -37.447723 -0.066189833 20
9.4328632 -32.680935 -0.2564722 41
1.9668144 -4.3297911 -0.063914128 1
11.8642 -32.124783 -0.66233242 0
9.4367809 -32.694508 -0.85899204 31
8.8000526 -19.372643 -0.66235906 20
8.7950363 -23.814384 -0.94108766 2
8.4913034 -29.418825 -1.3154707 10
1.9712615 -4.339581 -0.23269516 17
8.5429897 -23.131918 -1.3505939 25
8.6728897 -30.047943 -1.8963979 1
8.7980938 -19.36833 -1.4155583 12
8.7117128 -23.58877 -1.8223439 1
6.7082014 -23.241119 -1.8952879 1
6.9340224 -18.775305 -1.8045853 1
5.3806558 -18.641727 -1.8634846 1
5.7426171 -15.549328 -1.7878364 2
4.9732947 -13.466228 -1.8027987 2
4.3457627 -11.767054 -1.7973236 2
3.8663228 -10.468871 -1.7985324 2
3.4908164 -9.4521093 -1.8020887 4
3.1695261 -8.5821495 -1.7993861 3
2.8969593 -7.8441181 -1.7928039 4
2.672771 -7.237082 -1.7909045 6
2.4859216 -6.7311487 -1.7923853 5
1.8162212 -4.9177957 -1.8034859 5
1.3338968 -3.6118021 -1.7947448 8
1.3749902 -3.8045919 1.0678672 17
2.1411061 -5.9244313 1.2173046 25
2.3764598 -6.575654 0.9781692 19
3.5811749 -9.9090948 0.91477138 5
6.3936596 -17.691227 0.9677431 1
7.590117 -21.00182 0.75368124 2
7.5814605 -26.971895 0.77916473 7
8.8328094 -19.810898 0.47556722 29
9.2226753 -32.810703 0.34502333 44
8.8658018 -19.884895 0.091958053 12
10.698273 -29.602074 -0.05218916 8
9.2369566 -32.861511 -0.25737697 37
8.7054663 -19.525284 -0.28731793 22
10.385009 -28.735273 -0.59094006 17
9.2450981 -32.890472 -0.86242396 24
8.7655325 -19.660004 -0.67007536 3
8.7358961 -24.172188 -0.95279384 1
9.2297888 -32.83601 -1.465354 36
8.6942692 -19.500168 -1.0423495 67
8.4803896 -23.4652 -1.3665631 6
8.5018063 -30.24613 -1.9051136 1
8.7357998 -19.593317 -1.4275097 2
8.5902119 -23.769077 -1.8315959 1
6.5576601 -23.329611 -1.8987247 1
8.5180855 -19.105011 -1.7620416 4
6.8068395 -18.834496 -1.8056629 2
2.1699727 -7.7199216 -0.77017403 0
6.9517741 -15.591969 -1.7403833 2
5.6406808 -15.607739 -1.7899811 2
4.8791618 -13.500619 -1.8027987 2
4.2756195 -11.83062 -1.8024296 2
3.7998531 -10.514176 -1.8017145 2
3.4314346 -9.4947643 -1.8056098 2
2.6066196 -7.2125049 -1.5083658 0
2.844785 -7.8715076 -1.794481 4
2.6235061 -7.2592297 -1.791809 5
2.4415069 -6.7556391 -1.794324 4
1.7792732 -4.9232407 -1.8008834 5
1.3074169 -3.6176167 -1.7930549 11
1.3535033 -3.8328028 1.0729717 22
2.1499302 -6.0880957 1.2476614 29
2.3202796 -6.5704851 0.97484398 19
3.5004797 -9.9125338 0.91269553 6
6.8530731 -19.406288 1.0587837 27
7.5850539 -21.479086 0.76879269 1
6.2718496 -22.957499 0.66185081 3
18.65123 -42.670666 1.0210141 14
9.5713968 -27.103943 0.46058425 28
25.851828 -59.144341 0.27263036 24
9.5686169 -27.096069 -0.047646068 37
15.533448 -56.858681 -0.44442311 28
8.6806498 -19.859768 -0.29129577 2
9.5774946 -27.121208 -0.55628806 20
15.483628 -56.676323 -1.4830986 26
9.9310179 -22.720385 -0.77188104 25
9.5753727 -27.1152 -1.0660028 43
9.0067453 -32.968319 -1.4682727 3
9.9016075 -22.653099 -1.2069721 9
8.4504576 -23.929705 -1.3899698 0
8.2556629 -30.219053 -1.8995452 0
8.4462996 -23.917933 -1.8382457 1
6.413794 -23.477072 -1.9068483 1
8.4400749 -19.309376 -1.775136 2
6.713696 -19.011606 -1.8178755 1
2.1059794 -7.7087336 -0.76749712 0
6.8627977 -15.700849 -1.7468742 1
5.5565777 -15.734919 -1.7998469 1
4.7800665 -13.536022 -1.8027987 2
2.5696998 -7.2767844 -1.1057397 3
2.5273714 -7.1569204 -1.2232057 6
2.5409739 -7.1954398 -1.3647707 1
2.5027101 -7.0870857 -1.4782602 8
2.7935195 -7.9105892 -1.7986737 6
2.5767097 -7.2966356 -1.7963314 3
2.3996735 -6.79531 -1.8001404 4
1.7469146 -4.9468508 -1.804787 5
1.2856922 -3.6407776 -1.7998148 11
1.329237 -3.8494697 1.0750135 25
2.1573675 -6.2477355 1.2772592 23
2.2730594 -6.5827794 0.97428977 18
3.4155836 -9.8915291 0.90854377 6
6.7017779 -19.408346 1.0563176 29
6.9364719 -20.08802 0.71725202 9
6.1062889 -22.981403 0.66129482 5
15.066854 -35.136662 0.83820474 2
9.3597507 -27.105835 0.4594948 32
9.644742 -36.298595 0.38020995 3
