# .PCD v0.7 - Point Cloud Data file format
VERSION 0.7
FIELDS x y z intensity
SIZE 4 4 4 4
TYPE F F F F
COUNT 1 1 1 1
WIDTH 1380
HEIGHT 1
VIEWPOINT 0 0 0 1 0 0 0
POINTS 1380
DATA ascii
6.1068907 -5.8460751 -1.6627532 4
5.6335506 -5.392951 -1.6720538 4
5.2351832 -5.0115972 -1.6823648 5
4.8917961 -4.6828752 -1.6915697 6
3.6284904 -3.4735234 -1.7280153 6
2.6948552 -2.5797622 -1.738976 12
3.9460812 -3.8307014 1.4517276 25
4.0606575 -3.9419277 1.093601 21
7.901855 -7.6708121 1.5406858 28
7.5085711 -7.2890272 0.90854377 2
13.818357 -13.414322 0.99076015 27
13.866048 -13.460617 0.652219 35
13.849953 -15.555778 0.57923067 54
13.778315 -11.557282 0.3942894 48
13.88651 -13.480481 0.31011093 22
13.881194 -15.590867 0.21132223 44
13.806018 -11.58052 0.076110788 45
13.931325 -13.523986 -0.032192931 26
11.527585 -12.947376 -0.13070913 0
13.841667 -11.610423 -0.24280918 35
13.836914 -13.432335 -0.37297288 39
11.207818 -12.588225 -0.42545843 0
13.866848 -11.631544 -0.56341588 36
12.932285 -12.554157 -0.66814113 0
11.14525 -12.517951 -0.7200579 0
13.801963 -11.577119 -0.87948239 59
12.818632 -12.443828 -0.97849154 0
11.129767 -12.500562 -1.0148985 0
13.842951 -11.611499 -1.2022951 51
13.963605 -13.555323 -1.4103433 10
11.113491 -12.482281 -1.3094546 1
12.786306 -10.725183 -1.4058056 33
12.397227 -12.034744 -1.5578197 3
10.982638 -12.335312 -1.5862373 1
11.619068 -9.7461014 -1.5460608 2
10.529507 -10.221634 -1.5828015 3
9.2294168 -8.9595575 -1.6153914 2
8.1822519 -7.9430108 -1.6339304 2
7.3558044 -7.1407275 -1.652155 2
6.6591039 -6.4643979 -1.6598371 3
6.080009 -5.902235 -1.6666129 4
5.6154075 -5.4512181 -1.6779236 4
5.2000685 -5.0480232 -1.6823648 4
4.8561997 -4.7142091 -1.6906003 6
3.6095803 -3.5040395 -1.7306178 6
2.6767795 -2.5985129 -1.738976 11
3.902705 -3.8418779 1.4456022 22
4.0078492 -3.9453835 1.0867708 20
7.7888265 -7.6674309 1.5290475 22
7.5000992 -7.3832035 0.91373348 2
13.80693 -13.591736 0.9967199 31
13.854356 -13.638424 0.65613174 34
13.851811 -15.778288 0.58390099 50
13.782578 -11.725748 0.3967444 49
13.888967 -13.672495 0.31228983 27
13.885484 -15.816644 0.21306334 38
13.801 -11.741421 0.076533161 41
13.924936 -13.707904 -0.032398529 23
11.373585 -12.955395 -0.12998532 1
13.830338 -11.766382 -0.24404554 31
13.836852 -13.621192 -0.37552539 36
11.072179 -12.61207 -0.42364153 0
13.855343 -11.787655 -0.5662784 38
12.701896 -12.503925 -0.66073215 0
10.996949 -12.526379 -0.7161091 0
13.806005 -11.74568 -0.88494384 48
12.711522 -12.513402 -0.97696024 4
10.971107 -12.496943 -1.0083617 0
13.840585 -11.775099 -1.2092003 47
12.629041 -12.432206 -1.2842855 3
10.952415 -12.47565 -1.3007061 0
12.780944 -10.873593 -1.413528 46
12.338458 -12.146152 -1.5610526 3
10.96981 -12.495465 -1.5969447 1
11.547713 -9.8244019 -1.5456551 2
10.483397 -10.320004 -1.5866619 3
9.1864414 -9.0432625 -1.6188804 3
8.140708 -8.0138283 -1.6367671 2
7.31703 -7.2029877 -1.6547008 3
6.5969763 -6.4941564 -1.6556119 3
6.0386553 -5.9445376 -1.6666129 4
5.5716395 -5.4848008 -1.6762465 4
5.1758065 -5.0951371 -1.6859828 4
4.8231702 -4.7479968 -1.6906003 7
3.5796385 -3.5238466 -1.7280153 6
2.6663241 -2.6247671 -1.7440459 12
3.8470197 -3.8376319 1.4343722 21
3.9593508 -3.9496889 1.0806993 28
7.6901245 -7.6713586 1.519626 16
7.4876437 -7.4693718 0.91823119 3
13.812638 -13.778932 1.0037072 26
13.859826 -13.826004 0.66071916 30
13.856815 -15.996746 0.58857131 50
13.765081 -11.869125 0.39849797 46
13.897085 -13.863173 0.31453285 22
13.892888 -16.038389 0.21480446 41
13.798559 -11.897992 0.076955527 41
13.946991 -13.912956 -0.032663822 25
11.253366 -12.991241 -0.12959325 1
13.824697 -11.92053 -0.24533564 28
13.850967 -13.817167 -0.37838727 47
10.917599 -12.603621 -0.42091617 0
13.8677 -11.957609 -0.57001209 38
12.50549 -12.474974 -0.65480494 0
10.845598 -12.520501 -0.71164525 0
13.812525 -11.910034 -0.89040524 45
12.484041 -12.453577 -0.96580374 2
10.809559 -12.478896 -1.0010986 0
13.846824 -11.939609 -1.2166365 46
12.475698 -12.445253 -1.2770575 1
10.830268 -12.502803 -1.2960194 0
12.793073 -11.030997 -1.4229292 52
12.181479 -12.151752 -1.5513543 3
10.878875 -12.558916 -1.5957975 1
11.497373 -9.913763 -1.5476835 3
10.431615 -10.406158 -1.5892357 3
9.1403112 -9.1180058 -1.6213725 3
8.0985928 -8.0788298 -1.6390365 2
7.2607093 -7.242991 -1.6527914 2
6.5704856 -6.5544515 -1.6598371 3
6.0046539 -5.9900012 -1.6681567 3
5.5379095 -5.5243955 -1.677085 4
5.1363831 -5.1238489 -1.6841738 4
4.7970691 -4.7853627 -1.6925391 6
3.5615444 -3.5528533 -1.7306178 6
2.6488574 -2.6423934 -1.7440459 13
3.8065403 -3.8506422 1.4292676 20
3.9289203 -3.9744401 1.0799404 26
3.9936442 -4.0399141 0.79472786 1
7.499752 -7.5866427 0.92618877 4
13.81721 -13.977294 1.0111055 28
13.864146 -14.024774 0.6655764 31
13.856462 -16.223833 0.59335279 62
13.769183 -12.041279 0.40104064 46
13.898376 -14.059401 0.31677583 25
13.900073 -16.274897 0.21666704 44
13.802479 -12.070396 0.077445477 42
13.936699 -14.098166 -0.032869421 26
11.19097 -13.102944 -0.129925 1
13.864582 -12.124706 -0.24753958 29
13.855389 -14.015915 -0.38117179 19
10.785195 -12.627843 -0.41920021 0
13.919312 -12.172568 -0.57561266 30
12.339412 -12.482374 -0.65065593 0
10.698231 -12.52602 -0.70769644 0
13.795205 -12.064035 -0.89469635 56
12.304136 -12.44669 -0.95858485 2
10.652165 -12.472084 -0.99456179 0
13.892321 -12.148965 -1.2280567 38
12.29876 -12.441252 -1.2678056 1
10.662433 -12.484106 -1.2863337 0
12.802761 -11.196135 -1.4326661 75
12.099149 -12.239327 -1.5517135 3
10.809033 -12.655753 -1.5984744 1
11.466823 -10.027843 -1.5529574 3
10.381082 -10.501354 -1.5926671 3
9.0848045 -9.1900597 -1.6228677 2
8.0531301 -8.1464329 -1.6413059 2
7.2210736 -7.3047357 -1.6553371 3
6.5384088 -6.614162 -1.6633582 3
5.9792466 -6.048521 -1.6727884 4
5.5019579 -5.5657024 -1.6779236 5
5.1169233 -5.1762071 -1.6896008 5
4.7690015 -4.824254 -1.6944778 6
3.5393138 -3.5803196 -1.7319189 7
2.6201508 -2.6505075 -1.737286 11
3.7552679 -3.8521988 1.4200796 21
3.8873706 -3.9877114 1.0761459 27
4.0040565 -4.107409 0.80248666 2
7.4938936 -7.6873264 0.93207043 4
13.814102 -14.170671 1.0180929 28
13.866357 -14.224276 0.67043364 34
13.84588 -16.442514 0.59780073 71
13.819417 -12.256519 0.40498617 35
13.897598 -14.256324 0.31901884 21
13.899474 -16.506159 0.21844864 46
13.879473 -12.309784 0.078357793 42
13.927285 -14.286777 -0.033081654 25
11.109527 -13.19299 -0.13004564 0
13.896297 -12.324705 -0.24963601 30
10.640108 -12.635537 -0.41697955 0
13.926717 -12.351685 -0.57947081 33
12.165469 -12.479485 -0.64606237 0
10.566763 -12.548437 -0.70477772 0
13.872052 -12.303203 -0.90522903 36
12.197427 -12.512267 -0.95705354 1
10.508254 -12.478956 -0.98923552 0
13.902717 -12.330399 -1.2365553 40
12.114134 -12.426825 -1.2576863 2
10.510801 -12.48198 -1.2785226 0
12.04956 -12.360583 -1.556383 2
10.740933 -12.755271 -1.6015337 1
11.42333 -10.131416 -1.5566086 4
10.349156 -10.616289 -1.5991013 3
9.0481291 -9.2816792 -1.627852 2
7.9988256 -8.2052917 -1.6418732 2
7.1891975 -7.3747649 -1.6597921 3
6.489326 -6.6568289 -1.662654 4
5.9396143 -6.0929279 -1.6735604 3
5.4711585 -5.61238 -1.6804392 4
5.0806623 -5.2118044 -1.6896008 5
4.7379146 -4.8602095 -1.6954472 6
3.5168724 -3.60765 -1.7332202 6
2.6041138 -2.6713312 -1.738976 11
3.6987996 -3.8476517 1.4088496 20
3.8431063 -3.9977655 1.0715923 27
3.9780293 -4.1381183 0.80304086 1
7.4842305 -7.7854209 0.9376061 3
13.828342 -14.38484 1.0265187 29
13.871996 -14.430251 0.67556071 29
13.861014 -16.695669 0.60347182 43
13.822711 -12.432928 0.40761653 37
13.914145 -14.474096 0.32171044 27
13.896322 -16.738197 0.22023024 44
13.858623 -12.46523 0.078729473 44
13.943633 -14.504771 -0.033360206 24
9.5582514 -11.512967 -0.11282484 0
13.887232 -12.490962 -0.25103363 29
12.219893 -12.711663 -0.34102809 0
9.5503702 -11.503474 -0.37741143 22
13.923378 -12.523474 -0.5829556 31
12.019876 -12.503596 -0.64295059 0
10.40998 -12.538879 -0.70014215 0
13.871964 -12.47723 -0.91088551 36
11.965844 -12.44739 -0.94567829 0
9.5614014 -11.516762 -0.9076466 7
13.899384 -12.501892 -1.2439916 36
11.969022 -12.450695 -1.2516146 0
9.5395069 -11.49039 -1.1701044 29
13.300118 -11.962879 -1.5068679 7
11.976778 -12.458764 -1.558179 1
9.5172834 -11.463622 -1.4309788 37
11.361197 -10.218904 -1.5578256 3
10.272033 -10.685413 -1.5986724 2
8.9968634 -9.3589268 -1.6303442 3
7.9523239 -8.2723513 -1.6441425 2
7.1348 -7.4219279 -1.6591557 3
6.4699821 -6.7303557 -1.6696961 4
5.910533 -6.1483922 -1.67742 3
5.4508166 -5.6701756 -1.686309 5
5.0441532 -5.2471466 -1.6896008 5
4.711937 -4.9015608 -1.6983553 6
3.4968433 -3.637568 -1.7358227 7
2.6029887 -2.7077415 -1.7508057 11
3.6319363 -3.8312783 1.393536 22
3.8151028 -4.024498 1.0715923 27
3.9572189 -4.1744142 0.80470347 1
7.4954939 -7.9068904 0.94590962 1
13.815524 -14.573801 1.033095 25
13.872677 -14.63409 0.6805529 29
9.4539881 -11.550516 0.41510233 40
13.82126 -12.607278 0.41015917 38
13.909062 -14.672473 0.32395345 20
9.4470253 -11.542008 0.15099072 38
13.862876 -12.645239 0.079253212 42
13.952106 -14.717879 -0.033625498 23
9.4345732 -11.526795 -0.11231214 34
13.897207 -12.676555 -0.25280753 31
12.034554 -12.695081 -0.33832091 0
9.4166412 -11.504887 -0.37529171 40
13.918318 -12.695811 -0.58644038 30
11.855292 -12.50598 -0.63880157 0
9.4463959 -11.541241 -0.64073825 31
13.873074 -12.654541 -0.91673702 35
11.801716 -12.449463 -0.93955314 0
9.4226017 -11.51217 -0.90207821 47
13.900229 -12.679312 -1.2519592 33
11.804957 -12.452882 -1.2435192 0
9.4085417 -11.49499 -1.1638554 47
13.316404 -12.146766 -1.5182835 5
11.916915 -12.570985 -1.5617709 1
9.3840599 -11.46508 -1.4229481 39
11.310161 -10.316739 -1.5606654 3
10.213599 -10.774182 -1.601246 1
8.9668016 -9.4589529 -1.6368237 3
7.899826 -8.333415 -1.6452773 2
7.0882449 -7.4772892 -1.6604285 2
6.4228377 -6.7753606 -1.6696961 4
5.8566642 -6.178112 -1.6743323 3
5.4191709 -5.7166066 -1.6888247 4
5.002037 -5.2765784 -1.6877918 4
4.6829424 -4.9399695 -1.7002941 6
3.4661586 -3.6564016 -1.7332202 6
2.5765388 -2.7179544 -1.7457359 7
3.5813315 -3.8311121 1.3843478 21
3.7842321 -4.0481644 1.0708334 28
3.9415066 -4.2164078 0.80747449 0
7.491818 -8.0143366 0.95248324 0
13.82802 -14.792459 1.0417265 29
13.879378 -14.847398 0.6859498 30
9.3153706 -11.544665 0.41254479 46
13.818043 -12.782214 0.41270185 36
13.915541 -14.886084 0.32651687 26
9.3109589 -11.539199 0.15009993 42
13.86822 -12.828629 0.079793841 45
13.947355 -14.920116 -0.03386426 28
9.3036366 -11.530123 -0.11170896 44
13.884708 -12.843882 -0.25420514 31
11.880089 -12.708668 -0.33646455 0
9.2808495 -11.501884 -0.37307104 41
13.920328 -12.876832 -0.59029859 32
11.707644 -12.524196 -0.63554162 0
9.3128939 -11.541595 -0.63713282 47
13.86651 -12.827048 -0.92219847 33
11.657241 -12.470277 -0.93495929 0
9.2993793 -11.524847 -0.89796245 46
13.908058 -12.865482 -1.2607234 30
11.630552 -12.441728 -1.2342672 0
9.2904997 -11.513843 -1.1591688 43
13.242984 -12.250263 -1.5196265 4
11.847909 -12.674244 -1.5642853 1
9.2612848 -11.477636 -1.4164472 39
11.243704 -10.400853 -1.5614768 3
10.146283 -10.853937 -1.6025329 3
8.9466238 -9.5706081 -1.6452968 3
7.8468647 -8.394146 -1.6464119 2
7.0304785 -7.5208206 -1.6591557 2
6.3888259 -6.8344159 -1.6732172 4
5.8267922 -6.2331829 -1.678192 4
5.3764596 -5.751442 -1.6879861 5
4.9677396 -5.3142157 -1.6886963 5
4.6483417 -4.9725413 -1.7002941 7
3.4405484 -3.6805103 -1.7332202 7
2.5575018 -2.7358751 -1.7457359 7
3.5452909 -3.8487279 1.3812852 22
3.741152 -4.0613523 1.0670389 27
7.0614324 -7.6658115 1.4581094 26
9.1014166 -9.8803959 1.166299 18
13.824768 -15.008013 1.0497413 26
13.875801 -15.063414 0.69121182 32
9.1881971 -11.559428 0.4106544 40
13.823105 -12.97622 0.41568291 37
13.903598 -15.093589 0.32882395 24
9.1738567 -11.541387 0.14924961 47
13.870048 -13.020288 0.080351368 43
13.937884 -15.13081 -0.034109652 24
9.1641102 -11.529125 -0.11104546 45
13.886415 -13.035652 -0.25597903 32
11.705324 -12.707169 -0.33414412 0
9.1539879 -11.516391 -0.37135506 40
13.942159 -13.08798 -0.59527683 30
11.550526 -12.539121 -0.63198531 0
9.1783056 -11.546984 -0.63369906 47
13.868236 -13.018586 -0.92863512 40
11.478923 -12.46139 -0.92795914 0
9.1550226 -11.517693 -0.89215195 45
13.909404 -13.057233 -1.2694876 32
11.47687 -12.45916 -1.2276174 0
9.1413336 -11.50047 -1.1510452 44
13.170266 -12.363379 -1.5216411 5
11.787073 -12.795914 -1.5685955 1
9.1273499 -11.482878 -1.4087989 45
11.184567 -10.499335 -1.5639108 3
10.085308 -10.948498 -1.6055355 2
8.8789167 -9.6388521 -1.6457952 3
7.7985353 -8.4660025 -1.6492486 2
6.9885378 -7.586678 -1.6623378 2
6.3465595 -6.8897538 -1.6753299 4
5.7942405 -6.2901621 -1.6820517 4
5.3394547 -5.796452 -1.6896632 5
4.9418507 -5.3648176 -1.6932188 4
4.6117663 -5.0064816 -1.7002941 6
3.4237275 -3.7167602 -1.738425 6
2.5398345 -2.757216 -1.7474258 7
3.4897311 -3.8418939 1.3700552 22
3.7021449 -4.0757432 1.0640032 30
6.9651265 -7.6680055 1.4492422 12
9.0456142 -9.9584436 1.1680288 15
13.832465 -15.228354 1.0583727 27
13.885882 -15.287163 0.6970135 31
9.0554848 -11.557198 0.40831923 39
13.821967 -13.157884 0.41840094 38
13.90814 -15.311666 0.33145148 24
9.0486536 -11.548479 0.14852078 44
13.874416 -13.207813 0.080908895 42
13.93949 -15.346181 -0.034374941 26
9.0365257 -11.533001 -0.11047244 41
13.884875 -13.21777 -0.25764543 27
11.530279 -12.693847 -0.33166897 0
9.0215731 -11.513917 -0.36923534 39
13.905468 -13.237372 -0.59764153 12
11.39014 -12.539565 -0.62798446 0
9.0506372 -11.551011 -0.63043702 47
13.866717 -13.200484 -0.93468165 28
11.332567 -12.476182 -0.92314649 0
9.0300646 -11.524755 -0.88779408 45
13.907522 -13.239328 -1.2777207 16
11.317183 -12.459246 -1.2198111 0
9.016551 -11.507507 -1.1454213 42
12.841127 -12.22417 -1.4934376 2
11.732276 -12.916227 -1.5732651 1
9.0003014 -11.486769 -1.4015331 24
11.128289 -10.593625 -1.566345 2
10.043389 -11.056909 -1.6111118 1
8.8354254 -9.7270432 -1.6502811 2
7.7445669 -8.5261021 -1.6503832 2
6.9407129 -7.6411281 -1.6636106 2
6.2877159 -6.9222345 -1.672513 4
5.7581024 -6.3391757 -1.6843674 4
5.3041177 -5.8393774 -1.6913402 4
4.9042768 -5.3991871 -1.6932188 4
4.5662656 -5.0270658 -1.6964166 6
3.4002395 -3.7433712 -1.7397263 7
2.525399 -2.7802472 -1.7508057 7
3.4318604 -3.8315928 1.3578043 22
3.6709802 -4.0985646 1.0632442 26
4.0014896 -4.4675708 0.83906412 1
8.9306717 -9.9708881 1.1621472 19
13.81643 -15.425724 1.06536 25
13.874839 -15.490936 0.70187074 31
8.9354782 -11.5695 0.4065401 42
13.816086 -13.337381 0.4210313 35
13.904973 -15.52458 0.33395082 24
8.9091358 -11.535393 0.147549 42
13.885472 -13.404365 0.081517108 44
13.946769 -15.571244 -0.034660127 22
8.909339 -11.535656 -0.10989942 44
13.88722 -13.406053 -0.25941932 30
11.369337 -12.693602 -0.32958058 0
8.9018669 -11.525981 -0.36762032 46
11.219644 -12.526473 -0.62339091 0
8.9160385 -11.54433 -0.62665987 30
11.167913 -12.468717 -0.91680259 0
8.8932581 -11.514834 -0.88222569 12
11.14475 -12.442855 -1.2105591 9
8.8848085 -11.503894 -1.1388599 28
12.781284 -12.338434 -1.4964595 3
11.684345 -13.0453 -1.5790122 2
8.9150257 -11.543018 -1.4007683 5
11.051197 -10.668292 -1.5659393 2
9.992486 -11.156379 -1.6154011 2
8.7567101 -9.7766647 -1.6482874 2
7.6980629 -8.5947084 -1.6532199 2
6.9056416 -7.7099886 -1.6680655 2
6.2602525 -6.9894266 -1.6781467 4
5.7241802 -6.3909149 -1.6874552 4
5.2449555 -5.8558712 -1.6854705 4
4.8742628 -5.4420013 -1.6959323 4
4.5440044 -5.0732756 -1.7012635 6
3.366452 -3.7585659 -1.7358227 7
2.5107653 -2.8032115 -1.7541857 7
3.3922265 -3.8409638 1.3526998 20
3.6500769 -4.1329241 1.065521 27
3.9544687 -4.477582 0.8357389 2
8.8423786 -10.012085 1.1597253 11
13.819465 -15.64756 1.0739914 27
13.874854 -15.710276 0.70740259 34
8.8060513 -11.567969 0.40431613 46
13.819801 -13.528623 0.42401236 35
13.907448 -15.747182 0.33664241 24
8.8211184 -11.587761 0.14742753 38
13.87445 -13.58212 0.082007058 42
13.943635 -15.788157 -0.034925416 28
8.8576612 -11.635765 -0.11026133 30
13.88761 -13.595004 -0.26119322 30
11.216905 -12.700723 -0.32772422 0
8.8841572 -11.670572 -0.37024474 28
12.813624 -12.543647 -0.55818874 0
11.09223 -12.559555 -0.6211682 0
8.8376474 -11.609474 -0.62683153 8
12.758901 -12.490076 -0.87168038 0
11.00392 -12.459562 -0.91045868 0
8.8658571 -11.646532 -0.88755196 31
12.76017 -12.491318 -1.1882192 2
11.047046 -12.508394 -1.2094027 0
8.8936501 -11.683043 -1.1504203 34
12.77174 -12.502645 -1.5055249 3
11.603536 -13.138498 -1.580449 2
8.9138098 -11.709524 -1.4133879 33
11.002045 -10.770235 -1.5695904 1
9.9459476 -11.261638 -1.6205485 2
8.7145157 -9.8673067 -1.6532716 2
7.6404939 -8.6512098 -1.6537873 2
6.8594899 -7.766891 -1.6699749 3
6.2191238 -7.0418143 -1.6802593 4
5.6664338 -6.4160123 -1.6835955 3
5.2220693 -5.9128661 -1.6913402 4
4.84131 -5.4817381 -1.6977413 4
4.5110445 -5.1077833 -1.7022328 6
3.3501456 -3.7933164 -1.7410275 7
2.4839342 -2.8125191 -1.7491157 6
3.3348513 -3.8295517 1.3404489 20
3.6211357 -4.1583047 1.065521 27
3.951731 -4.537941 0.84183514 3
8.6361837 -9.9172974 1.1417344 9
13.822699 -15.873195 1.0828283 31
13.869856 -15.927347 0.71279955 31
8.7898674 -11.715521 0.40731847 27
13.832865 -13.731833 0.42734414 58
13.912745 -15.976598 0.33946219 23
8.8288212 -11.76744 0.14892569 35
13.875808 -13.774463 0.082581475 43
13.94866 -16.017841 -0.035217237 22
8.8602295 -11.809302 -0.11131689 31
13.91158 -13.809974 -0.26345092 25
11.070187 -12.712367 -0.32602254 0
8.8792582 -11.834664 -0.37347478 29
12.634944 -12.542662 -0.55420607 0
10.946528 -12.570365 -0.6179083 0
8.8307304 -11.769985 -0.63215387 37
12.614685 -12.522552 -0.86777937 1
10.848475 -12.457766 -0.90477109 0
8.858614 -11.807149 -0.8950572 37
12.553688 -12.461999 -1.1770647 2
10.857275 -12.467872 -1.1981268 0
8.8932409 -11.853301 -1.1610434 31
12.576653 -12.484796 -1.4927661 2
11.532462 -13.243218 -1.5833225 2
8.9274273 -11.898867 -1.4286842 28
10.954827 -10.874817 -1.5736473 1
9.8827581 -11.348792 -1.6231221 3
8.6454191 -9.9279032 -1.6532716 2
7.5877142 -8.7132959 -1.6554893 2
6.8180685 -7.8294787 -1.673157 2
6.1749849 -7.0909982 -1.6816678 4
5.6343923 -6.4702129 -1.6874552 3
5.190938 -5.9609752 -1.6946944 4
4.8054829 -5.5183406 -1.6986457 4
4.4803739 -5.1450043 -1.7041717 7
3.3186147 -3.8109069 -1.738425 6
2.4547157 -2.8188548 -1.7423559 7
3.2853594 -3.8263316 1.3312608 8
3.5766661 -4.1656055 1.0609676 28
3.9612434 -4.6135077 0.8507024 3
8.4654932 -9.8594341 1.1282412 10
13.818239 -16.093571 1.0912541 30
13.867703 -16.15118 0.71846628 33
8.7910681 -11.889126 0.41121039 30
13.824029 -13.916021 0.43006217 54
13.91811 -16.209887 0.34234604 25
8.8249302 -11.934921 0.15026189 31
13.869514 -13.961808 0.083122104 40
13.948541 -16.245329 -0.035502423 30
8.8536692 -11.973788 -0.11228198 32
13.910667 -14.003236 -0.26527858 29
10.926456 -12.725624 -0.32439825 0
8.8843842 -12.015328 -0.37720954 30
12.425913 -12.5086 -0.54885447 0
10.796008 -12.573696 -0.61435199 0
8.8315058 -11.943814 -0.63816291 34
12.586082 -12.669837 -0.87187546 4
10.701396 -12.463504 -0.89973968 0
8.8685474 -11.993911 -0.90449923 31
12.390434 -12.472887 -1.169894 2
10.720588 -12.485856 -1.1926335 0
8.8932543 -12.027324 -1.1719791 27
12.340303 -12.422421 -1.4749712 2
11.447511 -13.332476 -1.5844001 3
8.9033222 -12.04094 -1.4382446 8
10.915098 -10.987733 -1.5789212 3
9.8291941 -11.447684 -1.6274116 5
8.5965815 -10.012108 -1.657259 2
7.5266986 -8.7660561 -1.6554893 2
6.7761049 -7.8918686 -1.6763391 3
6.1381545 -7.1488724 -1.6851889 3
5.6018677 -6.5242796 -1.6913149 3
5.1542916 -6.003005 -1.6963716 4
4.7693782 -5.5547113 -1.6995503 5
4.4544578 -5.1879358 -1.7080492 6
3.2968564 -3.8397219 -1.7410275 7
2.4515088 -2.8551779 -1.7541857 6
2.5613732 -3.0256164 1.0464281 15
3.5474975 -4.1904736 1.0609676 29
3.9545343 -4.6712847 0.85624444 3
8.3526831 -9.8665886 1.1223595 11
13.819116 -16.323799 1.1002966 28
13.868262 -16.381853 0.7244029 31
8.7973347 -12.073006 0.41543591 29
13.832884 -14.120748 0.43339393 49
13.915724 -16.437918 0.34510174 25
8.8120623 -12.093217 0.15147662 20
13.869674 -14.158302 0.08371342 42
13.953673 -16.482746 -0.035807505 26
13.910528 -14.200008 -0.26715997 29
10.824429 -12.786332 -0.3240115 0
12.259945 -12.515076 -0.54536968 0
10.653728 -12.584691 -0.61124021 0
8.8138065 -12.095612 -0.6429702 16
12.433021 -12.691753 -0.86738926 2
10.554768 -12.467796 -0.89470834 0
12.266747 -12.522019 -1.1664413 1
10.558405 -12.472092 -1.1842489 0
12.194703 -12.448477 -1.4679203 2
11.382469 -13.445516 -1.5883511 3
9.1590519 -12.569407 -1.4936939 1
10.824201 -11.049454 -1.5768927 1
9.7541733 -11.522096 -1.6282694 6
8.526474 -10.071878 -1.657259 2
7.496017 -8.8546534 -1.6622974 2
6.7259469 -7.9450097 -1.6776119 3
6.1059051 -7.2125869 -1.6901184 3
5.5587192 -6.5662246 -1.6920868 2
5.1198378 -6.0477972 -1.6988871 4
4.7304826 -5.587872 -1.6995503 5
4.4231458 -5.2248311 -1.7099879 6
3.272414 -3.8655317 -1.7423288 6
2.4198036 -2.8583875 -1.7457359 7
2.5327535 -3.034517 1.0433654 20
3.50809 -4.2030773 1.0579319 26
3.9522872 -4.7352743 0.86289489 3
8.2325277 -9.8634729 1.1154399 11
13.812326 -16.548685 1.108928 26
13.884202 -16.6348 0.73128402 30
13.871505 -19.318466 0.66140604 49
13.828437 -14.314762 0.43637499 55
13.921079 -16.678982 0.34811378 25
13.864491 -19.308701 0.24063767 57
13.884439 -14.372734 0.084406108 42
10.801626 -15.043131 -0.1396362 0
13.90554 -14.394577 -0.26898763 3
10.611894 -12.714214 -0.32029879 0
10.532612 -14.668482 -0.45584112 11
12.091722 -12.51697 -0.54176044 0
10.514383 -12.597387 -0.60827661 0
12.044326 -12.467907 -0.84632385 18
10.406047 -12.467588 -0.88945824 0
9.0239201 -12.567368 -0.93815166 1
12.048699 -12.472434 -1.1539589 2
9.5967817 -11.498 -1.0853688 7
8.9919395 -12.522829 -1.2079102 2
12.32351 -12.756909 -1.4941092 1
11.278113 -13.512419 -1.5869144 3
9.0571442 -12.613638 -1.4913995 0
10.815919 -11.196299 -1.5870348 1
9.658206 -11.571593 -1.6256958 5
8.4788399 -10.158582 -1.6617448 2
7.4390917 -8.9128494 -1.663432 2
6.6728473 -7.9948044 -1.6782484 3
6.0554032 -7.2550383 -1.6901184 2
5.5328622 -6.6289773 -1.6982623 3
5.0774918 -6.0833931 -1.6988871 5
4.7088337 -5.6417007 -1.7058817 4
4.3940215 -5.2645211 -1.7128961 6
3.2477713 -3.891187 -1.7436299 7
2.4090819 -2.8863449 -1.7524956 6
2.5041351 -3.043165 1.0403028 17
3.46369 -4.2092695 1.0533783 24
3.9619246 -4.8147521 0.8723163 2
8.1001673 -9.8437757 1.1067904 12
13.770072 -16.734161 1.1148877 21
9.4900846 -11.532881 0.50407326 9
13.798653 -19.502968 0.66440839 36
13.835738 -14.523878 0.43979445 49
9.4815626 -11.522525 0.23910391 28
13.854104 -19.581343 0.2428242 48
13.880323 -14.570681 0.084997423 39
9.4675169 -11.505456 -0.024705123 27
2.6405873 -3.7321968 -0.034471743 0
12.141192 -12.745051 -0.23657365 0
9.5292883 -11.580523 -0.29005563 6
10.448427 -14.767771 -0.45664865 2
11.954404 -12.548973 -0.5395202 0
9.4813509 -11.522267 -0.55315387 21
9.2580366 -13.085278 -0.6886391 0
9.4685888 -11.506758 -0.81617528 27
8.9405756 -12.636579 -0.93863583 0
11.884252 -12.475332 -1.1465226 0
9.4503708 -11.484618 -1.0778515 44
2.6924782 -3.8055394 -0.36524752 1
12.627292 -13.255328 -1.5421221 5
9.4875031 -11.529743 -1.3462552 41
2.6653624 -3.7672141 -0.44321334 17
10.775918 -11.311873 -1.5927144 4
9.4735832 -11.512828 -1.6081091 28
8.4379778 -10.254302 -1.6677259 2
7.3666258 -8.9523354 -1.6611626 2
6.621891 -8.0472918 -1.6795212 3
6.014616 -7.3092971 -1.6929352 3
5.4839563 -6.6644106 -1.6974905 3
5.0398698 -6.1247315 -1.7005643 4
4.6718102 -5.6774445 -1.7067863 4
4.3546972 -5.2920713 -1.7119267 7
3.2277377 -3.9225273 -1.7475336 6
2.3819625 -2.8946941 -1.7474258 6
2.4852655 -3.0635765 1.0413237 20
3.4243224 -4.221148 1.0503427 19
6.2392225 -7.6910639 1.3855088 19
7.9986105 -9.8598537 1.1022927 10
9.3745794 -11.556005 0.765522 47
9.3640041 -11.54297 0.50164467 41
13.835313 -14.72796 0.44303855 56
9.3454561 -11.520106 0.23769403 31
2.6487174 -3.7996738 0.046888512 16
13.88781 -14.783845 0.085673213 40
9.3290033 -11.499824 -0.024552582 35
2.637341 -3.783354 -0.034773335 27
11.947857 -12.718727 -0.23453099 1
9.3701038 -11.550488 -0.28765786 37
2.6388628 -3.7855372 -0.11648376 35
11.778909 -12.538878 -0.5355376 0
9.3553505 -11.532302 -0.55048662 48
2.6486974 -3.7996452 -0.19898596 21
11.735035 -12.492174 -0.83676636 0
9.3427334 -11.516748 -0.81223768 45
2.6485631 -3.7994528 -0.28084025 33
11.720353 -12.476544 -1.1390862 0
9.3272352 -11.497644 -1.0729364 44
2.6316383 -3.7751734 -0.36056086 41
12.651793 -13.468081 -1.5565596 4
9.3565817 -11.53382 -1.3390713 44
2.6230586 -3.7628655 -0.44053647 51
10.704857 -11.395529 -1.5939314 2
9.3353529 -11.507651 -1.5982435 33
8.3636827 -10.309877 -1.6672275 2
7.3263974 -9.0312204 -1.6662687 2
6.5804758 -8.1117258 -1.6833397 3
5.9758439 -7.3663983 -1.6964563 3
5.4447141 -6.7116766 -1.6998062 3
5.0093083 -6.1749539 -1.704757 4
4.6320601 -5.7099214 -1.7067863 4
4.3127556 -5.3163161 -1.7099879 6
3.1931257 -3.9361532 -1.7436299 7
2.3685479 -2.9196992 -1.7524956 4
2.4420774 -3.0536683 1.0321355 17
3.389864 -4.2388172 1.0488248 11
6.1556869 -7.6973095 1.3788583 24
7.8897581 -9.8656597 1.0967569 10
9.2462702 -11.561895 0.7616173 33
9.2332544 -11.54562 0.49894619 40
2.6031392 -3.7904239 0.12787776 34
13.838141 -14.938605 0.44645801 53
9.21984 -11.528846 0.23654048 31
2.6017478 -3.788398 0.046524096 58
13.887554 -14.991948 0.086315215 36
9.2160149 -11.524062 -0.024466362 32
2.6040716 -3.7917817 -0.034682855 36
11.837028 -12.778356 -0.23410095 0
9.2417803 -11.55628 -0.28618824 48
2.596525 -3.780793 -0.11577719 48
11.628593 -12.553346 -0.53267509 0
9.2246809 -11.534899 -0.54752302 49
2.6107953 -3.8015721 -0.19812752 43
11.568801 -12.488798 -0.83110988 0
9.2122135 -11.519309 -0.80786258 45
2.6151934 -3.807976 -0.28011394 44
11.567869 -12.487792 -1.1327122 0
9.1944132 -11.497051 -1.0668648 47
2.5939314 -3.7770166 -0.35899863 42
12.589965 -13.591168 -1.5605886 4
9.2235813 -11.533525 -1.3315282 53
2.5877092 -3.7679565 -0.43900684 42
10.600702 -11.443712 -1.5902803 2
9.215045 -11.52285 -1.5913804 37
8.3063755 -10.386614 -1.670218 2
7.2829533 -9.1068869 -1.6708074 2
6.5212193 -8.1543856 -1.6827034 3
5.9267297 -7.4110131 -1.6971606 3
5.4050794 -6.7587209 -1.7021221 4
4.9734054 -6.2189388 -1.7072725 5
4.5945177 -5.7451634 -1.7076907 4
4.302197 -5.3796339 -1.7206511 7
3.1679308 -3.9613035 -1.7449311 6
2.3503711 -2.9389951 -1.7541857 7
2.4230936 -3.0736799 1.0331564 19
3.3480318 -4.2469583 1.0450302 4
6.0625591 -7.6903205 1.3699911 22
5.8618174 -7.4356809 0.82204872 13
9.1183386 -11.566559 0.75771266 33
9.105402 -11.550148 0.49638262 36
2.5788541 -3.8118165 0.12798896 41
13.833308 -15.144094 0.44970211 63
9.0871315 -11.526973 0.23519468 27
2.5685124 -3.7965307 0.046402622 40
13.895858 -15.212571 0.087024793 41
9.0783806 -11.515872 -0.024313821 32
2.561847 -3.7866783 -0.034471743 41
11.636936 -12.739603 -0.23189701 0
9.1039305 -11.548282 -0.28440922 50
2.5633447 -3.788892 -0.11547437 41
11.473263 -12.560421 -0.52956367 0
9.0993834 -11.542514 -0.54485583 56
2.5685163 -3.7965362 -0.19692571 47
11.419358 -12.501409 -0.82662374 0
9.0771694 -11.514337 -0.80304998 48
2.5639348 -3.7897644 -0.27745077 46
11.407731 -12.48868 -1.1255416 0
9.0645266 -11.498298 -1.0610824 47
2.560796 -3.785125 -0.35806131 42
12.497464 -13.68167 -1.5609244 5
9.0935097 -11.535064 -1.3243444 53
2.5524163 -3.7727389 -0.4374772 47
10.544708 -11.54388 -1.5939314 2
9.0900583 -11.530684 -1.5836593 37
8.2312031 -10.441232 -1.6697196 2
7.2314544 -9.1730576 -1.6736441 2
6.4836898 -8.2245226 -1.6877947 3
5.8748465 -7.452208 -1.6971606 3
5.3650517 -6.8055367 -1.7044379 4
4.9274459 -6.2504363 -1.706434 4
4.5639458 -5.7893381 -1.7113087 4
4.2669377 -5.4125853 -1.7216206 6
3.1425402 -3.9862938 -1.7462324 7
2.3410182 -2.9695678 -1.7626355 7
2.3849647 -3.0691445 1.02601 18
5.1545715 -6.6332746 1.6233258 21
5.9722629 -7.6855383 1.361678 17
5.8660026 -7.5487952 0.8300063 7
8.9883432 -11.566849 0.75360245 34
8.9779377 -11.553457 0.49381909 34
2.5255716 -3.7898002 0.12665458 39
13.834302 -15.359156 0.45320925 58
8.9622641 -11.533288 0.23404114 25
2.537509 -3.8077133 0.046321642 42
13.880335 -15.410263 0.08759921 41
8.9560385 -11.525276 -0.024201073 33
2.5286942 -3.7944858 -0.034381267 42
11.480794 -12.746238 -0.23055315 0
8.9838238 -11.561032 -0.28317165 49
2.5257435 -3.7900579 -0.11496967 40
11.337132 -12.586741 -0.52732342 0
8.9719782 -11.545789 -0.54204041 54
2.528652 -3.7944224 -0.19589558 48
11.25159 -12.49177 -0.82077223 0
8.9598026 -11.530121 -0.79976863 24
2.5263443 -3.7909596 -0.27624026 43
11.242804 -12.482015 -1.1178397 0
8.9326248 -11.495146 -1.0550108 7
2.5232515 -3.7863185 -0.35649908 41
12.377636 -13.741932 -1.5579026 3
8.9638691 -11.535353 -1.3171605 52
2.5193915 -3.7805264 -0.43632996 41
10.487829 -11.643826 -1.5975826 2
8.9580917 -11.527919 -1.5746515 26
8.1751556 -10.52038 -1.6732086 2
7.1745262 -9.2326984 -1.6753461 2
6.4261136 -8.2695866 -1.6877947 3
5.8323412 -7.5054774 -1.6999774 3
5.322226 -6.8490243 -1.7059817 4
4.8884897 -6.2908607 -1.7081112 4
4.5353718 -5.8364434 -1.7158312 4
4.2290463 -5.4422421 -1.7216206 6
3.1169548 -4.0111222 -1.7475336 7
2.3202295 -2.9858389 -1.7626355 6
2.3728876 -3.0980005 1.0300937 20
5.110527 -6.672215 1.6240847 28
4.600841 -6.0067778 1.0585287 2
5.8519325 -7.6401811 0.83554196 6
8.8563652 -11.562716 0.74928677 31
8.8533077 -11.558724 0.49139047 39
2.494664 -3.8006539 0.12643218 35
13.838272 -15.580943 0.45689172 50
8.8474836 -11.551121 0.23314394 30
2.4889162 -3.7918973 0.045916729 44
13.883973 -15.6324 0.088308789 37
8.8704977 -11.581167 -0.024187809 24
2.4911678 -3.7953274 -0.034230471 39
11.287945 -12.70945 -0.22845672 0
8.8518286 -11.556793 -0.28154734 52
2.4860568 -3.7875409 -0.11436404 41
11.153406 -12.557969 -0.522843 0
8.85956 -11.566887 -0.54011405 60
2.4933286 -3.7986197 -0.19520883 48
11.103086 -12.501311 -0.81628609 1
8.8766642 -11.589217 -0.79954988 6
2.4866712 -3.7884769 -0.27478763 40
11.086478 -12.482613 -1.1109345 0
8.8958254 -11.614235 -1.060215 27
2.4880035 -3.7905068 -0.35524932 43
12.276103 -13.822048 -1.5572311 2
8.8492069 -11.55337 -1.3121318 26
2.4776428 -3.7747221 -0.43365309 43
10.427424 -11.740563 -1.6008281 2
8.8870697 -11.602804 -1.5763673 23
8.1304731 -10.615005 -1.6791897 2
7.1243443 -9.3014202 -1.6787502 2
6.3850365 -8.3361921 -1.6922497 2
5.7869864 -7.5553885 -1.70209 3
5.2742834 -6.8860121 -1.7059817 3
4.8563447 -6.3403592 -1.7123039 3
4.4945168 -5.8679628 -1.7158312 4
4.1909509 -5.4716325 -1.7216206 7
3.0819771 -4.0237756 -1.7436299 6
2.2861018 -2.9846947 -1.7524956 7
2.3325598 -3.0897975 1.0219264 18
5.0567231 -6.6983275 1.6218081 24
4.5086708 -5.9723568 1.0468904 4
7.4527502 -9.8721972 1.0739223 9
8.7850542 -11.637017 0.75010878 28
8.827796 -11.693635 0.49449372 27
2.457217 -3.801187 0.12587619 36
13.834546 -15.797511 0.46039885 61
8.8365088 -11.705175 0.23500243 23
2.4558697 -3.7991025 0.045795258 40
13.895723 -15.86737 0.089085951 41
8.8737812 -11.754548 -0.024419937 23
2.4494114 -3.7891121 -0.034019358 38
11.164686 -12.748829 -0.22775792 0
8.8094845 -11.669378 -0.28278491 47
2.4530425 -3.7947292 -0.11406122 41
10.983809 -12.542288 -0.51898485 0
8.8484344 -11.720973 -0.54441124 40
2.4580712 -3.8025086 -0.19452208 46
10.949736 -12.50338 -0.81140983 0
8.867732 -11.746535 -0.80611253 34
2.4536605 -3.7956853 -0.27406132 42
10.946475 -12.499656 -1.1056228 0
8.9058685 -11.797052 -1.0712017 35
2.4506567 -3.7910383 -0.35368708 41
10.979235 -12.537064 -1.4037911 0
8.8523445 -11.726153 -1.3247036 42
2.444746 -3.7818952 -0.43250588 40
10.363558 -11.834029 -1.6036679 2
8.8897161 -11.775656 -1.5913804 28
8.0466032 -10.658836 -1.6771959 2
7.0735483 -9.3698912 -1.6821542 2
6.3457179 -8.4057798 -1.6973411 3
5.7483335 -7.6144609 -1.7063154 3
5.2355404 -6.9351959 -1.7090695 4
4.8143187 -6.3772297 -1.7131424 3
4.4557886 -5.902307 -1.7167357 4
4.164341 -5.5162444 -1.7264674 7
3.0583689 -4.0512319 -1.7462324 6
2.2673934 -3.0034754 -1.7541857 6
2.3109319 -3.1060064 1.0219264 18
5.0004587 -6.7208629 1.6187723 29
4.4503131 -5.9814401 1.043011 6
7.333694 -9.8568459 1.0666567 8
8.7894421 -11.813443 0.75750715 28
8.8246927 -11.860823 0.49894619 26
2.4177368 -3.7980111 0.125209 33
13.838923 -16.026886 0.4642567 59
8.8429089 -11.885304 0.23737359 22
2.4078083 -3.7824142 0.045390349 38
13.897022 -16.094172 0.08981242 38
8.8726835 -11.925324 -0.024645433 24
2.4143069 -3.792623 -0.033898722 41
10.991766 -12.729588 -0.22603777 0
8.8137426 -11.846105 -0.28556946 38
2.4114594 -3.7881498 -0.11335465 36
10.87508 -12.594454 -0.51798916 0
8.8499031 -11.894706 -0.54959756 37
2.4207349 -3.8027205 -0.19366366 45
10.789072 -12.494847 -0.80594838 0
8.8713379 -11.923515 -0.81398773 31
2.4163816 -3.795882 -0.27285081 43
10.778086 -12.482124 -1.0973897 0
8.9090242 -11.974168 -1.0816101 28
2.417706 -3.7979629 -0.35274974 41
10.79506 -12.501782 -1.3913682 0
8.8487406 -11.893144 -1.3365569 47
2.4118693 -3.7887938 -0.43135864 41
10.296295 -11.924162 -1.606102 2
8.8880033 -11.945914 -1.6059644 27
8.0027924 -10.756146 -1.6836754 2
7.0126886 -9.4253988 -1.6832888 2
6.293951 -8.4593801 -1.6992503 3
5.6997347 -7.6607242 -1.7077239 3
5.1893382 -6.9747262 -1.7098414 4
4.7743492 -6.4169602 -1.7148194 3
4.4191256 -5.9395227 -1.7185447 4
4.1257286 -5.5451822 -1.7264674 7
3.0367846 -4.0815883 -1.750136 7
2.2485337 -3.0221403 -1.7558756 6
2.2891917 -3.1220641 1.0219264 18
4.948772 -6.7492747 1.6172545 28
4.3943915 -5.9931951 1.0396857 8
7.2411375 -9.8756676 1.0631969 8
8.7799797 -11.974384 0.76387793 27
8.8267736 -12.038203 0.50380343 23
2.3805447 -3.7978578 0.12465302 35
13.830392 -16.244909 0.46776384 69
8.8353958 -12.049962 0.23942435 23
2.3813431 -3.7991316 0.045390349 39
13.898417 -16.324808 0.090555795 41
8.8530741 -12.074073 -0.024824504 6
2.3750243 -3.7890508 -0.03371777 39
10.85855 -12.754241 -0.22512394 0
8.8112297 -12.017004 -0.28819931 35
2.378583 -3.7947283 -0.11305183 38
10.719502 -12.590919 -0.51475328 0
8.8493729 -12.069025 -0.55478382 35
2.3877602 -3.8093693 -0.19314858 46
10.654959 -12.515106 -0.80243748 0
8.8445606 -12.062462 -0.81923783 7
2.377099 -3.7923605 -0.27139819 40
10.641522 -12.499325 -1.0923437 0
2.3805428 -3.7978547 -0.35118753 43
10.64292 -12.500967 -1.3829743 0
8.855011 -12.076714 -1.3502063 24
2.3684423 -3.7785501 -0.42829937 42
10.228275 -12.013933 -1.6085361 2
8.8537712 -12.075023 -1.6149722 11
7.922811 -10.805353 -1.6826786 2
6.9677877 -9.5028658 -1.6883948 2
6.2324047 -8.4999294 -1.6986139 3
5.6624122 -7.7225571 -1.7126533 3
5.1474814 -7.0202804 -1.7121572 3
4.7317462 -6.453289 -1.7156579 4
4.3821602 -5.9765139 -1.7203537 4
4.0892096 -5.5769796 -1.7274368 7
3.0104523 -4.1057396 -1.7514372 7
2.2338119 -3.0465355 -1.7609456 6
2.2628102 -3.1316993 1.0198846 22
4.892334 -6.7709255 1.6142188 23
4.3292451 -5.9916177 1.0341438 10
7.1276746 -9.8646069 1.0566232 6
8.7803955 -12.151952 0.77127624 2
13.905147 -19.244539 0.80130917 35
2.3476729 -3.8041766 0.12431943 38
13.85034 -16.500341 0.47232312 65
13.927676 -19.275719 0.38105384 34
2.3463597 -3.8020487 0.045228384 39
13.889548 -16.547052 0.091248475 43
10.82308 -14.978999 -0.030640986 13
2.342212 -3.7953277 -0.03362729 40
10.702387 -12.750088 -0.22372633 0
2.3457327 -3.8010325 -0.11274901 37
10.569651 -12.591954 -0.51176631 0
2.3464162 -3.8021405 -0.19194677 44
10.500544 -12.509625 -0.79736614 0
9.1063309 -12.603042 -0.85161358 0
2.3463717 -3.8020682 -0.27091399 43
10.484719 -12.490774 -1.0851729 0
9.0377111 -12.508073 -1.1183288 2
2.3330276 -3.7804456 -0.34806308 45
10.496449 -12.504747 -1.375252 1
2.335732 -3.7848275 -0.42715213 42
10.164621 -12.109431 -1.6117816 3
8.9369583 -12.368631 -1.6458561 3
7.8402119 -10.85075 -1.6811833 2
2.7062471 -3.7454104 -0.66208225 7
6.1867914 -8.562438 -1.7024325 3
5.6083622 -7.761899 -1.7126533 1
2.7261672 -3.7729795 -0.91551781 4
2.7143683 -3.7566497 -0.99367291 19
4.347177 -6.0164351 -1.7230672 3
2.7183006 -3.7620921 -1.1593796 12
2.6981654 -3.7342253 -1.5848815 0
2.1976261 -3.0414855 -1.7491157 6
2.245378 -3.1537216 1.0219264 22
4.844945 -6.804915 1.6142188 29
4.2620363 -5.9861975 1.0280476 9
7.0216522 -9.8621855 1.0510876 7
12.550675 -17.627916 1.1132437 1
13.837697 -19.435589 0.80522197 42
2.3106771 -3.8033874 0.12376343 38
13.846991 -16.732193 0.47618097 50
13.878594 -19.493031 0.383425 30
2.3114522 -3.8046629 0.04506642 40
12.445028 -15.038113 0.082446314 10
10.678803 -14.998797 -0.030528238 11
2.3052745 -3.7944944 -0.033476498 40
9.5395622 -11.527254 -0.20109567 10
10.648988 -14.956921 -0.35510546 0
2.308758 -3.8002288 -0.11224432 42
9.5128641 -11.494993 -0.46447274 26
9.6653118 -13.57531 -0.61776012 0
2.3094404 -3.8013518 -0.19108833 47
9.5290747 -11.514582 -0.7296837 0
8.985693 -12.620758 -0.84855103 0
2.3094058 -3.8012948 -0.26970348 46
9.532095 -11.518231 -0.9948746 20
8.9339714 -12.548113 -1.1163049 2
2.3045082 -3.7932332 -0.34775063 46
9.5245438 -11.509107 -1.2584093 37
8.9443188 -12.562647 -1.3904358 0
2.30305 -3.7908332 -0.42600489 42
9.4988413 -11.478048 -1.51888 37
8.9011354 -12.501994 -1.6552929 2
7.752759 -10.889054 -1.6786911 0
2.6823297 -3.7674372 -0.66264957 15
2.6774967 -3.7606492 -0.74397892 14
2.6788182 -3.7625053 -0.82604539 1
2.6724443 -3.7535527 -0.90625453 1
2.6359022 -3.7022278 -0.97438639 1
2.6576169 -3.7327273 -1.0636888 1
2.6784649 -3.7620091 -1.1535633 1
2.6654487 -3.7437272 -1.5809779 12
2.1889555 -3.0744739 -1.7592555 11
2.2133014 -3.1527174 1.0168219 21
4.8042192 -6.843327 1.6157366 28
4.1949272 -5.9754262 1.0213971 10
2.6468859 -3.7703331 0.39995301 1
13.606371 -19.381474 1.2182589 18
13.834826 -19.706894 0.81264275 5
2.273082 -3.7980428 0.12309624 35
9.4387226 -11.560651 0.32721549 58
2.6771839 -3.8134906 0.074659891 1
2.2758982 -3.8027487 0.044863965 37
9.4257278 -11.544735 0.062949792 37
2.663734 -3.794332 -0.0076867752 23
2.271842 -3.7959714 -0.033355862 40
9.4072552 -11.522108 -0.19991307 37
2.6310694 -3.7478032 -0.088563658 0
2.2691295 -3.7914391 -0.11153774 42
9.385849 -11.495891 -0.46198362 39
2.6710963 -3.8048193 -0.17233269 2
2.2739174 -3.799439 -0.19022989 45
9.4095459 -11.524915 -0.72636783 30
2.6620462 -3.7919281 -0.2537559 21
2.2636404 -3.7822673 -0.26728243 43
9.3974409 -11.510088 -0.98876619 47
2.6498933 -3.774617 -0.33422649 40
2.2670131 -3.7879026 -0.34587598 43
9.390027 -11.501008 -1.2506869 35
2.6667101 -3.7985716 -0.41845977 6
2.2655897 -3.7855244 -0.42371044 41
9.3797255 -11.48839 -1.5119834 42
2.6506627 -3.7757127 -0.49757445 33
2.6498187 -3.7745104 -0.57916838 36
2.6504588 -3.7754223 -0.66094756 58
2.6275365 -3.7427711 -0.73697823 1
2.6357059 -3.7544076 -0.82041162 22
2.6474907 -3.7711947 -0.90625453 10
2.6517403 -3.7772477 -0.9894802 33
2.632802 -3.7502713 -1.0636888 18
2.6467662 -3.7701623 -1.1506552 3
2.6405606 -3.7613227 -1.5809779 50
2.1705997 -3.0918913 -1.7609456 6
2.1978374 -3.1776345 1.0198846 21
4.7451563 -6.8605494 1.6119421 4
2.6275229 -3.7988739 0.64620131 29
2.6159658 -3.7821648 0.39926106 28
2.6132493 -3.7782371 0.23633565 27
2.615216 -3.7810807 0.15516174 30
2.238394 -3.8000388 0.12265145 40
9.3001127 -11.554612 0.32519889 42
2.611819 -3.7761693 0.073570438 24
2.2432048 -3.8082058 0.044742495 42
9.2821999 -11.532357 0.062527426 45
2.6212521 -3.7898078 -0.0076403497 52
2.2412257 -3.8048463 -0.033295542 40
9.2764292 -11.525187 -0.19883798 37
2.6253157 -3.7956829 -0.089259788 26
2.2344871 -3.7934065 -0.11113399 44
9.265255 -11.511304 -0.45999232 41
2.6240041 -3.7937868 -0.17099908 36
2.2371957 -3.7980049 -0.18937145 48
9.2837667 -11.534304 -0.72285688 42
2.610517 -3.7742867 -0.2513496 43
2.2351539 -3.7945383 -0.26704034 47
9.2693081 -11.51634 -0.98372012 52
2.6166689 -3.7831812 -0.33335912 47
2.2344418 -3.7933292 -0.34493864 43
9.2670193 -11.513496 -1.244979 43
2.6151984 -3.7810552 -0.41450864 44
2.2310236 -3.7875264 -0.4221808 43
9.2468958 -11.488494 -1.503464 46
2.6219766 -3.7908552 -0.4971455 50
2.6053417 -3.7668045 -0.57518101 47
2.6150274 -3.7808082 -0.65867823 41
2.6148219 -3.7805109 -0.7407968 20
2.6116712 -3.7759554 -0.82111585 51
2.6121681 -3.776674 -0.90316677 45
2.6141815 -3.7795851 -0.98528749 37
2.6132054 -3.7781739 -1.0664022 40
2.604928 -3.7662065 -1.1438695 40
2.6056306 -3.7672222 -1.575773 35
2.1427743 -3.0980244 -1.7558756 7
2.1756005 -3.1929004 1.0198846 20
2.5874112 -3.7972717 0.88793421 26
2.5875547 -3.7974823 0.64287609 34
2.5872545 -3.7970417 0.39891505 33
2.5935576 -3.8062921 0.23695217 32
2.5932581 -3.8058527 0.15543158 32
2.2057943 -3.8051953 0.12231786 39
9.1695061 -11.556602 0.32344532 40
2.5853934 -3.7943106 0.073570438 25
2.2025218 -3.7995503 0.044459056 46
9.1591969 -11.54361 0.062240213 47
2.5857217 -3.7947924 -0.0076138205 34
2.2065842 -3.8065581 -0.033174906 45
9.1534796 -11.536404 -0.19792415 38
2.5874937 -3.7973928 -0.088873051 39
2.2019334 -3.7985351 -0.11083116 46
9.1250238 -11.50054 -0.45700535 44
2.5884521 -3.7987995 -0.17040636 65
2.2046134 -3.8031583 -0.18885639 51
9.1533499 -11.53624 -0.71895587 40
2.5818555 -3.7891183 -0.25113085 47
2.200599 -3.7962332 -0.26607192 47
9.1390676 -11.51824 -0.97840846 48
2.5789618 -3.7848716 -0.3319135 48
2.1999049 -3.7950358 -0.34368885 48
9.134388 -11.512341 -1.2379282 44
2.5887387 -3.7992201 -0.41450864 49
2.1905489 -3.7788959 -0.41950393 46
9.1145239 -11.487306 -1.4949447 45
2.5685756 -3.7696288 -0.49199817 55
2.5700428 -3.7717819 -0.57318729 48
2.5685029 -3.769522 -0.6535722 44
2.5839188 -3.7921462 -0.73952395 42
2.5741611 -3.7778261 -0.81759477 44
2.572479 -3.7753572 -0.89853519 44
2.5789227 -3.7848141 -0.9819333 39
2.5779901 -3.7834451 -1.0627842 36
2.5785723 -3.7842999 -1.1438695 43
2.5664885 -3.7665658 -1.5679657 30
2.1333432 -3.1308839 -1.7660154 7
2.1511016 -3.2048001 1.0188637 21
2.5498946 -3.7989385 0.8841396 29
2.543318 -3.7891407 0.63844246 29
2.5451369 -3.7918503 0.3964932 31
2.5513372 -3.8010879 0.23551361 33
2.5510297 -3.8006294 0.15448712 35
2.1712508 -3.8066089 0.12187307 44
9.0393295 -11.557336 0.32169175 44
2.5476966 -3.7956638 0.073250003 25
2.1680157 -3.8009369 0.044297092 47
9.0266352 -11.541106 0.061885424 48
2.5391028 -3.7828605 -0.0075541306 32
2.1641014 -3.7940745 -0.032933634 42
9.0160437 -11.527565 -0.1966878 39
2.5497758 -3.7987616 -0.088486306 48
2.1654551 -3.7964478 -0.11032647 42
9.0001774 -11.507277 -0.45476511 44
2.5574131 -3.8101399 -0.17011 51
2.1720688 -3.8080428 -0.18834133 49
9.0159779 -11.52748 -0.71446973 42
2.5464361 -3.793786 -0.25025582 50
2.1700864 -3.8045673 -0.26558772 45
9.0117149 -11.52203 -0.97336239 50
2.5413585 -3.7862213 -0.33046788 49
2.1654539 -3.7964458 -0.34243909 49
9.0046825 -11.513038 -1.2312131 35
2.5421698 -3.7874298 -0.41127592 55
2.1581957 -3.7837207 -0.41835669 49
8.9679127 -11.466026 -1.4839911 8
2.5444124 -3.790771 -0.49242711 56
2.5325887 -3.7731555 -0.57069522 44
2.5310907 -3.7709236 -0.6507355 44
2.5375741 -3.7805829 -0.73379612 46
2.5411408 -3.785897 -0.81548214 54
2.5394971 -3.7834482 -0.89621937 45
2.5415385 -3.7864892 -0.97774059 39
2.5276272 -3.7657635 -1.0528347 36
2.5369506 -3.779654 -1.1370838 46
2.5253747 -3.7624078 -1.5588572 30
2.1114337 -3.1457014 -1.7660154 7
2.1308084 -3.2229655 1.0198846 22
2.514647 -3.8035431 0.88110393 39
2.516803 -3.8068039 0.63844246 34
2.5032187 -3.7862568 0.39407134 32
2.5159261 -3.8054776 0.23469158 31
2.5134101 -3.801672 0.1538125 33
2.1367967 -3.8077264 0.12142827 39
8.9071484 -11.553652 0.3198505 41
2.5079012 -3.7933395 0.072865494 27
2.1296835 -3.7950509 0.044054147 45
8.9018822 -11.546821 0.061581317 47
2.5082197 -3.7938211 -0.0075408658 30
2.1297321 -3.7951374 -0.032812998 43
8.8938322 -11.536379 -0.19577397 39
2.5077543 -3.7931173 -0.087944873 46
2.1252005 -3.7870624 -0.1096199 39
8.8952112 -11.538168 -0.45352057 48
2.5153196 -3.8045602 -0.16907275 51
2.133697 -3.8022029 -0.1873112 45
8.9011297 -11.545845 -0.711739 10
2.5066721 -3.7914803 -0.2489433 41
2.1376116 -3.8091786 -0.2648614 46
8.872571 -11.508801 -0.96698838 30
2.506063 -3.7905591 -0.3293114 45
2.1310916 -3.79756 -0.3411893 43
8.8754139 -11.512488 -1.224498 11
2.5024841 -3.785146 -0.40912077 50
2.1278315 -3.7917504 -0.41759187 40
8.9216604 -11.572475 -1.4896708 20
2.5047264 -3.7885373 -0.48985347 51
2.4974301 -3.7775013 -0.56870151 44
2.4937844 -3.771987 -0.64789885 42
2.5089407 -3.7949119 -0.73315972 43
2.4820752 -3.7542763 -0.80491889 52
2.5000348 -3.7814412 -0.89158773 44
2.499943 -3.7813025 -0.97187078 36
2.4969778 -3.7768171 -1.0510257 37
2.4976604 -3.7778497 -1.1312675 42
2.4927886 -3.7704806 -1.5549536 33
2.089421 -3.1603651 -1.7660154 6
2.1251388 -3.2636909 1.0280519 23
2.4773171 -3.8045504 0.87730932 35
2.4793572 -3.8076837 0.63567144 33
2.4636776 -3.7836039 0.39199546 28
2.4696796 -3.7928212 0.232842 26
2.4759011 -3.8023758 0.15313789 30
2.0947027 -3.7945471 0.12053869 39
8.7996607 -11.580526 0.31888604 48
2.4638987 -3.7839429 0.072352804 27
2.093472 -3.7923179 0.043851692 40
8.8210564 -11.608685 0.061581317 33
2.4707594 -3.7944794 -0.0075077047 31
2.0935197 -3.7924044 -0.032662202 40
8.8517971 -11.64914 -0.19663404 25
2.4681187 -3.7904241 -0.087480783 47
2.0909801 -3.7878036 -0.10921614 39
8.884594 -11.692301 -0.45712981 31
2.4756105 -3.8019295 -0.16818367 52
2.1071007 -3.8170061 -0.1873112 48
8.8275633 -11.617247 -0.7123242 17
2.4670651 -3.788806 -0.24763077 42
2.0993891 -3.8030365 -0.26340878 43
8.8620386 -11.662618 -0.97469032 39
2.4577694 -3.7745299 -0.32642016 41
2.0929644 -3.7913983 -0.33931464 42
8.8912897 -11.701112 -1.2379282 32
2.4651287 -3.7858319 -0.40732479 47
2.0839899 -3.775141 -0.41415018 40
8.922513 -11.742204 -1.503464 35
2.4630258 -3.7826023 -0.48685086 51
2.4623349 -3.7815416 -0.56670779 42
2.4587479 -3.7760327 -0.64562947 41
2.4522183 -3.766005 -0.72424978 44
2.4558048 -3.771513 -0.80491889 52
2.4564414 -3.7724903 -0.88541222 38
2.4585445 -3.7757204 -0.96600097 35
2.4599192 -3.7778318 -1.0465033 35
2.4606371 -3.7789342 -1.1264206 44
2.456085 -3.7719433 -1.5484475 30
2.0593936 -3.1627226 -1.7592555 6
2.1210921 -3.3077481 1.03724 21
2.4400969 -3.805222 0.87351471 39
2.4313312 -3.7915523 0.6301294 34
2.4285996 -3.7872922 0.39061153 28
2.434516 -3.7965188 0.23201996 26
2.4406643 -3.8061066 0.1525982 29
2.0643449 -3.8020506 0.1203163 34
8.7977057 -11.747307 0.32177943 27
2.4266279 -3.7842176 0.072032377 25
2.0650373 -3.8033259 0.043811202 37
8.8309126 -11.791647 0.062223319 34
2.4355729 -3.798167 -0.0074811755 27
2.0593586 -3.7928672 -0.032541566 40
8.8493738 -11.816298 -0.19840795 26
2.4286444 -3.7873621 -0.087016694 41
2.0625772 -3.798795 -0.10911521 40
8.8866301 -11.866046 -0.4614858 32
2.4403775 -3.8056595 -0.16759095 50
2.0670536 -3.8070395 -0.18610939 46
8.8300657 -11.790517 -0.71915096 28
2.4319313 -3.7924881 -0.24675575 45
2.0651672 -3.803565 -0.26244035 39
8.8641396 -11.836014 -0.98398572 35
2.4292054 -3.7882373 -0.32613105 43
2.0626388 -3.7989085 -0.33868974 44
8.900177 -11.884133 -1.2506869 27
2.4300373 -3.7895346 -0.40588802 47
2.0556839 -3.786099 -0.41376778 41
8.9261932 -11.918874 -1.5180687 28
2.4258254 -3.7829661 -0.48470613 49
2.4273062 -3.7852752 -0.56471413 41
2.4216404 -3.7764397 -0.64279282 39
2.4258678 -3.7830322 -0.72424978 44
2.4251647 -3.7819362 -0.80351049 43
2.4258082 -3.7829397 -0.88386834 41
2.4236813 -3.7796223 -0.96264684 35
2.4124532 -3.7621131 -1.0374583 32
2.4237218 -3.7796857 -1.1215737 41
2.421526 -3.7762616 -1.5432426 31
2.0450921 -3.1892297 -1.7660154 6
2.0947244 -3.319937 1.0362191 18
2.3974679 -3.7997563 0.86820233 37
2.3992448 -3.8025723 0.62902099 35
2.3922663 -3.791512 0.38922763 30
2.3938313 -3.7939923 0.2307869 28
2.4020326 -3.8069906 0.15192358 29
2.0270085 -3.7994418 0.1197603 38
8.7849407 -11.911252 0.32449746 28
2.3902864 -3.7883742 0.071776032 23
2.0314538 -3.8077738 0.043689728 41
8.8249617 -11.965515 0.06279774 31
2.3991277 -3.8023868 -0.0074546468 30
2.0277345 -3.8008027 -0.032481249 42
8.8551054 -12.006386 -0.20050438 27
2.3944144 -3.7949166 -0.086784653 42
2.0233822 -3.7926443 -0.10850957 41
8.8753481 -12.033834 -0.46546841 27
2.3996172 -3.8031628 -0.16670187 48
2.0278046 -3.8009338 -0.18507926 43
8.8311415 -11.973894 -0.72636783 31
2.3934095 -3.793324 -0.24566197 44
2.0278335 -3.8009877 -0.26122984 45
8.8576841 -12.009883 -0.99301553 32
2.3928559 -3.7924464 -0.32497457 44
2.0234737 -3.7928159 -0.33681509 46
8.8814325 -12.042083 -1.2604238 19
2.3979421 -3.8005075 -0.40516964 47
2.0260007 -3.7975528 -0.41338536 45
8.8787384 -12.038429 -1.5249653 6
2.3937852 -3.7939196 -0.48384824 50
2.3867865 -3.7828271 -0.56172359 42
