# .PCD v0.7 - Point Cloud Data file format
VERSION 0.7
FIELDS x y z intensity
SIZE 4 4 4 4
TYPE F F F F
COUNT 1 1 1 1
WIDTH 1393
HEIGHT 1
VIEWPOINT 0 0 0 1 0 0 0
POINTS 1393
DATA ascii
0.32240489 4.9453988 -0.44683602 0
0.37213677 2.6818452 -0.26003888 2
-0.019251883 2.6263165 -0.26775128 1
0.15730096 2.4128542 -0.26079765 1
0.14277971 2.1901112 -0.27562833 2
0.13368843 2.0506594 -0.2944479 10
0.13127816 2.0136878 -0.32521233 18
0.13063891 2.0038824 -0.35915017 15
0.13809676 2.1182792 -0.53025138 1
0.12303288 1.8872128 -0.65060818 4
0.1165119 1.7871869 -0.83484364 35
0.28327313 3.9230595 1.0382609 1
0.39739892 5.5035915 1.0662799 11
0.65562016 9.0797062 1.2735597 5
0.91524023 12.675194 1.1033306 6
1.791785 24.814493 1.2799116 49
1.7934214 24.837156 0.84043694 56
7.8701439 53.94788 1.5161854 32
-0.01878283 53.839058 1.1804132 59
1.7936362 24.840132 0.39906192 47
-0.0042310567 12.127891 0.051224843 38
0.87633437 12.136385 -0.020175299 15
1.647346 11.292148 -0.086043641 3
-0.0018000064 5.1595335 -0.069343336 49
0.36780778 5.0937829 -0.098773614 46
1.6370552 11.221606 -0.28626338 7
-0.0017686116 5.0695438 -0.15781121 0
0.36359373 5.0354223 -0.18715064 0
0.73726875 5.0537939 -0.2194168 27
-0.0017506375 5.018023 -0.24498335 0
0.4993563 6.9156027 -0.37975883 0
0.92852581 6.3648138 -0.39002898 0
-0.0017432853 4.9969487 -0.33251014 0
0.35398471 4.9023466 -0.35619986 0
0.72821057 4.9917026 -0.39524218 0
-0.0017270694 4.9504671 -0.41700754 0
0.36065206 4.9946833 -0.45150551 0
0.39314944 2.6949418 -0.26156855 2
-0.00090377301 2.5905726 -0.26410013 1
0.1712777 2.372031 -0.2565082 1
0.15606512 2.1613514 -0.27213937 2
0.14743103 2.0417776 -0.29331321 10
0.14447981 2.000906 -0.32330307 19
0.14434175 1.9989941 -0.35844594 15
0.1389291 1.924034 -0.66362035 2
0.12872477 1.7827139 -0.83315367 35
0.30210122 3.8130338 1.0096755 1
0.54933935 6.9336014 1.344044 18
0.52187932 6.5870094 0.92441148 0
1.0033921 12.664523 1.1029845 5
1.9652935 24.805363 1.2801172 49
1.9689828 24.851929 0.84138137 59
1.6795559 10.975946 0.308797 9
0.34757179 53.821945 1.1800625 63
1.9670081 24.827005 0.39906192 41
1.671044 10.920321 0.11183599 9
0.0782663 12.119638 0.051191054 34
1.9672579 24.830156 -0.041299008 30
1.6583765 10.837538 -0.082665838 10
0.033318587 5.1594262 -0.069343336 51
0.40399164 5.0990648 -0.09892831 37
1.6506373 10.786963 -0.2754629 11
0.03276328 5.0734367 -0.15793566 0
0.39747566 5.0168223 -0.18655792 0
0.77071929 5.0366731 -0.21890174 55
0.032404758 5.0179186 -0.24498335 0
0.54730833 6.9079666 -0.37954009 0
0.031933609 4.9449611 -0.32905757 0
0.76424766 4.9943805 -0.39586708 0
0.031994242 4.95435 -0.41734332 0
0.3904781 4.9285011 -0.44575843 0
0.40954491 2.6763878 -0.26003888 2
0.016806165 2.6024566 -0.26531717 1
0.19097434 2.4104226 -0.26079765 1
0.17397144 2.195817 -0.27662519 2
0.16074343 2.028857 -0.29161119 11
0.15938084 2.0116587 -0.32521233 18
0.15736079 1.9861622 -0.35633329 13
0.21977971 2.7739956 -0.54730362 0
0.1676591 2.1161444 -0.53025138 1
0.1529554 1.9305584 -0.66622275 2
0.14059454 1.7745434 -0.82977378 37
0.34134367 3.9572542 1.0484699 2
0.59908122 6.9452486 1.3470796 19
0.912036 10.573385 1.4847112 23
1.0928093 12.669121 1.1040225 4
1.5860479 18.387318 0.94945276 3
1.5769347 18.281668 0.61929774 8
1.6884754 10.541505 0.29689881 10
0.72346956 53.830204 1.1803255 69
1.5697248 18.19808 0.29267961 6
1.6751244 10.458152 0.10722002 22
0.163036 12.130795 0.051241737 36
1.5527365 18.001133 -0.029957864 6
1.6757951 10.462339 -0.079891205 34
0.06933707 5.1590681 -0.069343336 42
0.44026706 5.1040893 -0.099083006 32
1.6734118 10.447459 -0.26708496 36
0.068396382 5.0890751 -0.1584335 0
0.43695542 5.0656972 -0.18848425 0
0.81028718 5.0587921 -0.22010355 31
0.067542747 5.0255599 -0.24537344 0
0.80386436 5.018693 -0.30819795 0
0.066562161 4.952599 -0.32958874 0
0.96560067 6.0284467 -0.4783524 0
0.066420376 4.9420495 -0.41633603 0
0.42658758 4.9455009 -0.44755441 0
0.42821947 2.6734636 -0.26003888 2
0.034813751 2.5903389 -0.26410013 1
0.20574683 2.3852575 -0.25822398 1
0.18827355 2.1826866 -0.27512991 2
0.17592433 2.03952 -0.29331321 10
0.17274213 2.0026283 -0.32393947 20
0.17257641 2.0007071 -0.35915017 11
0.23340636 2.7059188 -0.5341807 0
0.18009384 2.0878577 -0.52346569 1
0.16350387 1.8955276 -0.65451181 1
0.15453751 1.7915791 -0.83822358 37
0.36860275 3.9509239 1.047449 0
0.64718848 6.9369869 1.3463207 27
0.62373304 6.6855764 0.93937492 2
1.1830801 12.681022 1.1057525 3
1.6438713 17.620081 0.91040599 39
1.6454799 17.637323 0.5978449 43
1.7448689 10.426926 0.29400766 44
1.0433201 51.085068 1.120266 7
1.6458338 17.641119 0.28389984 41
1.746114 10.434366 0.10709855 47
0.24788363 12.137361 0.051275529 27
1.6449282 17.631411 -0.029360961 44
1.7468141 10.43855 -0.079800732 45
0.10543384 5.162457 -0.069397092 39
0.47774678 5.120801 -0.099469751 49
1.7469674 10.439466 -0.2671859 44
0.10351469 5.0684872 -0.15781121 0
0.47156715 5.0545635 -0.1881879 0
0.10205479 4.9970055 -0.24400809 0
0.83954054 5.0168967 -0.30844006 47
0.10154339 4.9719653 -0.33091664 0
0.82798201 4.9478254 -0.39305508 0
0.10108326 4.9494352 -0.41700754 0
0.4559221 4.8868694 -0.44252568 0
0.45213053 2.7018256 -0.26309818 2
0.052652963 2.5780969 -0.26288307 1
0.22202453 2.3798032 -0.25779504 1
0.20166352 2.1615608 -0.27263778 2
0.19052628 2.0421846 -0.29388055 10
0.18635195 1.9974414 -0.32330307 20
0.18507661 1.9837714 -0.35633329 10
0.25411433 2.7237625 -0.5380404 0
0.25213808 2.70258 -0.58194852 0
0.17919257 1.9207026 -0.66362035 1
0.16434702 1.7615782 -0.82470387 37
0.61974931 6.1763625 1.6385533 15
0.69952261 6.9713764 1.3539099 26
0.61581105 6.1371145 0.86289489 2
1.2719785 12.676417 1.1060984 0
1.7688358 17.62805 0.91143358 42
1.7697679 17.637339 0.59824967 41
1.8203692 10.430245 0.29445243 43
1.398618 51.028572 1.1192138 10
1.7709476 17.649096 0.28422028 36
1.8216673 10.437684 0.10726051 46
0.33261165 12.135334 0.051275529 47
1.7707729 17.647356 -0.029407388 44
1.8230842 10.445803 -0.079951525 47
0.14158133 5.1655936 -0.069450848 36
0.51428336 5.125299 -0.099624448 60
1.8218679 10.438833 -0.26748869 41
0.13867751 5.059648 -0.1575623 0
0.50285196 5.011375 -0.1867061 0
0.9440515 5.4091716 -0.23589881 0
0.1378134 5.028121 -0.2455685 0
0.87729013 5.0266461 -0.30940846 13
0.13668892 4.9870939 -0.33197898 0
0.50546598 5.0374265 -0.36689743 0
0.8686744 4.9772801 -0.39586708 0
0.1355249 4.9446249 -0.41667178 0
0.49480045 4.9311342 -0.44683602 0
0.4702971 2.6946809 -0.26271576 2
0.070759073 2.5816445 -0.26328877 1
0.24141254 2.4058945 -0.26079765 1
0.21516402 2.1443043 -0.2706441 2
0.20280202 2.0211055 -0.29104388 11
0.20029207 1.9960917 -0.32330307 21
0.19970755 1.9902666 -0.35774174 10
0.27704197 2.7609739 -0.54575974 0
0.26982787 2.689079 -0.5794329 0
0.1933524 1.9269317 -0.66622275 1
0.17845088 1.7784246 -0.83315367 37
0.66491789 6.1911125 1.6436578 18
0.74901342 6.974133 1.3554277 25
0.63706684 5.9317884 0.83463049 3
1.517894 14.133252 1.2341111 20
1.8918587 17.615273 0.91143358 43
1.8941362 17.636478 0.59865445 44
1.8945711 10.425151 0.29467484 45
1.3528602 39.331284 0.86284238 4
1.8953986 17.648232 0.28441253 39
1.8959216 10.432582 0.10734149 46
0.41746101 12.136714 0.051292423 41
1.8952122 17.646496 -0.029427284 39
1.8995409 10.452497 -0.080102317 44
0.17764024 5.1644793 -0.069450848 40
0.550906 5.1295366 -0.099779144 128
1.89613 10.433729 -0.26769057 43
0.17385943 5.0545607 -0.15743785 0
0.54593551 5.0832562 -0.18952151 1
1.8964151 10.435298 -0.45565897 97
0.17250066 5.0150576 -0.24498335 0
0.73443222 6.8383665 -0.37669629 0
0.91307503 5.0243273 -0.30965057 31
0.17095299 4.9700627 -0.33091664 0
0.91053128 5.0103297 -0.39899153 0
0.16908218 4.9156733 -0.41432151 0
0.52410901 4.8800273 -0.44252568 0
0.49408144 2.7187545 -0.26539263 2
0.088643692 2.5771105 -0.26288307 1
0.25692883 2.3922882 -0.25951082 1
0.23394302 2.1782651 -0.27512991 2
0.21859825 2.0353885 -0.29331321 10
0.21506582 2.0024977 -0.3245759 21
0.21401773 1.992739 -0.35844594 8
0.49329171 4.5930848 -0.90857035 0
0.28567094 2.6599088 -0.5735631 0
0.29416519 2.7389994 -0.63947952 0
0.29298487 2.7280095 -0.68535233 0
0.20760791 1.9330566 -0.66882521 1
0.18970075 1.7663213 -0.82808381 37
0.7072438 6.1786346 1.641616 16
0.79812998 6.9726357 1.3561866 26
0.67215556 5.8720961 0.82687163 2
1.587974 13.872884 1.2123142 17
2.0175149 17.625446 0.91266662 42
2.0185788 17.634741 0.59905922 41
1.9717598 10.435244 0.29534203 43
1.6204635 39.153061 0.85915989 56
2.0203786 17.650465 0.28466886 35
1.9701931 10.426952 0.10742247 47
0.5023458 12.1375 0.051309317 35
2.0188155 17.636808 -0.029433917 35
1.9761794 10.458633 -0.080253117 46
0.21352509 5.1591167 -0.069397092 38
0.58670318 5.1255655 -0.099779144 156
1.9726365 10.439883 -0.26819527 46
0.20930773 5.0572186 -0.1575623 0
0.58095509 5.0753493 -0.18937333 28
1.9721884 10.437511 -0.45634574 77
0.20007327 4.8340993 -0.23620607 0
0.78760523 6.8806896 -0.37932134 0
0.95257682 5.0413704 -0.31110319 17
0.20498595 4.9527974 -0.32985431 0
0.55896318 4.8832231 -0.35619986 0
0.94400668 4.9960141 -0.39836663 0
0.20487909 4.9502153 -0.41734332 0
0.56496072 4.9356194 -0.44791359 0
0.5093534 2.6956766 -0.26348057 2
0.10548112 2.5485971 -0.26004329 1
0.2727192 2.3825338 -0.25865293 2
0.24553354 2.1450341 -0.27114251 2
0.2319019 2.0259452 -0.29217854 11
0.23038784 2.012718 -0.32648519 20
0.22881992 1.9990203 -0.35985437 7
0.22897372 2.0003638 -0.3960039 0
0.30779177 2.6889353 -0.58027142 0
0.30220187 2.640101 -0.61686707 0
0.51547736 4.5033216 -1.132237 0
0.22109802 1.93156 -0.66882521 1
0.20243956 1.7685558 -0.82977378 33
0.74896139 6.1620293 1.6385533 16
0.84820986 6.9785895 1.3584634 4
1.2838321 10.562642 1.4885906 18
1.6641104 13.691357 1.1974372 28
2.1414778 17.618864 0.91307765 48
2.1450188 17.647999 0.60000372 41
2.0461023 10.429071 0.29556441 40
1.5505308 32.046803 0.70344317 42
2.1454821 17.65181 0.28492522 33
2.0483286 10.440419 0.10770591 48
0.58764851 12.145683 0.05136 37
2.145272 17.650082 -0.029480342 39
2.0522256 10.460282 -0.080373749 43
0.24953701 5.1575003 -0.069397092 38
0.6437034 5.2960267 -0.10318246 2
2.0493209 10.445477 -0.26869997 44
0.24441515 5.0516405 -0.15743785 0
0.61685562 5.0751381 -0.18952151 39
2.0473154 10.435254 -0.45686078 92
0.24096036 4.9802356 -0.24342294 0
0.83610392 6.8789887 -0.37954009 0
0.38653272 7.988966 -0.53222871 0
0.97655886 4.9775624 -0.39742929 7
0.94440252 4.8136601 -0.4711293 0
0.12327097 2.5477986 -0.26004329 1
0.29174486 2.4003112 -0.26079765 1
0.26241806 2.1590271 -0.27313623 2
0.24508439 2.0164154 -0.29104388 11
0.24205112 1.9914594 -0.32330307 20
0.24324512 2.0012829 -0.3605586 11
0.2400919 1.9753399 -0.39137226 5
0.2387826 1.9645677 -0.42430252 8
0.52513051 4.3204756 -1.0103234 0
0.54784012 4.507318 -1.1341757 0
0.24279213 1.997556 -0.69224709 0
0.21653114 1.7814953 -0.83653361 35
0.79492241 6.1796656 1.6446787 16
0.70700449 5.4961982 1.0708334 4
1.3600686 10.573068 1.4913616 27
1.7566022 13.65569 1.1953613 19
2.2654469 17.61141 0.91348869 44
2.2712321 17.656384 0.60081321 44
2.1236436 10.438043 0.29623163 42
1.7728932 32.011238 0.7029171 53
2.2676411 17.628468 0.28479704 37
2.1251531 10.445461 0.10790837 45
0.67331111 12.15726 0.05142758 35
2.2709913 17.65451 -0.029513502 38
2.1252017 10.4457 -0.080373749 42
0.2855368 5.1556325 -0.069397092 34
0.70056003 5.4460998 -0.10619904 0
2.1237879 10.438751 -0.26890185 41
0.2805604 5.0657792 -0.15793566 0
0.65125144 5.0627785 -0.18922515 12
2.1217101 10.428538 -0.45720416 86
0.27837399 5.0263019 -0.24576354 0
0.82856417 6.4411941 -0.35569578 0
1.1072494 5.4423051 -0.33676618 0
0.27477992 4.9614072 -0.33065107 0
1.0152599 4.9901619 -0.39899153 32
0.27375451 4.9428926 -0.41700754 0
0.62619364 4.867981 -0.44252568 0
0.97877872 4.8108511 -0.47151169 2
0.13995454 2.5270095 -0.25801486 1
0.30950972 2.4061048 -0.26165554 1
0.27596533 2.1453333 -0.27164096 2
0.25764003 2.0028737 -0.28934187 12
0.25544429 1.9858041 -0.32266665 21
0.25721067 1.9995359 -0.3605586 15
0.25287491 1.9658301 -0.38982841 22
0.25149393 1.9550945 -0.42262542 15
0.25005001 1.9438695 -0.4549621 8
0.24855159 1.9322209 -0.48662922 11
0.25624913 1.9920609 -0.69094586 0
0.22803785 1.7727487 -0.83315367 33
0.83752465 6.1701326 1.6436578 16
0.94556355 6.9660664 1.3584634 16
1.4365128 10.582942 1.4941326 21
1.8492132 13.623349 1.1936314 21
2.3904905 17.610996 0.91431069 46
2.3960538 17.651981 0.60121799 42
2.1972871 10.426874 0.29634282 41
1.5792338 25.312689 0.5560559 13
2.3933446 17.632023 0.28511748 37
2.1988487 10.434285 0.10794885 44
0.75841677 12.156255 0.051444475 25
2.3952627 17.646152 -0.029526768 36
2.2005486 10.442351 -0.080464229 46
0.32177171 5.1575055 -0.069450848 33
2.3899767 17.607212 -0.34365794 84
2.1999102 10.439322 -0.26930562 45
0.31840858 5.1036 -0.15918024 2
0.68819314 5.0699916 -0.18966968 36
2.1969352 10.425204 -0.45771924 83
0.4224208 6.7707558 -0.33119562 0
0.89392579 6.5856457 -0.36400849 0
2.2015164 10.446944 -0.64738518 51
1.053362 4.9985614 -0.40024129 29
0.31098557 4.9846206 -0.42070085 0
0.58047438 2.7545483 -0.27036396 1
0.1580884 2.5339141 -0.25882623 1
0.32416016 2.3881221 -0.25993976 1
0.29520634 2.1748164 -0.27562833 2
0.27321404 2.0127969 -0.29104388 11
0.26983264 1.9878857 -0.32330307 20
0.2690452 1.9820845 -0.35774174 20
0.26764855 1.9717952 -0.39137226 29
0.26566291 1.9571667 -0.42346397 32
0.26361457 1.9420764 -0.4549621 14
0.26255688 1.9342842 -0.4875986 19
0.25488725 1.8777813 -0.65190941 5
0.24089594 1.7747059 -0.83484364 36
0.88495517 6.1947651 1.6518251 17
0.9930616 6.95152 1.3569456 18
1.5092396 10.564812 1.4930242 24
1.5976878 11.183958 0.98085362 8
2.5207233 17.645288 0.91698229 6
6.0781474 42.547577 1.4505599 25
2.2734334 10.426908 0.29678759 43
1.7213008 24.802366 0.5450961 56
2.275048 10.434313 0.10811082 45
0.8535108 12.298307 0.052069582 5
2.2785082 10.450183 -0.080645181 46
0.35832357 5.1631136 -0.069558352 36
2.5184948 17.629688 -0.3444314 78
2.279551 10.454966 -0.27011311 45
0.35264635 5.0813103 -0.15855795 6
0.72470188 5.072978 -0.18996604 28
2.2747705 10.43304 -0.45874935 57
0.34520569 4.9740973 -0.24342294 0
0.70886391 4.9621105 -0.27453765 0
2.2777977 10.446924 -0.64835358 48
0.34319621 4.9451427 -0.32985431 0
0.92754269 6.4928818 -0.47531864 0
1.0916307 5.0066705 -0.40149108 4
0.34522501 4.9743752 -0.42002934 0
1.0492462 4.8122778 -0.47304136 6
0.17439692 2.5128996 -0.25679782 1
0.34251159 2.3976119 -0.26122659 1
0.30645323 2.1452 -0.27213937 2
0.28781924 2.0147603 -0.29161119 12
0.28426251 1.9898629 -0.32393947 19
0.28231925 1.9762601 -0.35703751 21
0.28307277 1.9815347 -0.39368808 26
0.27821371 1.9475207 -0.42178687 28
0.27716628 1.9401888 -0.4549621 33
0.27440774 1.9208788 -0.48469046 38
0.26692051 1.8684673 -0.64930695 22
0.25327975 1.7729809 -0.83484364 34
0.92760724 6.1846113 1.6508042 17
1.0491407 6.9949083 1.3668115 4
1.5306635 10.205352 1.4437002 19
1.6077523 10.719325 0.94106591 9
1.6661814 11.108888 0.57789207 10
1.6543901 11.030272 0.37643588 9
2.3496873 10.426385 0.29723239 43
1.8971531 24.825632 0.54588521 66
1.6480008 10.987672 0.17803019 8
2.3531132 10.441586 0.10835376 51
1.8985065 24.843342 0.10523732 59
1.636344 10.909953 -0.01829174 8
2.3549256 10.449629 -0.080765821 48
0.39527413 5.1724501 -0.06971962 54
1.686462 11.244104 -0.21990086 7
2.3542426 10.446598 -0.27031499 43
0.38841635 5.0827112 -0.15868241 13
0.76247162 5.0836067 -0.19055876 13
2.3528223 10.440296 -0.45977947 56
0.37992275 4.9715662 -0.24342294 0
0.75533688 5.0360374 -0.27891275 0
2.3533082 10.442452 -0.64907986 48
0.38105646 4.9864016 -0.33277574 0
0.77283478 5.1527009 -0.37759498 0
1.187049 5.2673521 -0.42304975 0
0.37964028 4.9678698 -0.41969359 0
1.1187061 4.9640903 -0.48872015 10
0.19345196 2.5314598 -0.25882623 1
0.36455062 2.4305587 -0.26508707 1
0.32259935 2.1508582 -0.27313623 2
0.30246511 2.0166175 -0.29217854 12
0.29639009 1.9761137 -0.32203022 20
0.29961345 1.9976047 -0.3612628 18
0.29573518 1.9717473 -0.3921442 21
0.29296333 1.9532666 -0.42346397 24
0.2918604 1.9459131 -0.45677108 30
0.29068935 1.9381055 -0.48953736 39
0.27883619 1.8590771 -0.64670455 49
0.26780227 1.785511 -0.84160352 33
0.96895993 6.166523 1.6477414 13
0.67120558 4.271595 0.83556885 4
1.54038 9.8030758 1.3882798 19
1.6380095 10.424397 0.91615534 35
1.6761049 10.666839 0.55549151 10
1.6674376 10.611679 0.36253878 10
2.4260442 10.425303 0.29767719 45
2.0710864 24.819756 0.54606056 65
1.6588603 10.557093 0.17123711 10
2.4286709 10.436591 0.10847524 47
2.0725634 24.837454 0.10527111 77
1.6416856 10.447792 -0.017535664 18
2.4305394 10.444621 -0.080856293 42
0.43137473 5.1695647 -0.06971962 53
1.7015979 10.829078 -0.21201134 14
2.4307408 10.445487 -0.27071875 45
0.42322573 5.0719075 -0.1584335 19
1.6622779 10.578842 -0.39697272 0
2.4301803 10.443077 -0.46063793 55
0.41860804 5.0165696 -0.24576354 0
0.78985631 5.0266962 -0.278694 32
2.4288673 10.437435 -0.6498062 46
0.41652232 4.9915743 -0.33330691 0
1.0026249 6.3807688 -0.46809056 0
1.2626579 5.4259486 -0.43648484 0
0.40934128 4.9055176 -0.41465726 0
0.78537077 4.9981494 -0.45617503 0
1.1497246 4.9406471 -0.48719051 28
0.21145093 2.5340133 -0.25923193 1
0.37348482 2.3768811 -0.25951082 1
0.34007147 2.1642365 -0.27512991 2
0.31530696 2.0066335 -0.29104388 12
0.3132436 1.9935023 -0.32521233 18
0.31294072 1.9915746 -0.3605586 16
0.30766553 1.9580029 -0.38982841 17
0.30841377 1.962765 -0.42597961 27
0.30664784 1.9515264 -0.45858008 26
0.30300787 1.9283614 -0.4875986 37
0.2906338 1.849612 -0.6441021 46
0.27913532 1.7764349 -0.83822358 33
1.0126134 6.163424 1.6487623 16
0.68827629 4.1892972 0.82039046 4
1.5336397 9.3347292 1.3234379 18
1.7146214 10.436302 0.91823119 33
1.7149128 10.438075 0.5441885 33
1.7129627 10.426207 0.35660216 38
2.5034342 10.427553 0.29823318 43
1.6335022 18.053896 0.39744583 8
1.7169602 10.450538 0.16969906 27
2.5061412 10.438828 0.10867769 47
1.6097307 17.791166 0.075451896 14
1.7158812 10.44397 -0.017548928 37
2.5080657 10.446845 -0.081007093 45
0.46673346 5.1584606 -0.069612108 39
1.7149144 10.438086 -0.20458591 39
2.5064049 10.439927 -0.27102157 42
0.45898393 5.0728106 -0.15855795 17
0.89558709 5.4511261 -0.20478399 0
2.5048928 10.433629 -0.46098128 52
0.45469981 5.0254617 -0.24634869 0
0.8262248 5.0289416 -0.2791315 15
2.5054028 10.435753 -0.6507746 49
0.45135963 4.9885449 -0.33330691 0
1.0523206 6.405108 -0.47040355 0
2.5079212 10.446243 -0.84172529 35
0.44645137 4.9342976 -0.41734332 0
1.190695 4.9596014 -0.48986739 9
0.22626768 2.5007699 -0.25598645 1
0.39200357 2.3859887 -0.26079765 1
0.35710254 2.1735585 -0.27662519 2
0.33380163 2.031734 -0.29501522 11
0.32907382 2.0029573 -0.32712162 18
0.32747513 1.9932268 -0.3612628 21
0.32259995 1.9635532 -0.39137226 27
0.32401106 1.9721421 -0.42849523 21
0.31836942 1.9378035 -0.45586661 30
0.31709203 1.9300286 -0.48856798 37
0.30599219 1.8624676 -0.64930695 43
0.28976697 1.7637104 -0.83315367 33
1.0536563 6.1447692 1.6456996 16
0.7048949 4.1108437 0.80597103 3
1.5525748 9.054389 1.285198 23
1.7894585 10.43586 0.91926914 35
1.7890922 10.433723 0.54459953 30
1.7884116 10.429754 0.35714185 38
2.5886576 10.460279 0.29967874 14
1.7195216 17.632095 0.38841495 50
1.7912281 10.446179 0.16982722 26
2.5847211 10.444373 0.10892064 3
1.7199194 17.636175 0.074843682 56
1.7928076 10.455391 -0.017588722 37
9.04673 36.556141 -0.28394705 19
0.50312287 5.1590571 -0.069665864 10
1.7877436 10.425858 -0.20458591 55
0.49438739 5.0694828 -0.15855795 7
1.7902282 10.440349 -0.39267552 56
2.5815117 10.431405 -0.46166804 35
0.48395607 4.9625192 -0.24342294 0
0.86401302 5.0387974 -0.28000653 29
2.5829921 10.437387 -0.65198511 5
0.486175 4.9852724 -0.33330691 0
0.85562783 4.9898963 -0.36689743 0
2.5807879 10.42848 -0.84172529 14
0.48514378 4.9746981 -0.4210366 0
1.0079162 5.8780198 -0.5377118 0
0.24487947 2.5110111 -0.25720349 1
0.40394634 2.3557558 -0.25779504 1
0.36690199 2.1397188 -0.27263778 2
0.34463161 2.009841 -0.29217854 12
0.34171411 1.9928267 -0.32584876 18
0.3427133 1.9986538 -0.36267126 20
0.33696344 1.9651215 -0.3921442 26
0.33644921 1.9621224 -0.42681813 27
0.33188996 1.9355336 -0.45586661 23
0.32990247 1.9239428 -0.4875986 30
0.31515157 1.8379177 -0.64149964 44
0.30574915 1.7830843 -0.84329349 32
1.0951684 6.1296487 1.6436578 11
0.98500967 5.5130916 1.0822172 0
1.5690663 8.7820511 1.2480663 21
1.8643731 10.434881 0.9203071 33
1.8639969 10.432775 0.54521608 32
1.8625872 10.424886 0.35741168 37
10.177364 39.927391 1.145896 42
1.8446535 17.639547 0.38885334 49
1.8669257 10.449168 0.17008357 27
9.3153372 36.545521 0.38178912 9
1.8446643 17.639652 0.074911267 55
1.8685699 10.45837 -0.017615251 36
8.3671007 32.825443 -0.25541663 1
1.8461782 17.654127 -0.23856257 12
1.8625958 10.424934 -0.20481797 55
8.3468962 32.746178 -0.85303658 8
0.5310142 5.077837 -0.15893133 4
1.8665867 10.447271 -0.3934164 54
0.53437924 5.1100154 -0.25083485 0
0.90197903 5.0483694 -0.28088155 13
5.4023194 21.194143 -1.3262438 1
0.50560743 4.8348846 -0.32348031 0
0.89395118 5.0034375 -0.36834306 0
0.51737422 4.9474044 -0.41902208 0
1.372925 5.3861995 -0.53384453 1
0.26157573 2.5013247 -0.25639212 1
0.42737734 2.3920276 -0.26208448 1
0.38113293 2.133198 -0.27213937 2
0.35865444 2.0073862 -0.29217854 12
0.35631284 1.9942801 -0.32648519 17
0.35458046 1.9845841 -0.3605586 15
0.35136458 1.9665848 -0.39291614 25
0.34738749 1.9443251 -0.42346397 26
0.34539434 1.9331695 -0.45586661 33
0.34537363 1.9330536 -0.49050674 39
0.33196646 1.8580137 -0.64930695 34
0.31563926 1.7666305 -0.83653361 33
1.2919027 6.9501719 1.3660526 19
1.5912443 8.5605688 1.2181393 16
1.9386327 10.429447 0.92099905 33
1.9389753 10.431291 0.54583257 33
1.9404347 10.439141 0.35835615 37
8.4712257 32.29039 0.92839253 29
1.9686425 17.63419 0.3890287 47
1.943483 10.455541 0.17040399 27
8.4608707 32.250919 0.33753252 47
1.9682103 17.630318 0.074928157 53
1.9437299 10.456868 -0.017635148 34
8.4590349 32.243919 -0.25134516 19
1.9693815 17.640808 -0.23856257 41
1.9382529 10.427404 -0.20512736 56
8.4687576 32.280983 -0.84243798 33
0.56556386 5.0660596 -0.15868241 18
1.9416679 10.445776 -0.39386097 55
7.0956326 27.046942 -1.2012984 0
0.57004058 5.1061602 -0.25083485 0
5.5278606 21.07095 -1.3209175 1
0.55838978 5.0017977 -0.33490041 0
0.92958879 5.0009975 -0.36863217 18
4.5273771 17.257336 -1.3978764 3
0.55632299 4.9832845 -0.42237964 0
0.89986736 4.8411021 -0.44396248 1
1.5772071 6.0119557 -0.59694225 2
0.2799148 2.5073473 -0.25720349 1
0.43970561 2.3655262 -0.25951082 1
0.39674139 2.1343875 -0.27263778 2
0.374107 2.012619 -0.29331321 12
0.37167007 1.9995089 -0.32775801 17
0.36986586 1.9898027 -0.36196703 11
0.36580253 1.9679427 -0.39368808 18
0.36238238 1.949543 -0.42514107 17
0.36030602 1.9383727 -0.45767558 31
0.35744196 1.9229646 -0.48856798 39
0.34700337 1.8668071 -0.65321064 31
0.32862744 1.7679484 -0.83822358 32
0.75605273 3.9150851 1.0525535 2
1.3426262 6.9525518 1.3683293 22
1.6141641 8.3586626 1.1909833 18
2.0136631 10.427397 0.92203701 32
2.0147815 10.433188 0.54665464 33
2.0162978 10.441041 0.35889584 35
8.690197 32.207302 0.92772537 61
2.0917032 17.620016 0.3890287 50
2.0156703 10.437791 0.17033991 25
8.6962376 32.229687 0.33793741 64
2.0936017 17.636009 0.075012632 54
2.01896 10.454826 -0.017655045 36
8.7016449 32.249729 -0.25185785 57
2.0948458 17.64649 -0.23883134 39
2.0094855 10.405765 -0.20497265 113
8.708497 32.275124 -0.84385115 60
0.60186011 5.0699282 -0.15893133 47
2.016819 10.44374 -0.3943055 56
7.2447214 26.85013 -1.1947743 0
0.59484166 5.0108061 -0.24634869 0
1.0465931 5.4195971 -0.30231956 0
5.6581855 20.970169 -1.3170439 1
0.5937655 5.0017409 -0.33516598 0
0.96599227 5.0022197 -0.36921042 29
4.6467061 17.221458 -1.3975639 2
0.58452082 4.9238663 -0.41767907 0
0.93137634 4.8229675 -0.44288489 12
1.5403091 5.7086391 -0.56787908 1
0.29365954 2.4737189 -0.25395802 1
0.45771739 2.3702083 -0.2603687 1
0.41765264 2.16274 -0.27662519 2
0.38814852 2.0099583 -0.29331321 12
0.3833738 1.9852333 -0.32584876 18
0.38225502 1.97944 -0.3605586 3
0.38771832 2.0077305 -0.40217939 1
0.38265809 1.9815271 -0.43268794 10
0.37530714 1.9434615 -0.45948458 23
0.37012213 1.9166119 -0.4875986 35
0.35931039 1.8606251 -0.65190941 49
0.34508649 1.7869692 -0.8483634 29
0.78716558 3.9286723 1.0576581 7
1.3926741 6.9507103 1.3698472 27
1.6413484 8.1918211 1.1688153 18
2.0918906 10.440436 0.92445886 35
2.0883539 10.422786 0.54686016 32
2.0930672 10.446309 0.35957047 36
8.9329967 32.211346 0.92961574 66
2.2171578 17.624821 0.38946709 48
2.0947759 10.454837 0.1708526 29
8.9381313 32.229858 0.33858529 78
2.2181699 17.632868 0.075063318 55
2.0950418 10.456164 -0.017681573 35
8.946887 32.261433 -0.25243089 60
2.2194872 17.643339 -0.23899262 41
2.0907245 10.434617 -0.20582348 64
8.9507036 32.275192 -0.8454662 53
0.64023399 5.0894032 -0.15967807 23
2.0943918 10.452921 -0.39519456 54
7.4181089 26.748835 -1.1925423 1
0.622329 4.9470716 -0.24342294 0
2.0919094 10.440531 -0.58320111 53
5.8033786 20.926306 -1.3168018 1
0.62518239 4.9697537 -0.33330691 0
1.006377 5.0227365 -0.37123427 27
4.7625575 17.173227 -1.3963141 1
0.62783623 4.99085 -0.42372265 0
0.96972007 4.8397851 -0.44504005 18
1.5577798 5.6171722 -0.55984843 1
0.31340545 2.4913497 -0.25598645 1
0.47269064 2.3591561 -0.25951082 1
0.43352082 2.1636631 -0.2771236 2
0.40294895 2.0110817 -0.29388055 12
0.40032718 1.9979968 -0.32839444 17
0.39683825 1.9805838 -0.3612628 3
0.96460348 4.8142486 -0.96569371 0
0.94049287 4.6939149 -1.026376 1
0.38656932 1.9293326 -0.45677108 16
0.38578069 1.9253966 -0.49050674 21
0.36931875 1.8432364 -0.64670455 48
0.35612884 1.7774068 -0.84498346 27
0.81535983 3.926868 1.058679 8
1.4419633 6.9446635 1.3706061 26
1.6807801 8.0948324 1.1566228 18
2.1663473 10.433381 0.92515081 31
2.165128 10.427509 0.54788768 34
2.1683829 10.443185 0.35997522 36
9.1751823 32.209728 0.93139488 16
2.3422549 17.624771 0.3898178 48
2.1701522 10.451707 0.17104486 28
10.426353 36.601997 0.38527134 13
2.3438506 17.63678 0.075147793 57
2.1704278 10.453033 -0.017701469 34
10.423304 36.591293 -0.28687248 8
2.3447137 17.643274 -0.23920763 38
2.1675858 10.439346 -0.20621023 55
9.3368435 32.777245 -0.86030424 10
0.67574888 5.0848098 -0.15967807 13
2.1705663 10.4537 -0.3957873 56
7.5740132 26.588781 -1.1877351 1
0.66000867 4.9663692 -0.24459325 0
2.1688066 10.445226 -0.58429486 51
5.9340158 20.831524 -1.3134123 1
0.66512018 5.0048323 -0.33596274 0
1.0422287 5.019495 -0.37152341 3
4.8692222 17.093538 -1.3925648 1
0.66423869 4.998199 -0.42472991 0
1.0034844 4.8328977 -0.44504005 19
1.5325985 5.380229 -0.53728622 1
0.32974216 2.4812117 -0.25517508 1
0.49965966 2.4064193 -0.26508707 1
0.44700167 2.152812 -0.27612677 2
0.41858903 2.0159736 -0.29501522 12
0.41346312 1.9912866 -0.32775801 17
0.4098551 1.9739099 -0.3605586 3
0.99419999 4.7881832 -0.96183401 1
1.0002741 4.8174362 -1.0548865 1
0.90224391 4.3453116 -1.0302223 0
0.40000197 1.9264562 -0.49147612 4
0.38294685 1.8443167 -0.64800572 44
0.37073991 1.7855266 -0.85005337 27
0.84194171 3.9172988 1.0576581 9
1.4937116 6.9497862 1.3736417 26
1.7280943 8.0402975 1.1505265 17
2.2458317 10.449172 0.92791867 32
2.24123 10.427762 0.54870975 34
2.2429166 10.43561 0.36024508 35
11.683568 39.954685 1.1576829 39
2.4663496 17.615911 0.38999316 46
2.2472675 10.455853 0.17136528 27
11.686363 39.964245 0.42151073 44
2.4696932 17.639793 0.075232267 51
2.2483933 10.461091 -0.017741263 37
10.702079 36.598255 -0.28750581 10
2.4717104 17.654202 -0.23958391 29
2.2429338 10.435689 -0.20644227 56
8.0873613 27.656618 -0.7273674 3
0.72786129 5.1987519 -0.16341177 1
2.2443333 10.442201 -0.39593548 52
7.7325325 26.443199 -1.1836145 1
0.70297337 5.0209899 -0.247519 0
2.2433529 10.437639 -0.58473235 54
6.0725775 20.766596 -1.3119597 1
0.68510234 4.8933463 -0.32879198 0
1.1317366 5.2656269 -0.3903164 0
4.9761262 17.017025 -1.3891279 1
0.68972093 4.9263344 -0.41902208 0
1.0413851 4.8452482 -0.44683602 19
1.5868849 5.426723 -0.54302239 1
0.34705606 2.4788494 -0.25517508 1
0.51644731 2.4028723 -0.26508707 1
0.46035212 2.1418786 -0.27512991 2
0.43182078 2.009131 -0.2944479 12
0.42984417 1.9999343 -0.3296673 17
0.42941719 1.9979477 -0.36548811 3
1.0358504 4.8194971 -0.96955341 1
1.0371686 4.8256307 -1.0582407 1
0.92928261 4.3236694 -1.0266043 0
0.68417603 3.1832633 -0.81331056 0
0.39581317 1.8415983 -0.64800572 40
0.37786332 1.7580832 -0.83822358 30
0.86675167 3.8999991 1.0545954 6
1.5464538 6.9583583 1.3774364 26
1.7919186 8.0628414 1.1555144 16
2.3195899 10.437129 0.92826462 33
2.3183076 10.431358 0.54973727 31
2.3174505 10.427502 0.36051491 33
11.982899 39.941082 1.1596845 40
2.321943 10.447717 0.17149346 27
11.994963 39.981293 0.42256349 44
1.6646667 11.314091 0.048302054 2
2.3231056 10.452948 -0.017754527 35
8.4067802 28.021259 -0.22058296 0
1.6546338 11.245901 -0.15277036 5
2.3174686 10.427584 -0.20659697 81
8.1584396 27.193495 -0.71666783 4
0.79265422 5.387362 -0.16951016 0
2.3215144 10.445787 -0.39667636 53
7.8997254 26.331156 -1.1810392 1
0.73859066 5.0199127 -0.24771406 31
2.3222318 10.449016 -0.58626366 51
6.1979022 20.658684 -1.3078439 1
0.73609567 5.0029554 -0.33649391 0
1.2082844 5.4367452 -0.40361607 0
5.092514 16.974234 -1.388503 2
0.72699714 4.9411163 -0.42070085 0
1.0924717 4.9156394 -0.45401987 41
1.6430384 5.476532 -0.54914093 1
0.36667013 2.4921141 -0.25679782 1
0.52544457 2.3642681 -0.26122659 1
0.47271085 2.1269896 -0.27363464 2
0.44497749 2.0022018 -0.29388055 12
0.4412255 1.9853196 -0.32775801 17
0.44164646 1.9872137 -0.36407968 3
1.0669169 4.8006544 -0.96723759 1
1.071681 4.8220901 -1.0590792 1
0.96113521 4.3246837 -1.0284133 0
0.70469874 3.1708324 -0.8113718 1
0.41276321 1.8572519 -0.65451181 23
0.39327395 1.7695588 -0.84498346 29
0.70183885 3.0570331 0.82795435 2
1.5730245 6.8516984 1.3584634 24
1.8419589 8.0231085 1.1516349 16
2.3959644 10.436216 0.92964858 35
2.3946505 10.430494 0.55055928 32
2.3964527 10.438343 0.36145937 37
12.294366 39.963463 1.162798 40
1.6865046 10.932016 0.24251823 10
2.3984044 10.446845 0.1717498 25
12.299664 39.980686 0.42345428 53
1.6746976 10.855482 0.046392947 9
2.4031842 10.467665 -0.017807586 32
8.4410696 27.438126 -0.21645118 0
1.6599257 10.75973 -0.14631981 9
2.3928945 10.422845 -0.20682901 92
8.3057575 26.998287 -0.71303403 182
1.648909 10.688319 -0.33665562 11
2.3979602 10.444909 -0.39726907 55
8.0622063 26.20661 -1.1779488 1
0.7754454 5.0264797 -0.2482992 8
2.3978035 10.444227 -0.5869199 52
6.3454967 20.62636 -1.3085703 1
0.98277223 6.3703837 -0.42891684 0
2.3960087 10.43641 -0.77600688 49
5.1956477 16.888718 -1.3844413 2
0.76025921 4.9280419 -0.42002934 0
1.1401337 4.966135 -0.45940778 55
1.6835729 5.4725394 -0.54990578 1
0.38405928 2.4894934 -0.25679782 1
0.54994631 2.3954275 -0.26508707 1
0.49198869 2.1429787 -0.27612677 2
0.45983055 2.0029058 -0.2944479 11
0.45419118 1.9783422 -0.32712162 17
0.4537468 1.9764066 -0.36267126 3
1.1039184 4.8083901 -0.97032535 1
1.1035688 4.8068671 -1.0574021 1
0.73029137 3.1809649 -0.81524932 1
0.42571911 1.8543251 -0.65451181 4
0.4056181 1.7667702 -0.84498346 28
0.70622152 2.9805555 0.80855715 3
1.5827894 6.6800451 1.3265889 22
1.8924456 7.9869256 1.1483097 17
2.4706016 10.426991 0.93034053 25
2.4729364 10.436844 0.55179238 30
2.4747975 10.444699 0.36226892 36
12.604322 39.975803 1.1656892 40
1.6926796 10.485704 0.23287362 14
2.4768109 10.453197 0.17213431 27
12.608549 39.989208 0.42446658 54
1.6905216 10.472335 0.044804845 32
2.4798923 10.466201 -0.017834114 34
8.5458155 27.103865 -0.21427974 2
1.6859221 10.443843 -0.14218071 31
2.4692891 10.421452 -0.2071384 54
8.4820127 26.901506 -0.71202463 135
1.6878067 10.455517 -0.32968605 40
2.4745069 10.443473 -0.39786181 55
8.2425613 26.142065 -1.1776055 1
0.81179112 5.028832 -0.24868931 47
2.4761844 10.450552 -0.58823246 52
6.4809356 20.554903 -1.3068755 1
0.80015171 4.9567289 -0.33410364 0
2.4761684 10.450484 -0.77831984 52
5.3062301 16.829212 -1.3825666 1
1.1793685 4.977437 -0.46120372 33
1.7384995 5.5138159 -0.55525953 1
0.40333229 2.4985371 -0.25801486 1
0.56207138 2.3721805 -0.26294234 1
0.51974809 2.1935582 -0.28310469 2
0.47562799 2.0073526 -0.29558256 11
0.47345439 1.9981791 -0.33094013 17
0.46844143 1.9770223 -0.36337546 3
1.1365553 4.7967472 -0.96955341 1
1.1443139 4.8294916 -1.0641105 1
0.75427026 3.1833415 -0.81718808 1
0.74300885 3.1358135 -1.1086364 0
0.41877842 1.7674232 -0.84667343 29
0.72058666 2.9492536 0.80141079 2
1.5790501 6.4628158 1.2856072 27
1.948158 7.9735193 1.1483097 19
3.4938931 14.299982 1.2780505 19
2.5476346 10.427087 0.55220336 28
2.554296 10.454351 0.36321339 19
12.910134 39.970543 1.1681355 37
1.7611879 10.446028 0.23225987 47
2.5554223 10.458961 0.17251882 10
12.923069 40.01059 0.42564079 47
1.7622603 10.452389 0.044771053 50
2.5585952 10.471948 -0.017873907 2
8.2467585 25.532455 -0.20230661 0
1.7594571 10.435762 -0.14223447 36
2.5467296 10.423384 -0.20752515 52
1.7594287 10.435594 -0.32943714 46
2.5511501 10.441476 -0.39845452 53
8.367135 25.905149 -1.1695361 6
0.84953576 5.0388002 -0.2494695 30
2.5509777 10.44077 -0.58866996 3
6.5874619 20.395176 -1.2996124 1
0.84336245 5.0021849 -0.33755624 0
2.5452778 10.417441 -0.77716333 2
5.4211392 16.78417 -1.3819417 1
0.8501966 5.0427198 -0.4307735 0
1.7818458 5.5167007 -0.55678916 1
0.41613433 2.4681923 -0.25517508 1
0.58239412 2.383652 -0.26465812 1
0.52939731 2.166744 -0.28011414 2
0.49057004 2.0078297 -0.29614991 11
0.48551804 1.9871527 -0.3296673 17
0.48223209 1.9737039 -0.36337546 3
1.1802617 4.8306351 -0.97804475 1
1.1798584 4.8289838 -1.0657876 1
0.77647555 3.1779983 -0.81718808 0
0.76398492 3.1268759 -1.1073351 0
0.43454897 1.7785439 -0.85343331 27
0.73077297 2.9028955 0.79018086 2
1.5829039 6.287868 1.2529738 28
2.0037758 7.9597244 1.1483097 16
3.6033683 14.313886 1.2815104 22
8.1361065 32.319569 1.7145637 12
10.053112 39.934608 1.3898444 39
8.4506655 25.552452 0.74847412 35
1.8368407 10.449232 0.23261058 45
8.3128376 25.1357 0.26800954 23
1.8365732 10.447711 0.044804845 48
9.1975584 36.536037 -0.062469143 24
8.3067474 25.117287 -0.19947167 21
1.8350389 10.438982 -0.14244948 36
8.3043385 25.110001 -0.66761142 17
1.834316 10.43487 -0.3298105 48
8.5277042 25.785397 -1.1667892 2
0.88607568 5.040617 -0.2498596 3
5.7721767 22.92918 -1.2950301 1
6.6933289 20.238756 -1.2925915 1
0.87204438 4.9607973 -0.33516598 28
4.6515231 18.477537 -1.3808527 1
5.5319204 16.726984 -1.3803794 2
0.87295884 4.9659991 -0.42472991 0
1.358647 5.3970389 -0.50179255 1
1.8278171 5.5268087 -0.55908364 1
0.43266627 2.4613078 -0.25476938 1
0.60775858 2.4142375 -0.26851863 1
0.53579104 2.1283565 -0.27562833 2
0.50747514 2.0158753 -0.29785192 11
0.49937904 1.9837147 -0.3296673 18
0.49407676 1.9626522 -0.36196703 3
1.214915 4.8260832 -0.97881669 1
1.2192709 4.8433862 -1.0708188 1
0.80338001 3.1913168 -0.82203501 0
0.78764254 3.1288021 -1.1099375 0
0.44341466 1.7614039 -0.84667343 26
0.75490224 2.912698 0.7942645 0
1.5932616 6.1474051 1.2271706 30
2.065259 7.9685497 1.1516349 18
3.7122076 14.323098 1.2846241 21
6.1807041 23.847492 1.2673756 0
8.4009314 32.413967 1.1301172 22
8.5480843 25.254229 0.74146861 28
1.909025 10.43222 0.2325229 44
8.3765402 32.319855 0.53498781 25
8.4893961 25.080843 0.26805004 50
1.9116267 10.446439 0.044855528 49
8.367568 32.28524 -0.055299684 20
8.4934378 25.092781 -0.19974309 39
1.9107512 10.441654 -0.14266451 37
8.4944458 32.77478 -0.65482962 1
8.4896917 25.081715 -0.66841894 49
1.9099985 10.437541 -0.33030832 43
7.6748776 29.612577 -1.1340172 1
8.5819464 25.354269 -1.1499637 13
0.9809342 5.3604965 -0.26604879 0
5.9271002 22.868992 -1.2939364 1
6.8242164 20.16128 -1.2906545 1
0.91599524 5.0056257 -0.33861858 8
4.7683949 18.39827 -1.3773832 1
5.6191549 16.601078 -1.3731933 2
0.90975893 4.9715462 -0.42573717 0
1.5871952 6.1239986 -0.57039839 3
1.8701862 5.5252275 -0.56023085 1
0.46416482 2.5365148 -0.26288307 1
0.62659371 2.4176352 -0.26937652 1
0.55063659 2.1245639 -0.27562833 2
0.51756245 1.9969516 -0.29558256 10
0.51618803 1.9916483 -0.33157656 18
0.51665741 1.9934593 -0.36830497 3
1.2515317 4.8288822 -0.98113245 1
1.2530541 4.8347564 -1.0708188 1
0.82077163 3.166847 -0.81718808 0
0.81136423 3.1305497 -1.11254 0
0.46115813 1.7793223 -0.85681325 27
1.047242 3.9275479 1.0729717 11
1.5946542 5.980547 1.1960549 24
2.1136949 7.9271436 1.1477555 15
3.8172438 14.316087 1.2863541 20
7.793057 29.226866 1.5561161 4
8.5919971 32.22319 1.1255298 52
8.6613817 25.012577 0.73613113 58
1.9855449 10.438281 0.2329613 44
8.5926952 32.225807 0.53441101 52
8.6682129 25.032305 0.26817152 77
1.9860044 10.440697 0.044889316 49
8.6009998 32.256954 -0.05535274 52
8.6762629 25.055552 -0.19992405 61
1.9850954 10.435918 -0.14277202 36
8.5880699 32.208462 -0.64469701 21
8.6802893 25.067179 -0.66963023 49
1.9850606 10.435735 -0.33068171 43
7.8567076 29.46558 -1.130461 1
8.6672068 25.029398 -1.1379457 41
1.9814199 10.416595 -0.51766384 33
6.0763202 22.788465 -1.2917489 1
6.9530439 20.079193 -1.2884756 1
0.95241028 5.0069509 -0.33914974 47
4.8874712 18.329838 -1.3747811 1
5.7244759 16.5313 -1.3706937 1
0.94444442 4.9650736 -0.42573717 0
1.5991181 5.9972887 -0.55962259 2
1.9347715 5.5872865 -0.56787908 1
0.4803744 2.525394 -0.2620717 1
0.65472734 2.4554715 -0.27409488 1
0.58386075 2.1896954 -0.28459996 2
0.53047103 1.9894639 -0.29501522 10
0.52499253 1.9689175 -0.32839444 18
0.52751827 1.97839 -0.36619231 4
1.2892576 4.8351965 -0.98422021 1
1.2918146 4.8447857 -1.0750115 1
0.84386009 3.1647897 -0.81815749 0
0.82735264 3.1028807 -1.1047328 0
0.4688985 1.7585441 -0.8483634 28
1.0756582 3.9238713 1.0739926 15
1.6072944 5.8632159 1.1748053 21
2.1710794 7.9198356 1.1488639 17
3.9265769 14.323677 1.2894678 21
7.8395457 28.597713 1.5254953 10
8.8336573 32.224113 1.1276885 66
8.8598146 25.019344 0.73813266 65
2.060693 10.435936 0.23322433 42
8.8449545 32.265324 0.53607726 49
8.8641205 25.031504 0.26881936 71
2.060395 10.434426 0.044923108 48
8.8439617 32.261703 -0.05546549 53
8.8763399 25.06601 -0.20049708 58
2.061002 10.437501 -0.14298703 38
8.8306894 32.213287 -0.64601195 65
8.8844433 25.088894 -0.67185086 51
2.0632882 10.44908 -0.33155289 43
8.0622225 29.410013 -1.130461 1
8.8670778 25.039856 -1.1412077 44
2.0602841 10.433866 -0.51922423 67
6.213089 22.664598 -1.287155 1
7.070395 19.966179 -1.2843598 1
0.99120766 5.0197577 -0.34047765 22
5.0026603 18.2491 -1.3713117 1
5.8251033 16.449583 -1.3672568 1
0.97445101 4.9348969 -0.42372265 1
1.554582 5.670927 -0.53016877 2
1.9883509 5.6149297 -0.57208556 0
0.49336782 2.4985549 -0.25963759 1
0.66764802 2.4354992 -0.2723791 1
0.59178841 2.1587725 -0.281111 2
0.54748744 1.9971679 -0.29671723 9
0.54394543 1.9842472 -0.33157656 18
0.54131705 1.9746591 -0.36619231 3
1.3250573 4.8336487 -0.98576409 1
1.3245716 4.8318772 -1.074173 1
0.86798561 3.1663067 -0.82009625 0
0.4869149 1.7762066 -0.85850322 28
1.1019772 3.9125433 1.0729717 16
1.6194407 5.7497849 1.1543144 20
2.2424264 7.9616809 1.157177 3
4.0372825 14.334273 1.2929276 21
6.7296739 23.893543 1.2770345 0
9.0768328 32.227074 1.1299822 40
9.0546799 25.013277 0.73980063 55
2.1359048 10.433048 0.23348737 43
9.083003 32.248985 0.53684628 14
9.061801 25.032948 0.26950774 77
2.1380036 10.443299 0.045024473 50
10.307378 36.596096 -0.063039519 4
9.0769844 25.07489 -0.20107009 60
2.1386318 10.446369 -0.14330956 40
9.0737972 32.216297 -0.64732689 71
2.1393931 10.450088 -0.33205071 43
8.2261667 29.206804 -1.1248301 1
9.0661564 25.044979 -1.1442981 45
2.1338768 10.423142 -0.51941931 84
6.3462615 22.532249 -1.2821236 1
7.1919446 19.867527 -1.2812126 1
5.1202064 18.179169 -1.3687096 1
5.9316559 16.386017 -1.3653821 1
1.0128762 4.9474983 -0.42540142 7
1.6146551 5.7327938 -0.53699344 1
2.0369887 5.6271186 -0.57476246 1
0.50840443 2.4833543 -0.25842056 1
0.68463463 2.4307787 -0.2723791 1
0.61222488 2.1736896 -0.2836031 2
0.56678414 2.0123534 -0.29955393 8
0.5556435 1.9727988 -0.33030373 20
0.55829197 1.9822022 -0.36830497 4
1.3651541 4.8469467 -0.99039572 1
1.3614531 4.833806 -1.0766886 1
0.89217359 3.1676409 -0.82203501 0
0.89315462 3.1711237 -1.1333594 0
0.49832034 1.7692744 -0.85681325 27
1.1238925 3.8861785 1.0678672 17
1.6442667 5.6855202 1.1436896 22
2.6501315 9.1635847 1.334522 18
3.7807672 13.07308 1.181522 1
7.2492347 25.066294 1.3423865 1
11.559525 39.970348 1.4042811 43
9.2498913 25.005705 0.74146861 9
2.2120063 10.433531 0.23383808 45
11.5624 39.980293 0.66687626 37
2.2133477 10.439858 0.04507516 50
10.579284 36.580887 -0.063138999 12
9.919302 26.815357 -0.21557657 23
2.2131677 10.43901 -0.14341708 37
11.5595 39.970261 -0.80473042 37
8.4833431 22.933456 -0.61724281 1
2.2139542 10.442719 -0.33229965 43
8.4076557 29.071865 -1.1218666 1
9.2574186 25.026054 -1.1463584 25
2.2099059 10.423624 -0.52019948 70
6.4878764 22.43368 -1.2790611 1
7.323544 19.798111 -1.280002 1
1.1381801 5.3685374 -0.36517689 0
5.2392373 18.116154 -1.3666856 2
6.0237708 16.284369 -1.360383 2
1.0564846 4.9831982 -0.42909473 44
1.6690261 5.7711334 -0.54166293 1
2.1038511 5.6874485 -0.58241063 0
0.525729 2.4797444 -0.25842056 1
0.70821708 2.4488623 -0.27495277 1
0.62076938 2.146487 -0.28061259 2
0.57751906 1.9969367 -0.29785192 8
0.56940258 1.9688717 -0.33030373 19
0.57211667 1.9782563 -0.36830497 4
1.3978683 4.833528 -0.98962379 1
1.4005989 4.8429694 -1.0808814 1
0.91318786 3.1576071 -0.82106566 0
0.92157632 3.1866126 -1.1411668 0
0.51166719 1.7692351 -0.85850322 24
1.1542965 3.8893604 1.0709299 16
1.6693925 5.6249576 1.1338236 21
2.78392 9.3803177 1.3688827 6
4.2585688 14.349093 1.2995013 19
7.2626591 24.471268 1.3132042 5
11.862171 39.969158 1.4071146 47
13.486214 35.690228 1.0610518 20
2.2873619 10.429553 0.23410112 42
11.866264 39.982948 0.66828614 37
10.75781 28.469717 0.3080956 0
2.2921755 10.451502 0.045193423 49
10.859443 36.5905 -0.063284911 11
10.128887 26.805323 -0.21605912 20
2.2902753 10.442838 -0.14368585 34
8.246047 27.784756 -0.56054223 1
8.5513678 22.630537 -0.61068177 3
2.2910862 10.446535 -0.33292192 43
8.5728788 28.886005 -1.1169766 1
9.4658089 25.050535 -1.1504788 3
2.2851899 10.41965 -0.52078468 91
6.6193333 22.303604 -1.2742485 1
7.4460564 19.705418 -1.2773389 1
2.2871377 10.428532 -0.71043503 49
5.3508263 18.029415 -1.3629271 1
6.1358995 16.238188 -1.3600706 1
1.0946634 4.9912744 -0.43043774 25
1.7228768 5.805171 -0.54597324 1
2.168839 5.739666 -0.58929402 1
0.54558539 2.4876747 -0.25963759 1
0.73321646 2.4705462 -0.27795538 1
0.64251465 2.1649299 -0.2836031 2
0.59933203 2.0194275 -0.30182326 7
0.58875179 1.9837779 -0.33348584 18
0.57919163 1.9515653 -0.36407968 5
1.4382784 4.8462272 -0.99425542 1
0.94073033 3.1697569 -0.82591254 0
0.9491812 3.1982317 -1.1476729 0
0.52194321 1.7586688 -0.85512328 16
1.1791687 3.8738077 1.0688881 16
1.6983281 5.5793514 1.1269934 24
2.8493385 9.3606539 1.3688827 8
4.3760462 14.376198 1.304691 22
7.2669744 23.87348 1.2838163 3
12.170022 39.980984 1.4104877 47
13.513375 35.020733 1.0439273 4
2.364537 10.43283 0.23453951 40
12.175388 39.998611 0.66995239 38
1.7048575 4.4182415 0.047941279 0
2.3695049 10.454749 0.045277897 46
11.140252 36.59798 -0.063430816 11
1.7092162 4.4295378 -0.03579874 7
2.3666599 10.442197 -0.14390086 33
8.3023958 27.275051 -0.55141515 2
1.707281 4.4245224 -0.11971381 12
2.3648438 10.434184 -0.33304638 43
8.738246 28.706905 -1.1123831 1
8.7297897 22.623779 -1.0418005 0
2.3614087 10.419027 -0.52156484 77
6.7481284 22.168966 -1.269217 1
7.5705075 19.619431 -1.27516 0
2.3616509 10.420096 -0.71096617 51
5.4579754 17.930553 -1.3583012 2
6.2390637 16.168913 -1.3578835 0
1.1303631 4.9873977 -0.4307735 6
1.7726431 5.8234911 -0.54884678 1
1.7086025 4.427947 -0.4558329 0
0.56469834 2.4915669 -0.26044896 1
0.75623655 2.48439 -0.28010011 1
0.66108006 2.1717818 -0.28509837 2
0.6134156 2.0151942 -0.30182326 7
0.6060366 1.9909528 -0.3353951 17
0.59968162 1.9700755 -0.36830497 7
1.4755048 4.8473315 -0.99657124 0
1.4703585 4.8304248 -1.0825584 0
0.96283633 3.1631119 -0.82591254 1
0.96818137 3.1806717 -1.1437691 0
0.53843117 1.7688553 -0.8618831 18
1.206184 3.8654811 1.0688881 16
1.7243693 5.5261197 1.1186453 24
2.9358582 9.4086018 1.3788583 8
4.4917355 14.394752 1.3091887 20
7.3180418 23.452271 1.2638819 0
12.473849 39.975185 1.413321 43
1.7204245 4.3675528 0.13054651 15
2.4436917 10.443326 0.23515326 42
12.485307 40.011906 0.67161858 36
1.7224674 4.3727384 0.04757686 20
2.4469912 10.457427 0.045362368 47
8.7312927 27.981344 -0.048601113 0
1.7122451 4.3467875 -0.035225719 24
2.4440584 10.444893 -0.14416963 34
8.4163666 26.972094 -0.54646486 5
1.7088172 4.3380857 -0.11769503 18
2.4430954 10.440778 -0.33379313 44
8.9396334 28.649017 -1.1125313 1
1.7370795 4.4098334 -0.20362154 18
2.4349992 10.406178 -0.52175993 80
6.8777475 22.04125 -1.2646232 1
1.7325675 4.3983793 -0.28665072 22
2.4388855 10.422786 -0.7122941 50
5.5687599 17.846313 -1.3548316 2
1.7246003 4.3781533 -0.36868441 16
1.8298688 5.8642159 -0.55387551 1
1.7161249 4.3566375 -0.44971433 23
0.59386551 2.537935 -0.26572287 0
0.79014713 2.5321999 -0.2861053 1
0.68213677 2.1860571 -0.2875905 2
0.62393087 1.9995233 -0.30012125 7
0.61639225 1.9753642 -0.33348584 18
0.61342061 1.9658409 -0.36830497 8
1.5069712 4.8294201 -0.99502736 1
1.5075402 4.8312435 -1.0850741 1
0.99067521 3.1748362 -0.83075947 1
0.9959963 3.1918888 -1.1502752 0
0.55508667 1.7788969 -0.86864299 19
1.2378516 3.8717015 1.0729717 17
1.7581227 5.4989834 1.1156096 26
3.0219791 9.4520216 1.3882798 12
4.5969734 14.378224 1.3105726 17
7.2772141 22.76137 1.2293564 0
12.786712 39.993748 1.4170989 48
1.7210461 4.2812366 0.12832256 16
2.5193548 10.437674 0.23541629 41
12.796004 40.022812 0.67328483 39
1.7201314 4.2789612 0.046686057 19
2.5236919 10.455643 0.045429949 50
8.1943312 25.629892 -0.044615131 0
1.7246464 4.2901926 -0.034863811 20
2.5216095 10.447015 -0.1444384 35
8.5935001 26.878393 -0.54576868 84
1.7092314 4.2518468 -0.11567625 20
2.5187404 10.435127 -0.3341665 42
9.0359526 28.262281 -1.099936 6
1.7290684 4.3011928 -0.19915766 23
2.5132129 10.412228 -0.5229302 77
7.0265903 21.97748 -1.2637482 1
1.7274903 4.297267 -0.28084025 22
2.5190821 10.436543 -0.71441877 40
5.6762052 17.753799 -1.3507839 1
1.7209134 4.2809067 -0.36149821 22
1.3794503 5.7150555 -0.49523842 6
1.9023073 5.9499583 -0.56321454 1
1.7153105 4.2669687 -0.44168371 25
0.61156905 2.5337274 -0.26572287 1
1.5998673 5.0039992 -0.56663436 0
0.69375575 2.1699007 -0.28609523 1
0.65113884 2.0366051 -0.30636197 5
0.63016778 1.9710128 -0.33348584 18
0.63432437 1.9840136 -0.37253025 11
1.5418452 4.8225198 -0.9957993 0
1.547187 4.8392277 -1.0892668 1
1.0194074 3.1884604 -1.1515765 0
0.56638801 1.771525 -0.86695302 21
1.2660543 3.8666408 1.0739926 16
1.7940253 5.4791107 1.1140918 24
3.0767982 9.3968115 1.383292 9
3.7994564 11.603873 1.060083 3
8.3868752 25.614252 1.3865709 1
8.3795033 25.591738 0.90884298 43
1.7250997 4.2062273 0.12643218 19
2.5950577 10.431473 0.23567933 7
8.3831978 25.603024 0.43168157 34
1.721125 4.1965361 0.045916729 20
9.0799751 36.499195 0.15886122 24
8.2299204 25.134899 -0.043852422 17
1.7211642 4.1966319 -0.034200314 20
9.0956516 36.56221 -0.50636762 22
8.7772007 26.806343 -0.54553664 92
1.7145956 4.1806159 -0.11406122 21
8.3561296 25.520355 -0.99546951 2
1.7317584 4.2224631 -0.19606727 23
2.5839131 10.386675 -0.52254009 5
7.1525068 21.844385 -1.2589356 1
1.7332078 4.2259974 -0.27696657 22
2.5909171 10.414829 -0.71415317 19
5.8074589 17.736488 -1.3525187 1
1.7265466 4.2097554 -0.35649908 22
1.5145774 6.0882168 -0.52847815 5
1.9685923 6.0122538 -0.57039839 1
1.7148401 4.1812119 -0.43403551 24
0.62732142 2.5216727 -0.2649115 1
0.87121326 2.6607618 -0.3019762 1
0.7187674 2.1951787 -0.29008263 1
0.6591804 2.0131948 -0.30352527 5
0.64759904 1.9778243 -0.3353951 18
0.64570922 1.9720526 -0.37112182 11
1.5754747 4.8116384 -0.9957993 0
0.97694182 2.9836662 -0.78422916 1
1.0451729 3.1920497 -1.1554801 0
0.57986981 1.7709732 -0.86864299 24
1.2917883 3.8540409 1.0729717 17
1.8359771 5.4776239 1.1163685 26
3.1347711 9.3525667 1.3799667 6
3.7967887 11.327691 1.0372484 6
7.3784833 22.013651 1.1944199 0
8.4969778 25.350672 0.9023667 35
1.7204758 4.1129298 0.12398583 22
9.3780603 36.604687 0.82847244 4
8.4778471 25.293592 0.42745191 16
1.7148786 4.0995493 0.04498544 24
9.3524332 36.504662 0.15916532 23
8.4204473 25.122343 -0.043932009 29
1.7180048 4.1070228 -0.033566974 22
8.3977451 32.778297 -0.45476326 4
