# .PCD v0.7 - Point Cloud Data file format
VERSION 0.7
FIELDS x y z intensity
SIZE 4 4 4 4
TYPE F F F F
COUNT 1 1 1 1
WIDTH 1373
HEIGHT 1
VIEWPOINT 0 0 0 1 0 0 0
POINTS 1373
DATA ascii
-18.388241 3.5510023 -0.031052185 41
-18.393663 4.9629879 -0.14364734 37
-18.37332 2.1811299 -0.24866843 44
-18.353415 3.544277 -0.36152536 104
-18.411491 4.9677987 -0.48137873 36
-18.370052 2.180742 -0.57586157 41
-18.35602 3.54478 -0.69303524 54
-18.354086 4.9523091 -0.81671804 56
-18.321381 2.1749642 -0.90074289 43
-8.6313543 1.666824 -0.48147997 1
-8.1143761 2.1894252 -0.50962818 14
-18.330469 2.176043 -1.2283223 53
-8.1986275 1.5832587 -0.60513502 9
-7.8349361 2.1140265 -0.63582438 0
-18.325964 2.1755083 -1.554545 36
-8.0695724 1.5583366 -0.74101502 1
-7.649961 2.0641167 -0.76099616 0
-10.946009 1.2994205 -1.123744 0
-7.8720589 1.5201944 -0.86475009 13
-7.6572695 1.4787158 -0.97940266 28
-7.6393962 1.4752642 -1.1148171 38
-7.6307402 1.4735926 -1.2524811 33
-7.5543466 1.4588401 -1.3760381 24
-7.5260997 1.4533852 -1.5075938 33
-7.576653 1.4631478 -1.6544443 1
-7.8465343 1.5152652 -1.8551238 3
-7.7655168 1.4996197 -1.9755983 6
-5.5410237 1.0700419 -1.9414148 6
-1.5484693 0.29902905 -0.73513561 14
-2.0553479 0.41181833 0.55333078 17
-5.3179674 1.0655308 1.0480659 36
-4.944613 0.99072385 0.70550108 24
-6.3728862 1.2768989 0.56429356 3
-11.774105 2.3591104 0.61776084 17
-15.232404 3.0520298 0.52431172 8
-13.516438 3.7484384 0.39008278 10
-13.962573 1.7564576 0.30854002 27
-13.980306 2.8011541 0.22846568 11
-15.251561 4.2296309 0.16022266 17
-16.045395 2.0184715 0.068305425 5
-18.410067 3.68872 -0.031131772 30
-18.404819 5.1041059 -0.14400925 40
-18.373518 2.3113437 -0.24888344 38
-18.355673 3.6778214 -0.36206681 66
-18.403334 5.1036944 -0.48208529 38
-18.362312 2.3099339 -0.57611048 40
-18.358261 3.67834 -0.69407248 49
-18.353724 5.0899363 -0.81826323 66
-18.325569 2.3053117 -0.90171814 44
-8.4941902 1.7019325 -0.47447979 1
-8.0950451 2.2449539 -0.50938606 14
-18.31879 2.3044591 -1.2285879 48
-8.0348139 1.6098899 -0.5938592 17
-7.8199863 2.1686733 -0.63582438 0
-18.310329 2.3033946 -1.554545 38
-7.9295912 1.588807 -0.72916168 12
-7.6430383 2.1196015 -0.76176101 0
-10.265467 1.2913706 -1.0547777 6
-7.6389861 1.53058 -0.84030026 0
-7.7168059 1.5461724 -0.98837429 5
-7.6172638 1.5262277 -1.1131152 43
-7.5854177 1.5198469 -1.2467533 58
-7.5053701 1.5038081 -1.3689959 1
-7.5427074 1.5112892 -1.5129974 154
-7.5010605 1.5029447 -1.6401892 2
-7.8663278 1.5761312 -1.8623598 2
-7.7738838 1.5576087 -1.9804453 5
-5.5445442 1.1109288 -1.9453185 6
-1.5783372 0.31624243 -0.75034529 13
-2.0524228 0.4261573 0.55333078 17
-5.3257804 1.1058248 1.0511016 32
-4.9453335 1.0268303 0.70660949 24
-6.3677182 1.3221689 0.56463951 4
-11.745615 2.4388151 0.61714429 13
-15.26944 3.1704886 0.5263356 5
-13.520702 3.8514729 0.39097235 13
-13.981683 1.8581064 0.30924144 27
-14.054393 2.9182007 0.23000373 8
-15.237049 4.3403869 0.16038463 22
-16.058668 2.1341288 0.068423688 6
-18.395615 3.8195958 -0.031151669 33
-12.067588 3.4375422 -0.094608799 1
-18.364862 2.4406123 -0.24899095 29
-18.368708 3.814009 -0.36284027 44
-12.017939 3.4233994 -0.31543478 8
-18.349703 2.4385977 -0.57623494 40
-18.359531 3.8121035 -0.69510978 49
-18.352331 5.2277985 -0.81980842 58
-18.324871 2.4352975 -0.90249836 52
-8.6776323 1.8017907 -0.48541754 3
-8.0676565 2.2981322 -0.50865978 11
-18.318081 2.4343951 -1.2296501 53
-7.7854795 2.217752 -0.63426214 0
-18.325411 2.4353693 -1.5572311 39
-7.658689 2.1816347 -0.76482028 0
-10.106302 1.3430847 -1.0393618 2
-7.6943111 1.5976176 -0.84759235 2
-7.7058239 1.600008 -0.98837429 7
-7.5986695 1.5777589 -1.1119804 45
-7.5746226 1.5727659 -1.2467533 43
-7.5255313 1.5625728 -1.3746296 71
-7.4704881 1.5511439 -1.5006464 255
-7.4712386 1.5512997 -1.6359965 3
-8.4617224 1.7569599 -2.0061748 2
-7.7628202 1.6118426 -1.9804453 8
-5.5292468 1.1480719 -1.942716 7
-1.5583422 0.32356828 -0.7418955 14
-2.0492437 0.44119084 0.55333078 17
-5.3213701 1.1456616 1.0518605 33
-4.9454188 1.0647213 0.7077179 26
-6.3539596 1.3679723 0.56429356 4
-11.680558 2.5147595 0.6146782 5
-12.936057 2.7850616 0.44659597 8
-11.91112 3.4875689 0.34515876 17
-13.979568 1.9622147 0.30950448 29
-14.059993 3.0270388 0.23045234 7
-11.853697 3.4707553 0.12503603 21
-16.074282 2.2562351 0.068558842 6
-18.390583 3.9593909 -0.031191463 33
-11.792548 3.4528511 -0.092648469 13
-18.358362 2.5768356 -0.24915221 31
-18.355894 3.9519224 -0.36314967 43
-11.716212 3.4305 -0.30816716 18
-18.370926 2.5785992 -0.57747954 38
-18.366264 3.954155 -0.69644338 48
-11.927756 3.49244 -0.53394854 25
-18.346092 2.5751133 -0.90444887 47
-8.6290503 1.8577868 -0.48344877 2
-8.0697527 2.3628187 -0.50987029 13
-18.327412 2.5724914 -1.2315092 51
-7.839344 1.6877674 -0.58113778 1
-7.8111115 2.2870889 -0.63769907 0
-10.164015 1.4266521 -0.86456877 6
-7.8086767 1.6811649 -0.72018182 0
-7.6348486 2.2354791 -0.76405543 0
-9.6981707 1.3612648 -0.99838769 2
-7.6707296 1.6514657 -0.84630549 3
-7.5813699 1.6322271 -0.97392005 22
-7.5868998 1.6334175 -1.1119804 41
-7.5551691 1.6265861 -1.2454805 40
-7.5100255 1.6168669 -1.3739254 13
-7.4819379 1.6108198 -1.505278 37
-7.4558425 1.6052016 -1.6351579 4
-8.4295702 1.8148398 -2.0016522 2
-7.7697654 1.6727875 -1.9852921 6
-5.5132866 1.1869801 -1.9401135 6
-1.5594728 0.33574587 -0.74358547 14
-2.0347884 0.45296538 0.55026805 18
-5.3132424 1.1827838 1.0518605 39
-4.9455986 1.1009425 0.7088263 25
-6.3520341 1.41403 0.56498551 4
-11.393668 2.536351 0.60049808 3
-12.861668 2.8631432 0.44470704 7
-11.629911 3.493567 0.33770847 18
-13.490781 1.989736 0.29898307 27
-14.093172 3.137289 0.23134954 6
-11.553367 3.4705732 0.12212069 17
-16.073967 2.3707266 0.068626426 6
-18.405443 4.0972462 -0.031264417 33
-11.511493 3.4579945 -0.090627812 17
-18.37158 2.7095981 -0.24958225 31
-18.355183 4.0860577 -0.36369112 62
-11.462198 3.4431865 -0.30211082 16
-18.380165 2.7108643 -0.57835072 37
-18.365522 4.0883594 -0.69748062 50
-11.631341 3.4939964 -0.52175874 22
-18.315811 2.7013729 -0.90386373 51
-8.5651884 1.9067013 -0.48060495 2
-8.0721798 2.4248421 -0.5110808 13
-18.328749 2.7032809 -1.2328372 52
-7.8001108 1.7363871 -0.5791139 0
-7.8369651 2.3541849 -0.64113593 0
-7.7889719 1.7339075 -0.71946347 0
-7.6495628 2.2978902 -0.76711476 0
-9.3459311 1.3784181 -0.96309322 1
-7.6396031 1.7006564 -0.8441608 3
-7.60853 1.6937393 -0.97890425 31
-7.5753112 1.6863443 -1.1119804 48
-7.5551934 1.6818658 -1.2473898 43
-7.4831805 1.6658351 -1.3711085 46
-7.4743409 1.6638672 -1.5060499 41
-7.5093546 1.6716616 -1.6494131 2
-8.4014807 1.8702585 -1.9980344 3
-7.7616858 1.7278334 -1.9862615 7
-5.5122499 1.2270851 -1.942716 6
-1.5393966 0.34268597 -0.73513561 14
-2.0504224 0.47149339 0.5553726 8
-5.3048558 1.2198484 1.0518605 22
-4.9455137 1.137218 0.70993471 26
-6.3497748 1.460127 0.56567746 4
-10.974693 2.5236242 0.57933062 6
-12.775134 2.9376345 0.44241333 7
-11.356855 3.4981663 0.33048061 17
-13.492369 2.0863154 0.29933378 17
-14.078723 3.2373939 0.23147771 9
-11.291858 3.4781456 0.11961025 19
-16.07679 2.4859426 0.068710893 6
-18.407578 4.2328115 -0.031317476 32
-11.230953 3.4593856 -0.088607162 22
-18.375931 2.8414571 -0.24990478 35
-18.353493 4.2203746 -0.36423254 67
-11.200945 3.4501421 -0.2958526 33
-18.380548 2.842171 -0.578973 38
-18.359907 4.2218499 -0.69836968 50
-11.33168 3.4904118 -0.50939721 17
-18.339937 2.8358912 -0.90600926 49
-8.5399914 1.963766 -0.47994867 2
-8.0703163 2.4858387 -0.5120492 12
-9.8489113 1.5229301 -0.66316122 6
-7.8033509 1.7943759 -0.58027041 0
-7.8393941 2.4147093 -0.64269817 0
-9.4419498 1.4600021 -0.80480444 0
-7.7689123 1.7864568 -0.71874505 0
-7.6371388 2.3524101 -0.76749712 0
-9.0529299 1.3998481 -0.93388402 1
-7.6275449 1.7539494 -0.8441608 2
-7.5617099 1.7388107 -0.97441846 83
-7.563354 1.7391888 -1.1119804 42
-7.5278735 1.73103 -1.2448441 44
-7.4560194 1.7145073 -1.3682917 40
-7.4663682 1.716887 -1.5068219 43
-7.5622997 1.7389463 -1.6636684 3
-7.7607803 1.7845869 -1.9891696 7
-5.4998631 1.2646903 -1.9414148 5
-1.5475664 0.35586199 -0.74020553 15
-2.0357919 0.48311657 0.55230987 12
-4.153666 0.98571223 0.82494396 8
-4.9490175 1.1744581 0.71159732 27
-6.3394275 1.5044183 0.56567746 4
-10.676961 2.5337644 0.56453395 3
-12.69597 3.0128982 0.44038948 3
-11.175824 3.5280156 0.32592151 41
-13.481423 2.1810977 0.29942146 16
-14.118042 3.3503721 0.23250309 7
-11.179572 3.5291986 0.11867896 47
-16.094582 2.6038685 0.068862952 5
-18.404823 4.3676739 -0.031363901 32
-11.176013 3.528075 -0.08836589 46
-18.367493 2.9715924 -0.25006604 33
-18.354712 4.355782 -0.36485133 58
-11.172771 3.5270519 -0.29575166 47
-18.35631 2.9697833 -0.57884854 39
-18.353323 4.3554521 -0.6992588 43
-11.146976 3.5189087 -0.5021863 54
-18.323637 2.9644971 -0.90620428 46
-8.4988718 2.0168791 -0.4784174 2
-8.0984554 2.5565431 -0.51495445 13
-9.5307236 1.5419321 -0.64244574 0
-7.7906342 1.8488061 -0.58027041 0
-7.8489647 2.4777832 -0.6448853 0
-9.1836405 1.4857792 -0.78365189 0
-7.7407475 1.8369675 -0.71730828 0
-7.6584997 2.4176567 -0.77132124 0
-8.7915268 1.4223408 -0.90792024 1
-7.6112452 1.8062352 -0.84373182 1
-7.5455251 1.790639 -0.97392005 4
-7.5548811 1.7928593 -1.1125478 42
-7.5232902 1.7853624 -1.2461169 47
-7.4553628 1.7692424 -1.3704044 52
-7.4427447 1.766248 -1.504506 37
-7.5461702 1.790792 -1.6628299 2
-7.9158273 1.8785158 -1.8885902 7
-7.7481337 1.8387202 -1.9891696 6
-5.4909005 1.3030531 -1.9414148 6
-1.5415171 0.36581954 -0.73851556 14
-2.0661795 0.50559056 0.56149805 16
-4.0284247 0.98574859 0.80141753 4
-4.9445453 1.2099217 0.71215153 27
-6.3248992 1.5476919 0.56533152 6
-10.534843 2.5778582 0.55795765 6
-12.651326 3.095758 0.43957993 2
-11.173749 3.6133332 0.32658869 42
-13.497413 2.2804925 0.30012289 16
-14.102077 3.4507542 0.23263125 5
-11.181302 3.6157753 0.11896239 45
-16.127283 2.7248294 0.069082581 5
-18.41662 4.5065155 -0.031436857 30
-11.181558 3.6158581 -0.088607162 46
-18.362074 3.1024148 -0.25028107 41
-18.351049 4.4904699 -0.36539277 77
-11.182119 3.6160398 -0.2966601 44
-18.366669 3.1031911 -0.57984418 35
-18.361294 4.4929771 -0.70074058 50
-11.144954 3.6040213 -0.50321645 52
-18.318251 3.0950103 -0.90698451 47
-8.4651861 2.0714166 -0.47732362 2
-8.1032038 2.6203892 -0.51640707 10
-9.204895 1.5552382 -0.62119907 0
-7.8240395 1.914529 -0.58373988 0
-7.8618298 2.5423348 -0.64738482 0
-8.8664904 1.4980623 -0.75746298 0
-7.7354732 1.892857 -0.7180267 0
-7.6490116 2.4735143 -0.77208608 0
-8.5930424 1.451861 -0.8884474 0
-7.6139016 1.8631086 -0.8454476 0
-7.5482602 1.8470464 -0.9759137 3
-7.5383339 1.8446174 -1.1119804 42
-7.5259862 1.841596 -1.2486626 42
-7.4275298 1.8175038 -1.3675874 50
-7.4454818 1.8218966 -1.5075938 11
-7.5562782 1.8490083 -1.6678611 1
-8.4058886 2.0569065 -2.0088882 5
-7.7351074 1.8927675 -1.9891696 8
-5.4816694 1.3413551 -1.9414148 6
-1.5459687 0.37829587 -0.7418955 13
-2.0400984 0.51433015 0.5553726 18
-3.9033911 0.98408574 0.77789104 5
-4.9513431 1.2482854 0.71436834 23
-6.3332605 1.5966812 0.56706142 5
-10.501096 2.6474361 0.55713558 10
-13.284523 3.3491671 0.46238199 3
-11.171028 3.6987882 0.32725587 47
-13.520547 2.381604 0.30099967 14
-14.10479 3.5559649 0.23307985 4
-11.178571 3.7012858 0.11920534 47
-16.151199 2.8449855 0.06926842 5
-18.400225 4.6388888 -0.031463385 34
-11.182623 3.7026274 -0.088818274 47
-18.363602 3.2346935 -0.25060359 32
-18.346397 4.6253185 -0.36593419 78
-11.175585 3.7002969 -0.2971648 45
-18.356369 3.2334194 -0.58021754 37
-18.360489 4.628871 -0.70192599 48
-11.149873 3.6917837 -0.50458997 52
-18.31587 3.2262857 -0.90795976 47
-8.4272823 2.1246059 -0.4760111 2
-8.1491489 2.6982276 -0.52052283 7
-8.9619036 1.5786126 -0.60552967 0
-7.8259578 1.9730058 -0.58489639 0
-7.8817477 2.6096895 -0.6505093 0
-8.6085119 1.5163636 -0.73631042 0
-7.7259336 1.9477886 -0.71838588 0
-7.6693573 2.5393658 -0.7759102 0
-8.3240395 1.4662547 -0.86167228 0
-7.5929971 1.914274 -0.84458971 0
-7.535182 1.8996981 -0.9759137 49
-7.5406303 1.9010718 -1.1142498 41
-7.5167756 1.8950577 -1.249299 44
-7.4375691 1.8750889 -1.3718128 47
-7.4744439 1.8843855 -1.5160851 4
-7.6759214 1.9351801 -1.6972101 4
-8.3875456 2.1145878 -2.0079837 5
-7.7367573 1.9505174 -1.9930471 7
-5.4648361 1.3777423 -1.9388124 5
-1.5397745 0.38819325 -0.74020553 15
-2.0553615 0.5327009 0.56047714 18
-3.8739676 1.0040405 0.77333754 6
-4.9352856 1.2791088 0.71325994 23
-6.3186736 1.6376501 0.56671542 4
-10.518109 2.7260439 0.55898517 6
-12.890511 3.3409142 0.44942933 7
-11.17655 3.783052 0.32814544 42
-13.571327 2.4834611 0.3024902 14
-14.127354 3.6614747 0.23384888 3
-11.184086 3.7856028 0.11952927 45
-16.112303 2.9484425 0.069183946 5
-18.427135 4.775876 -0.031562869 32
-11.184341 3.7856891 -0.089029387 48
-18.373217 3.3621745 -0.25103363 29
-18.365644 4.7599387 -0.36693972 76
-11.165947 3.7794628 -0.29756856 45
-18.377779 3.3630092 -0.5815866 38
-18.36034 4.758564 -0.70311147 47
-11.155425 3.7759018 -0.50596344 78
-18.333368 3.3548825 -0.90991026 43
-8.3898077 2.174439 -0.47469857 2
-8.2294035 2.7854984 -0.52681756 6
-8.7117519 1.5941917 -0.58932906 0
-7.7740798 2.0148568 -0.58200514 2
-7.9171476 2.6798055 -0.6548835 0
-8.3787022 1.5332458 -0.71750814 0
-7.7205572 2.0009851 -0.71910429 0
-7.6938329 2.6042178 -0.78011668 0
-8.1536417 1.4920614 -0.84503925 0
-7.5955324 1.9685817 -0.84630549 0
-7.5301003 1.9516232 -0.97691053 55
-7.5316887 1.9520348 -1.1148171 39
-7.5155091 1.9478415 -1.2512083 44
-7.4287806 1.9253634 -1.372517 42
-7.4465842 1.9299778 -1.5129974 3
-7.6212716 1.9752526 -1.6879861 4
-8.3544769 2.165282 -2.0034614 5
-7.7123809 1.998866 -1.990139 6
-5.4555779 1.4139563 -1.9388124 5
-1.537166 0.39839691 -0.74020553 16
-2.0291708 0.54105848 0.55435169 17
-3.8592744 1.0290377 0.77181971 6
-4.945374 1.3186356 0.71603096 26
-6.3378911 1.6899365 0.56948328 3
-10.464083 2.7901452 0.55713558 10
-13.349719 3.5595717 0.46629474 5
-11.183871 3.8727622 0.32914624 42
-13.628303 2.5923448 0.30415609 11
-14.151686 3.7734087 0.23468199 3
-11.187621 3.8740606 0.11985319 46
-16.126692 3.0675828 0.069336005 7
-18.401073 4.9064665 -0.031576134 35
-11.191657 3.875458 -0.089300819 45
-18.384661 3.4970887 -0.25151742 35
-18.359016 4.8952518 -0.36748117 95
-11.165739 3.8664832 -0.29827514 47
-18.385275 3.4972055 -0.58258224 39
-18.361431 4.895896 -0.70444506 49
-11.155227 3.862843 -0.50716525 74
-18.329124 3.4865246 -0.91088551 53
-8.266366 2.2041457 -0.46857342 4
-11.160137 3.8645434 -0.71614259 50
-8.4337912 1.6042566 -0.57126945 3
-7.7790985 2.0742204 -0.58345073 7
-7.9208555 2.7428417 -0.65675819 0
-8.1093597 1.542544 -0.69534832 4
-7.7063999 2.054836 -0.71910429 0
-7.7168517 2.672199 -0.78432322 0
-7.9280171 1.5080494 -0.82272667 10
-7.5816045 2.0215607 -0.84630549 0
-7.5354667 2.0092583 -0.97940266 52
-7.529355 2.0076289 -1.1165192 41
-7.5093594 2.0022972 -1.2524811 43
-7.4227672 1.9792082 -1.3739254 44
-7.4367218 1.982929 -1.5137693 3
-7.6224127 2.0324416 -1.6913402 4
-8.3542175 2.2275703 -2.0070794 4
-7.6794896 2.0476606 -1.9852921 5
-5.4528837 1.453958 -1.9414148 6
-1.5238382 0.40631652 -0.73513561 16
-2.0439937 0.56032401 0.55945623 18
-3.8519964 1.0559554 0.77181971 7
-4.9475093 1.3562706 0.71769357 30
-6.3182521 1.7320349 0.56879127 3
-10.544517 2.8905892 0.56247884 7
-13.374664 3.6664233 0.46804875 7
-11.179176 3.9587538 0.32981342 43
-13.582409 2.6820023 0.30354235 24
-14.310143 3.922868 0.23775811 11
-11.182925 3.9600813 0.12009614 45
-16.1402 3.1870673 0.069488056 4
-18.416523 5.0485578 -0.031662352 30
-11.194492 3.9641776 -0.089542091 51
-18.371571 3.627677 -0.25167868 36
-18.355249 5.0317612 -0.36809996 50
-11.172399 3.9563537 -0.29918358 46
-18.376101 3.6285715 -0.58308005 38
-18.369211 5.0355883 -0.70607501 52
-11.146823 3.9472966 -0.50802368 71
-18.327856 3.6190448 -0.91205585 48
-8.1814423 2.242795 -0.46463582 40
-11.14794 3.9476924 -0.71711099 50
-8.2383547 1.6267574 -0.55878705 9
-7.8105998 2.1411352 -0.58692026 2
-7.9278269 2.8073907 -0.65894526 0
-7.9654403 1.5728674 -0.68393266 12
-7.688025 2.1075337 -0.71874505 0
-7.7092676 2.7299948 -0.78547043 0
-7.7806559 1.5363796 -0.80852771 2
-7.5749774 2.0765436 -0.84716338 0
-7.5365663 2.0660138 -0.98139638 50
-7.5151563 2.0601447 -1.1165192 38
-7.5066237 2.0578055 -1.2543905 43
-7.4201612 2.0341036 -1.3760381 41
-7.407557 2.0306482 -1.5106815 255
-7.6344414 2.0928447 -1.6972101 4
-8.323431 2.2817187 -2.0034614 8
-7.6724925 2.1032755 -1.9872309 4
-5.4462481 1.4929907 -1.942716 6
-1.5279573 0.41886199 -0.73851556 23
-2.0437546 0.5756287 0.56047714 17
-3.8331897 1.0796275 0.76954293 8
-4.956985 1.3961474 0.72046459 23
-6.2983346 1.7739418 0.56809932 3
-10.574065 2.9782121 0.56515044 6
-13.371829 3.7662096 0.4688583 8
-11.177586 4.0462298 0.3305918 46
-13.755325 2.8160613 0.30783859 9
-14.201563 3.9999063 0.23641232 9
-11.181334 4.0475869 0.12037957 46
-15.945134 3.2643702 0.068744689 9
-18.43088 5.1911039 -0.031748571 32
-11.185349 4.0490403 -0.089692883 44
-18.381063 3.7630661 -0.25216246 37
-18.362019 5.1717091 -0.36895078 45
-11.185865 4.0492272 -0.30029392 44
-18.373821 3.7615836 -0.58382684 38
-18.368235 5.1734595 -0.70740867 46
-11.149055 4.0359025 -0.50939721 69
-18.3452 3.7557237 -0.91420138 47
-8.3885622 2.3626599 -0.47732362 2
-11.157652 4.0390143 -0.71953207 50
-8.1016741 1.6586165 -0.55028838 9
-7.7993007 2.1966927 -0.58720934 2
-7.9605298 2.8816721 -0.66331953 1
-7.8800721 1.6132491 -0.67755336 1
-7.692297 2.1665549 -0.72054106 0
-7.7873635 2.8189867 -0.79541308 0
-7.7307553 1.5826801 -0.8044709 0
-7.5564675 2.1282983 -0.84673446 0
-7.5334196 2.1218066 -0.98289162 51
-7.5272689 2.1200743 -1.1204906 42
-7.4996767 2.1123028 -1.2556633 44
-7.41715 2.0890591 -1.3781507 37
-7.4347553 2.0940177 -1.5191729 255
-7.6347027 2.1503334 -1.7005643 3
-8.3185501 2.3429406 -2.0061748 6
-7.6576214 2.1567886 -1.9872309 5
-5.4320512 1.529951 -1.9414148 5
-1.5145267 0.42657027 -0.73344564 21
-2.0359709 0.5888083 0.55945623 18
-3.8142407 1.1030887 0.76726621 7
-4.9585338 1.4340214 0.7221272 26
-6.2857966 1.8178693 0.56809932 4
-10.549178 3.0508509 0.56494498 6
-11.958845 3.4585302 0.420151 16
-11.186565 4.1380372 0.33170378 46
-13.876166 2.9418747 0.31099501 14
-11.906487 3.4433885 0.19860172 14
-11.186565 4.1380372 0.120744 46
-16.148912 3.4237175 0.069724582 3
-11.846519 3.4260454 -0.020447221 14
-11.18307 4.1367445 -0.089903995 48
-18.385645 3.8979256 -0.2525925 31
-12.001835 3.4709632 -0.2416357 2
-11.176075 4.1341572 -0.30079862 45
-18.366671 3.8939028 -0.58444911 38
-11.992 3.4681187 -0.46276438 16
-11.154342 4.1261172 -0.5109424 61
-18.334166 3.8870113 -0.9149816 46
-8.3910475 2.4267137 -0.4784174 3
-11.159139 4.127892 -0.72146887 48
-8.043045 1.7051992 -0.54710138 1
-7.83743 2.2666059 -0.5912571 1
-11.145478 4.122839 -0.93108439 46
-7.8725176 1.669046 -0.67788911 0
-7.6922927 2.2246318 -0.72197783 0
-7.7749624 2.8760467 -0.79617792 0
-7.7000537 1.6324821 -0.80244249 0
-7.5643473 2.1876297 -0.84930807 0
-7.5298605 2.1776559 -0.98438692 54
-7.5389109 2.1802733 -1.1244619 40
-7.4961281 2.1679003 -1.2575725 43
-7.4175148 2.1451652 -1.3809676 31
-7.4350362 2.1502326 -1.5222607 255
-7.6533194 2.2133605 -1.7081112 1
-8.2982473 2.3998754 -2.0052702 4
-7.634922 2.20804 -1.9852921 5
-5.4139709 1.565735 -1.9388124 6
-1.5393738 0.44519106 -0.74696535 15
-2.0392263 0.60520744 0.56149805 17
-3.8177426 1.1330407 0.76954293 7
-4.9597955 1.4719824 0.72378981 26
-6.2882347 1.8662405 0.56948328 4
-10.585069 3.1414673 0.56802762 7
-11.677633 3.4657216 0.41111115 16
-11.187326 4.2273407 0.33259338 44
-13.929507 3.0549538 0.3126609 13
-11.609933 3.4456294 0.19405164 12
-11.194819 4.2301717 0.12114891 44
-15.855026 3.4772496 0.068558842 2
-11.561556 3.431272 -0.019996228 13
-11.187592 4.2274408 -0.090175427 45
-18.37752 4.0304708 -0.25286129 29
-11.766444 3.4920793 -0.23738155 15
-11.173125 4.2219744 -0.30150518 41
-18.381996 4.0314527 -0.58581811 37
-11.714581 3.4766874 -0.45298454 29
-11.155169 4.2151895 -0.51231587 70
-18.337801 4.02176 -0.91654199 47
-8.4351654 2.5034127 -0.48191747 2
-11.152459 4.2141652 -0.72292149 48
-8.019249 1.7587438 -0.54630464 6
-7.8749619 2.3371539 -0.59530479 0
-11.164919 4.2188735 -0.93514615 49
-7.8412066 1.7196964 -0.67621028 0
-7.7109485 2.2884774 -0.72521055 0
-11.147839 4.212419 -1.1445535 42
-7.6962433 1.6879038 -0.80325383 0
-7.5717673 2.2471709 -0.85188174 0
-7.506866 2.2279093 -0.98339009 23
-7.5462823 2.2396076 -1.1278659 39
-7.4921689 2.2235477 -1.2594818 44
-7.4136834 2.2002544 -1.3830802 21
-7.4386578 2.2076664 -1.5261203 255
-7.6826758 2.2800868 -1.7181736 0
-8.2738218 2.4555287 -2.0034614 4
-7.6193223 2.2612844 -1.9852921 5
-5.3992829 1.6024147 -1.9375112 6
-1.5188503 0.4507688 -0.73851556 14
-2.0571511 0.62618667 0.56762344 17
-3.8097394 1.1596659 0.76954293 5
-4.9418187 1.5042653 0.7226814 30
-6.2826772 1.912416 0.57017523 4
-10.593451 3.2245946 0.56967169 6
-11.389265 3.4668362 0.40180144 17
-11.176193 4.3125367 0.33314937 43
-13.954643 3.1627331 0.31371304 16
-11.329242 3.4485655 0.18975788 12
-11.191136 4.3183026 0.12143234 47
-16.041019 3.6355972 0.069471158 3
-11.288588 3.4361906 -0.019565132 15
-11.183928 4.3155217 -0.09038654 39
-18.391842 4.1683965 -0.25345257 34
-11.473963 3.4926181 -0.23196717 28
-11.195607 4.3200278 -0.30291834 27
-18.365103 4.1623363 -0.58619148 39
-11.418519 3.4757411 -0.44246382 20
-11.14784 4.3015966 -0.51334602 67
-9.0124197 2.042609 -0.45115164 0
-8.4977226 2.5866649 -0.48651132 2
-11.148841 4.3019824 -0.72461623 49
-7.9834208 1.8093927 -0.54471111 2
-7.8851695 2.4002068 -0.59732866 0
-11.150075 4.3024583 -0.93639594 48
-7.8367844 1.7761585 -0.67688185 0
-7.7062173 2.3457346 -0.72628814 0
-11.147877 4.30161 -1.1476128 36
-7.6648674 1.7371945 -0.80122542 0
-7.5596991 2.3011353 -0.85231072 1
-7.5290971 2.29182 -0.98837429 30
-7.5456152 2.2968481 -1.1301353 37
-7.4953527 2.2815485 -1.262664 44
-7.428277 2.261131 -1.388714 17
-7.4343286 2.2629731 -1.5284361 255
-7.7039866 2.3450556 -1.726559 0
-8.2602043 2.5143657 -2.0043659 4
-7.5884991 2.309902 -1.9814146 6
-5.3807273 1.6378669 -1.9349087 5
-1.5156664 0.46136138 -0.73851556 14
-2.0490372 0.63938087 0.56660253 16
-3.7978013 1.1850647 0.76878405 8
-4.9463229 1.543449 0.72489822 25
-6.2767811 1.9586047 0.57086718 4
-10.593561 3.3056114 0.57090473 10
-11.200686 3.4950581 0.39599973 35
-11.808018 4.651299 0.35294262 14
-13.932222 3.2600777 0.31371304 21
-11.190352 3.4918339 0.18783532 27
-15.258066 6.0103087 0.16601287 20
-16.206089 3.7921524 0.070299 2
-11.191773 3.4922774 -0.019439118 37
-18.410582 7.2521162 -0.14919659 35
-18.393446 4.3039842 -0.25388262 47
-11.189695 3.4916291 -0.22670749 37
-18.420124 7.2558751 -0.49974963 36
-18.390095 4.3031998 -0.5879339 41
-11.187922 3.4910758 -0.43446213 49
-11.158442 4.3954244 -0.51523459 1
-8.986269 2.1027467 -0.4505665 1
-8.6014633 2.6839979 -0.4935115 3
-18.381065 7.24049 -1.1979289 48
-7.9045286 1.8496243 -0.54019618 0
-7.8796463 2.4587622 -0.59819603 0
-18.362274 7.2330875 -1.5462874 42
-7.8086691 1.8271936 -0.67553878 0
-7.712471 2.4065969 -0.72844326 0
-18.371229 7.2366147 -1.8963718 40
-7.6680517 1.7942897 -0.80284816 0
-7.5662279 2.3609633 -0.85488439 1
-7.531857 2.3502381 -0.99086642 51
-7.5407352 2.3530085 -1.1318372 35
-7.4980907 2.3397019 -1.265846 46
-7.438622 2.3211451 -1.3936435 8
-7.4408283 2.3218336 -1.5330677 186
-9.0240459 2.8158603 -2.0267572 2
-8.2387304 2.5708106 -2.0034614 5
-7.5684834 2.3616672 -1.9804453 5
-5.365551 1.6742648 -1.9336075 6
-1.5054867 0.46977159 -0.73513561 16
-2.0371559 0.65131474 0.56456071 19
-3.7969172 1.2139416 0.77030188 9
-4.9542933 1.5839752 0.72766918 22
-6.2667503 2.0035908 0.57121319 5
-10.665351 3.4099011 0.57604247 9
-11.187436 3.5768211 0.3964045 37
-11.137152 4.4771047 0.33381656 6
-13.986872 3.3760295 0.31546661 27
-11.192369 3.5783982 0.18828392 28
-15.249136 6.1301112 0.16637729 19
-16.253099 3.9230318 0.07062 2
-11.186171 3.5764165 -0.019472281 34
-18.415171 7.4028482 -0.14964899 33
-18.370728 4.4341669 -0.25399011 31
-11.15362 3.5660093 -0.22647545 71
-18.420961 7.4051762 -0.50116277 36
-18.375151 4.4352345 -0.58843172 38
-11.170893 3.5715318 -0.43475848 55
-18.346811 7.3753686 -0.84951043 35
-8.963604 2.1635568 -0.45017639 1
-8.5102339 2.7208722 -0.48935515 3
-18.359705 7.3805509 -1.1998657 67
-7.8759046 1.9010174 -0.53913385 0
-7.94209 2.5392265 -0.60426766 0
-10.778116 4.3327732 -0.91015059 4
-7.7995977 1.8825992 -0.67587453 0
-7.699276 2.4615946 -0.72880244 0
-18.375675 7.386971 -1.9021081 38
-7.6476016 1.8459117 -0.80203676 0
-7.5647135 2.4185724 -0.85660017 2
-7.5379481 2.4100151 -0.99385697 39
-7.5392108 2.4104187 -1.1341066 35
-7.4966202 2.3968019 -1.2683917 38
-7.4372382 2.3778164 -1.3964603 5
-7.4506068 2.3820906 -1.5384713 71
-8.9929924 2.8752184 -2.0242417 2
-8.1983137 2.6211457 -1.9980344 6
-7.5592046 2.4168112 -1.982384 5
-5.3501287 1.7105306 -1.9323063 6
-1.4918107 0.47695822 -0.7300657 15
-2.0619633 0.67514879 0.57272798 17
-3.7771525 1.2367532 0.7680251 9
-5.5868864 1.8293145 0.822438 22
-6.282907 2.0572124 0.57398099 5
-11.11963 3.6409009 0.60193664 20
-11.192586 3.664789 0.39748389 37
-10.820771 4.4379201 0.32525429 8
-13.990127 3.4803522 0.31608033 27
-11.201323 3.6676495 0.18886068 26
-15.250375 6.2546329 0.16686317 20
-18.391277 4.5752354 0.080047265 37
-11.172334 3.6581578 -0.019492177 36
-18.418552 7.553997 -0.15010138 35
-18.3859 4.5738978 -0.25463519 34
-11.151257 3.6512563 -0.22693954 70
-18.41321 7.5518055 -0.50237405 36
-18.374779 4.5711308 -0.58942735 36
-11.16468 3.6556516 -0.43549937 57
-18.365128 7.5320859 -0.85277247 42
-8.9560347 2.2280109 -0.4505665 1
-8.3505898 2.7342339 -0.48126122 1
-18.381613 7.5388465 -1.2047077 51
-7.850822 1.9530648 -0.53833711 0
-7.9355431 2.5983353 -0.60513502 0
-10.511476 4.311069 -0.89015412 10
-7.7978683 1.9398915 -0.67688185 0
-7.7121916 2.5252032 -0.73167604 0
-18.378916 7.5377407 -1.9078442 41
-7.6152201 1.8944536 -0.80000836 0
-7.5703211 2.4787505 -0.85917377 3
-7.5511127 2.4724612 -0.99784434 45
-7.5523028 2.4728508 -1.1386453 35
-7.509728 2.4589107 -1.2734832 40
-7.4765868 2.4480591 -1.4070235 3
-7.444984 2.4377115 -1.5407871 19
-8.9689827 2.9367144 -2.0234032 2
-8.1798143 2.6783171 -1.9980344 8
-7.5273952 2.4646952 -1.9785064 5
-5.341651 1.7490171 -1.9336075 6
-1.5160083 0.49638665 -0.74358547 13
-2.0608666 0.69075656 0.57374889 18
-3.7795978 1.2668369 0.77030188 8
-5.6152959 1.8821219 0.82853425 22
-6.2570567 2.0972259 0.57294303 5
-11.12803 3.7298675 0.60378623 22
-11.193262 3.7517319 0.39842835 39
-10.586644 4.4284887 0.31913841 4
-13.980984 3.5819068 0.31643105 29
-11.198197 3.753386 0.18924521 27
-15.254308 6.3810148 0.16738956 17
-18.401512 4.7144394 0.080233105 37
-11.203412 3.7551339 -0.019591661 37
-18.424406 7.7070956 -0.15058392 35
-18.392267 4.7120705 -0.25517273 30
-11.152038 3.7379146 -0.22748098 82
-18.415375 7.7033172 -0.50388813 36
-18.381147 4.7092218 -0.59067196 39
-11.165417 3.7423987 -0.43653664 59
-18.36371 7.681706 -0.85517609 45
-8.8976898 2.2795744 -0.44842094 1
-11.160152 3.7406342 -0.64467126 48
-18.376417 7.6870213 -1.2078551 48
-7.8408618 2.0088167 -0.53860271 0
-7.9550371 2.6663511 -0.60802621 0
-10.286142 4.3027859 -0.87359458 8
-7.7725525 1.991316 -0.67587453 0
-7.7245932 2.5891113 -0.73454958 0
-18.369923 7.6843042 -1.9124331 36
-7.6056633 1.9485594 -0.80041403 0
-7.5754561 2.539124 -0.86174744 6
-7.5675359 2.5364692 -1.0023302 37
-7.5611348 2.5343239 -1.1426166 37
-7.5148444 2.5188084 -1.2773017 35
-7.4593143 2.5001957 -1.4070235 2
-7.4352274 2.4921224 -1.542331 2
-8.9334288 2.9942861 -2.0200489 2
-7.8099499 2.6177211 -1.9121071 2
-7.5063257 2.5159531 -1.977537 6
-5.336483 1.7886702 -1.9362099 6
-1.4987558 0.5023495 -0.73682559 15
-2.0450191 0.70136333 0.57068616 17
-3.7780912 1.2957407 0.77181971 7
-5.5832834 1.9148526 0.82576323 18
-6.2648797 2.1486142 0.57501894 5
-11.128169 3.8165364 0.60522479 23
-11.204612 3.8427532 0.39977759 35
-10.50398 4.4803276 0.31758165 3
-13.986572 3.6875815 0.31713247 28
-11.19442 3.8392577 0.18962972 27
-15.257217 6.5077553 0.16791594 18
-18.399094 4.8509493 0.080368266 39
-11.203408 3.8423405 -0.019638086 37
-18.410624 7.852797 -0.15091567 36
-18.382126 4.8464756 -0.25549525 34
-11.140802 3.820869 -0.22779037 90
-18.423674 7.8583636 -0.50560409 36
-18.371019 4.8435473 -0.59141868 39
-11.173048 3.8319278 -0.43787026 58
-18.364773 7.83324 -0.85775143 46
-8.8854208 2.3426552 -0.448616 1
-11.171546 3.8314128 -0.64685881 54
-18.388411 7.8433223 -1.212213 52
-7.8266463 2.0635076 -0.53860271 0
-7.9437761 2.7244112 -0.60860449 0
-10.065114 4.2931352 -0.85734749 8
-7.7815857 2.0516272 -0.67788911 0
-7.7440138 2.6559002 -0.73814148 0
-18.370764 7.8357954 -1.9181693 36
-7.6072664 2.0056677 -0.80203676 0
-7.5876398 2.6022701 -0.865179 10
-7.5721679 2.5969639 -1.0053207 35
-7.5807118 2.599894 -1.14829 35
-7.5232253 2.5801785 -1.2817566 38
-7.4900966 2.5688167 -1.4161783 2
-7.4510603 2.5554285 -1.5492784 1
-8.3684673 2.8700643 -1.8967832 2
-7.8025417 2.6759732 -1.9148206 4
-7.4959197 2.5708137 -1.9794759 5
-5.3167105 1.8234282 -1.9336075 6
-1.4986416 0.51397675 -0.73851556 14
-2.0364232 0.71434289 0.56966525 17
-3.7689533 1.3220851 0.77181971 6
-5.610898 1.9682084 0.83185947 19
-6.2534871 2.1936178 0.57536495 5
-11.13518 3.906033 0.60707438 25
-11.188829 3.9248524 0.40018237 34
-10.578782 4.5997868 0.32080638 26
-13.987507 3.7924547 0.31774622 30
-11.197536 3.9279068 0.19014241 28
-15.270101 6.6396303 0.1685638 20
-18.407246 4.9907856 0.080554105 44
-11.198958 3.9284055 -0.019677879 37
-18.432383 8.0146294 -0.15154901 39
-18.390308 4.9861932 -0.25608656 33
-11.144047 3.9091434 -0.22840916 69
-18.416035 8.0075216 -0.50691634 36
-18.379206 4.9831829 -0.59278768 38
-11.172427 3.9190989 -0.4389075 55
-18.360947 7.9835687 -0.86015505 41
-8.8958435 2.4119442 -0.44998136 1
-11.163369 3.9159217 -0.64795262 54
-18.377142 7.9906106 -1.2151182 49
-7.8120503 2.1180935 -0.53860271 0
-7.9471507 2.7877264 -0.61033922 0
-9.8081608 4.2647104 -0.83797592 8
-7.7670741 2.1058991 -0.67788911 0
-7.7628756 2.7230856 -0.74173343 0
-18.35943 7.9829092 -1.9227582 40
-7.6046019 2.0618477 -0.80325383 0
-7.6068149 2.6683424 -0.86946845 3
-7.576324 2.6576467 -1.0083113 38
-7.592267 2.663239 -1.1528287 36
-7.5273871 2.6404805 -1.2855752 37
-7.4571185 2.6158314 -1.4133615 5
-7.4589639 2.6164787 -1.554682 1
-8.3113203 2.9154708 -1.8883978 2
-7.802053 2.7368286 -1.9193431 5
-7.4668036 2.6192286 -1.9765677 4
-5.3038507 1.8605014 -1.9336075 7
-1.4847536 0.52082652 -0.73344564 15
-2.05687 0.73768187 0.57681161 18
-3.7744188 1.3536686 0.77485538 6
-5.585834 2.00332 0.83019686 19
-6.2605271 2.2452936 0.5774408 6
-11.141481 3.9958134 0.60892391 22
-11.191259 4.0136662 0.40126175 37
-10.95584 4.8549619 0.33326057 25
-13.976098 3.8943071 0.31809694 28
-11.19243 4.0140858 0.19052692 25
-15.25263 6.759038 0.16888773 16
-18.398928 5.1266861 0.080672368 45
-11.190085 4.0132451 -0.01971104 36
-18.427177 8.1658039 -0.15197124 39
-18.389727 5.1241226 -0.25657034 31
-11.157893 4.0016994 -0.22925998 88
-18.418177 8.1618156 -0.50853133 36
-18.374779 5.1199574 -0.59378338 37
-11.171132 4.0064478 -0.43994477 61
-18.374182 8.1423197 -0.86341709 48
-8.8287554 2.4600487 -0.44744569 0
-11.158317 4.0018511 -0.64926511 54
-18.375666 8.1429768 -1.2187498 51
-7.8047624 2.1747229 -0.53913385 0
-7.904963 2.8350589 -0.60860449 0
-9.5922108 4.2506843 -0.82204127 5
-7.7944179 2.1718404 -0.68158239 0
-7.784925 2.7920082 -0.74568456 0
-18.376057 8.1431503 -1.9304063 42
-7.5938549 2.1159556 -0.8036595 0
-7.6329231 2.7374938 -0.87461579 4
-7.5874724 2.7211933 -1.0122987 36
-7.5921249 2.722862 -1.1556654 34
-7.5459418 2.7062986 -1.2919394 31
-7.4535003 2.6731451 -1.4161783 39
-7.4737649 2.6804128 -1.5616294 2
-8.2760372 2.9681423 -1.8850436 3
-7.8084302 2.8004382 -1.9256746 5
-7.4264183 2.6634324 -1.9707514 6
-5.2764912 1.8923762 -1.9284027 6
-1.484494 0.53240329 -0.73513561 15
-2.0407763 0.74802947 0.57374889 18
-3.7611892 1.3786325 0.77409649 7
-5.5642743 2.0395384 0.82908845 22
-6.2409587 2.2875712 0.57709479 6
-11.154572 4.0886154 0.61118454 24
-11.189242 4.1013231 0.40220621 37
-10.961764 4.949429 0.33448374 27
-13.987018 4.0027866 0.31897372 29
-11.201687 4.1058846 0.19116777 26
-15.267043 6.8933377 0.16957608 12
-18.404991 5.2671165 0.080858216 38
-11.195598 4.103653 -0.01977073 35
-18.417112 8.315649 -0.1523633 36
-12.020334 3.4399636 -0.16803664 7
-11.14846 4.0863752 -0.22964673 110
-18.422703 8.3181734 -0.51024729 37
-11.961786 3.4232085 -0.38730955 15
-11.16541 4.0925875 -0.44083384 58
-18.371525 8.2950659 -0.86599243 44
-9.4950724 2.7172875 -0.48216468 1
-11.156358 4.0892696 -0.65079641 53
-18.376591 8.2973528 -1.2226235 51
-7.785553 2.2280595 -0.53886831 0
-11.162583 4.0915513 -0.86158735 46
-9.3951159 4.2420597 -0.80766881 1
-7.7637377 2.2218165 -0.68023938 0
-7.8138714 2.8641093 -0.75035405 0
-18.369562 8.2941799 -1.9357601 40
-7.6095047 2.1776781 -0.80690497 1
-7.6920409 2.8194532 -0.8836236 16
-7.616734 2.7918503 -1.0187782 33
-7.6101089 2.7894218 -1.1613388 33
-7.560236 2.7711413 -1.2976673 33
-7.4605365 2.7345974 -1.4211079 34
-7.4880366 2.7446773 -1.5685768 3
-7.9503231 2.9141245 -1.8154446 2
-7.7923479 2.85622 -1.926579 4
-7.4076443 2.71521 -1.9707514 6
-5.2738061 1.9330696 -1.9323063 6
-1.4977612 0.54899186 -0.74358547 15
-2.0499921 0.76768392 0.57783252 17
-3.7477953 1.4034797 0.77333754 8
-5.5684495 2.0852809 0.83185947 20
-6.2397637 2.3366756 0.57847875 7
-11.159427 4.178998 0.61303413 23
-11.194033 4.191957 0.40342051 37
-13.466155 6.1937351 0.41221118 2
-11.863771 3.4849482 0.27110136 19
-11.195223 4.1924028 0.1915523 25
-15.262157 7.0198035 0.17006196 18
-11.820462 3.4722264 0.05203579 19
-11.204136 4.1957407 -0.019837053 33
-18.424025 8.4740982 -0.15290616 40
-11.738913 3.4482713 -0.16443509 13
-11.149623 4.1753263 -0.23026551 63
-18.422314 8.4733124 -0.51186234 35
-11.676749 3.430011 -0.37884647 15
-11.166513 4.1816521 -0.44201928 56
-18.374893 8.4515009 -0.86891109 43
-9.2497082 2.7170746 -0.47065669 1
-11.168682 4.1824641 -0.65320271 52
-18.379887 8.4537973 -1.2267392 48
-7.8004427 2.2913573 -0.54099298 0
-11.167372 4.1819735 -0.86418945 49
-18.389992 8.4584455 -1.5859679 41
-7.7442136 2.2748401 -0.67990363 0
-7.8198009 2.9283702 -0.75286841 0
-18.379948 8.453826 -1.9430259 40
-7.5673895 2.2228987 -0.80406523 0
-7.6833425 2.877269 -0.8849104 11
-7.6305094 2.8574839 -1.0232639 33
-7.6349468 2.8591459 -1.1681468 29
-7.5628948 2.8321636 -1.3014858 23
-7.4818258 2.8018048 -1.4288542 32
-7.4944215 2.8065217 -1.5739805 3
-7.9371104 2.9723003 -1.8171216 2
-7.7941117 2.91875 -1.932006 3
-7.3848734 2.7654979 -1.969782 5
-5.2530985 1.9671876 -1.9297038 5
-1.4735208 0.55180615 -0.73344564 15
-2.0373578 0.77921367 0.5757907 16
-3.7415738 1.431013 0.77409649 10
-5.5389557 2.1184447 0.82964265 20
-6.2195768 2.378757 0.57813275 8
-11.167291 4.2710738 0.61508924 23
-11.198099 4.2828569 0.40463483 35
-12.336324 5.7787533 0.37885177 0
-11.574955 3.4880726 0.26505157 18
-11.195566 4.281888 0.19206497 26
-15.270732 7.1533298 0.17070982 15
-11.512525 3.4692597 0.050785579 21
-11.196988 4.2824316 -0.019876847 34
-18.425993 8.631361 -0.15341887 43
-11.457974 3.452821 -0.16083354 13
-11.15382 4.2659221 -0.23096165 54
-18.417027 8.627161 -0.51337641 36
-11.403697 3.4364648 -0.37075678 14
-11.174383 4.2737865 -0.44350106 55
-18.362488 8.601614 -0.87114304 45
-9.0660248 2.7320151 -0.46226951 1
-11.169055 4.2717485 -0.65495276 50
-18.381886 8.6106997 -1.230855 51
-7.7918992 2.3480618 -0.54152411 0
-11.160262 4.2683854 -0.86592418 49
-18.377439 8.6086178 -1.5900296 40
-7.7586741 2.3380497 -0.68258965 0
-11.136883 4.2594438 -1.0750644 31
-18.385384 8.6123381 -1.9499093 40
-7.5364461 2.2710819 -0.80244249 0
-7.7485027 2.9635143 -0.89477611 66
-7.6511502 2.9262807 -1.0287466 33
-7.6517835 2.9265227 -1.1738203 29
-7.5613813 2.8919475 -1.3046678 27
-7.5098934 2.8722551 -1.438009 30
-7.5076389 2.871393 -1.5809278 1
-7.9271255 3.031831 -1.8196373 2
-7.7917423 2.980052 -1.9365286 4
-7.3690119 2.8183732 -1.9707514 6
-5.2498355 2.0078669 -1.9336075 6
-1.4560875 0.55689937 -0.72668576 14
-2.035471 0.7948249 0.57681161 16
-3.7168591 1.4513851 0.77106082 9
-5.5314112 2.1599441 0.83075106 21
-6.1879702 2.4163218 0.57674885 9
-11.178133 4.3649154 0.6173498 23
-12.95539 5.0589113 0.46939799 3
-12.201846 5.8199806 0.37596062 5
-11.305789 3.4932411 0.25944015 17
-14.600334 5.7012405 0.25115204 2
-15.25652 7.2769847 0.17111473 17
-11.235793 3.4716139 0.049670529 18
-18.432516 7.1976571 -0.032809731 31
-18.430269 8.7907848 -0.15396172 39
-11.196665 3.4595239 -0.15750076 27
-11.16847 4.3611422 -0.23188983 50
-18.421314 8.7865133 -0.51519334 38
-11.192254 3.4581614 -0.36465842 42
-11.170339 4.3618717 -0.44453833 26
-18.36331 8.7588472 -0.87406176 41
-8.8406029 2.7315524 -0.45173681 1
-11.183605 4.3670521 -0.65757781 5
-18.37538 8.7646036 -1.2344865 49
-7.8020105 2.4106503 -0.54338318 0
-11.156205 4.3563533 -0.86794806 10
-18.378078 8.7658911 -1.5953412 40
-7.7764363 2.4027486 -0.68561143 0
-11.125429 4.3443356 -1.0768604 55
-18.385902 8.7696238 -1.9564103 34
-7.5812397 2.342437 -0.80893344 0
-7.731329 3.0189834 -0.89520508 2
-7.6970797 3.0056095 -1.0377183 27
-7.6828022 3.0000341 -1.1817629 27
-7.5741143 2.9575932 -1.3103957 25
-7.5556784 2.9503942 -1.450685 255
-7.4800978 2.9208808 -1.579384 0
-8.7327747 3.4100349 -2.0099864 4
-7.785265 3.0400448 -1.9401466 4
-7.3491559 2.8697498 -1.9707514 5
-5.2356896 2.0444686 -1.9336075 5
-1.4555413 0.56836993 -0.72837573 6
-2.0370576 0.81187958 0.57885343 16
-3.735822 1.4889306 0.77713215 8
-5.5161967 2.198508 0.83075106 19
-6.2042665 2.4727416 0.57986265 7
-11.833895 4.7164583 0.65536904 26
-11.081504 4.4165893 0.40261099 20
-12.060206 5.8561206 0.37284708 3
-11.174376 3.5382838 0.25698516 43
-12.665383 5.0478525 0.21846831 3
-15.280905 7.4200072 0.17196503 13
-11.173148 3.5378952 0.049501579 48
-18.418974 7.3409743 -0.032876052 57
-18.418823 8.9436979 -0.15438396 36
-11.172239 3.5376072 -0.15750076 37
-18.370975 7.3218446 -0.3824867 48
-18.435062 8.9515839 -0.51731306 37
-11.167839 3.5362139 -0.36465842 45
-18.369225 7.321147 -0.73304367 48
-18.380802 8.9252367 -0.87783885 42
-8.6575365 2.7413452 -0.44334963 0
-18.380302 7.3255625 -1.0837127 41
-18.385576 8.9275541 -1.2393286 49
-7.8230395 2.477108 -0.54603904 0
-10.858685 4.3277841 -0.84713119 8
-18.38818 8.9288187 -1.60159 42
-7.7594724 2.4569798 -0.68561143 0
-18.337185 7.3083773 -1.779801 47
-18.374378 8.9221163 -1.961764 39
-7.5912571 2.4037158 -0.81177318 0
-18.331259 7.306016 -2.1284175 43
-16.631136 6.6284232 -2.2483895 2
-7.6046395 3.0308673 -1.3193057 20
-7.59342 3.0263958 -1.4619524 2
-7.5725465 3.0180767 -1.603314 0
-8.6942225 3.4651263 -2.0066323 5
-7.7891884 3.1044202 -1.946478 4
-7.321732 2.9181132 -1.9688126 5
-5.2072339 2.0753694 -1.9284027 6
-1.424595 0.56777954 -0.71485603 5
-2.042088 0.83045197 0.58191615 15
-3.7435262 1.5223726 0.7809267 5
-5.519062 2.2444265 0.83352208 20
-6.1942353 2.5189977 0.5805546 8
-11.826582 4.8094931 0.6568076 27
-11.424426 4.6459494 0.41623822 13
-12.291456 6.0748158 0.38129812 3
-11.179833 3.6260798 0.25768659 39
-14.141414 5.7508616 0.24461529 9
-15.282518 7.5530906 0.1725724 14
-11.18242 3.6269188 0.049653634 48
-18.445086 7.5010276 -0.033015329 42
-18.427652 9.1075125 -0.15498713 34
-11.177706 3.6253896 -0.15793079 38
-18.367569 7.4695044 -0.38349223 45
-18.433062 9.1101856 -0.51902902 38
-11.165697 3.6214945 -0.36540514 41
-18.369505 7.4702911 -0.73511821 44
-18.357454 9.0728178 -0.87972742 44
-11.135015 3.6115429 -0.5714978 54
-18.37681 7.4732618 -1.0865566 42
-18.387232 9.0875359 -1.2436864 47
-7.8093519 2.5328941 -0.54630464 0
-10.621252 4.319324 -0.83094025 5
-18.389748 9.0887785 -1.6072141 40
-7.7762537 2.5221589 -0.68863326 0
-18.348452 7.461729 -1.7859073 44
-8.5490017 4.2251797 -0.91587228 0
-7.6121435 2.4689312 -0.81583005 0
-18.335068 7.4562864 -2.1348517 48
-16.610191 6.7548342 -2.2518785 2
-13.926888 5.6636209 -2.1541784 2
-12.123029 4.9300489 -2.109107 1
-10.679735 4.3431072 -2.0619445 5
-9.5836325 3.8973575 -2.034827 4
-8.6661968 3.5242658 -2.0057938 5
-7.7962003 3.1704657 -1.953714 4
-7.3047762 2.9706192 -1.969782 5
-5.199626 2.114522 -1.9310051 6
-1.3332785 0.54220182 -0.67091686 2
-2.05053 0.8506158 0.58599973 13
-3.7400625 1.5514799 0.7824446 5
-5.5069175 2.2844198 0.83407629 18
-6.205946 2.5743957 0.58332247 9
-10.910847 4.5261168 0.60769087 1
-11.170156 4.6336856 0.40814283 11
-12.095145 6.0832253 0.37651661 17
-11.177017 3.7116029 0.25821266 40
-13.901432 5.7666936 0.24115466 5
-15.265147 7.6775699 0.17297731 12
-11.1834 3.7137225 0.049771897 47
-18.421829 7.6418777 -0.033068389 30
-18.424366 9.2664919 -0.15549983 36
-11.178695 3.7121599 -0.15830708 37
-18.366693 7.6190057 -0.38457513 45
-18.436886 9.272788 -0.52094686 33
-11.166702 3.7081776 -0.36627635 46
-18.375978 7.622858 -0.7374891 48
-18.365068 9.2366686 -0.88316119 42
-11.132279 3.6967466 -0.57266808 60
-18.401663 7.633512 -1.0911504 43
-18.376842 9.24259 -1.247318 47
-7.8104186 2.593641 -0.54763252 0
-10.33657 4.2878914 -0.81099075 1
-18.386408 9.2474012 -1.6125257 40
-7.784935 2.5851789 -0.69098353 0
-18.354788 7.6140676 -1.7916543 45
-8.2631826 4.1559486 -0.88833874 3
-7.6211581 2.5307925 -0.8186698 0
-18.330318 7.6039166 -2.1404281 53
-16.610287 6.8904004 -2.258358 1
-13.876039 5.7561593 -2.1524765 1
-12.091963 5.0160766 -2.1097434 2
-10.64188 4.4145422 -2.0605359 5
-9.5598164 3.9656727 -2.035599 4
-8.6449947 3.5861797 -2.0066323 4
-7.7990699 3.2352672 -1.9600455 3
-7.2802753 3.020057 -1.9688126 5
-5.1847372 2.1507707 -1.9310051 6
-1.2356954 0.51260018 -0.6235978 0
-2.1513994 0.91011488 0.61662692 8
-3.7182887 1.5729623 0.78016782 8
-5.5090775 2.3305266 0.83684731 21
-6.206172 2.6254213 0.58505237 9
-11.08501 4.6893353 0.6191994 33
-10.993943 4.6508112 0.40288082 21
-12.031026 6.1565886 0.37584943 25
-11.169767 3.7959714 0.25865105 40
-15.249496 6.4510541 0.265315 1
-12.042181 6.1622968 0.13694037 25
-11.179927 3.7994239 0.049873263 47
-18.419605 7.7921181 -0.033161238 45
-12.013969 6.1478605 -0.10175648 25
-11.167656 3.795254 -0.15852208 38
-18.371986 7.7719736 -0.3858127 44
-11.971329 6.12604 -0.33945832 21
-11.170828 3.7963316 -0.36727199 46
-18.377535 7.7743211 -0.73971176 49
-12.042373 6.162395 -0.58116263 12
-11.147813 3.7885103 -0.5748136 54
-18.373671 7.772686 -1.0926816 43
-12.042046 6.1622276 -0.82024717 24
-7.8525844 2.6686487 -0.55188185 0
-18.382471 7.7764091 -1.4464837 44
-12.020204 6.1510506 -1.0579368 24
-7.8119855 2.6548517 -0.69501257 0
-18.345215 7.7606483 -1.7959647 47
-8.0992756 4.1446099 -0.87380719 8
-7.6447511 2.5980179 -0.82313234 0
-18.34638 7.7611413 -2.1485779 50
-16.528881 6.9922776 -2.2538722 1
-13.828221 5.8498073 -2.1513419 1
-12.034827 5.0911403 -2.1059248 2
-10.574538 4.4733887 -2.053494 4
-9.5282822 4.030787 -2.034827 4
-8.6161461 3.644922 -2.0057938 5
-7.7762933 3.2896361 -1.9600455 4
-7.2625875 3.0723212 -1.969782 5
-5.1591454 2.1824934 -1.9271015 6
-1.2354256 0.52262694 -0.62528777 0
-2.152096 0.92817456 0.61866874 6
-5.2975702 2.2847819 1.1148506 19
-5.518137 2.3799095 0.84072673 21
-6.1950116 2.671838 0.58574432 11
-11.800298 5.089334 0.66112328 24
-10.803361 4.6593666 0.39707911 15
-11.867164 6.1776567 0.37206867 22
-11.165658 3.8817377 0.25917712 42
-15.240815 6.5731902 0.26595584 1
-11.835665 6.1612597 0.13507779 22
-11.168242 3.8826358 0.049940843 47
-18.405161 7.9379368 -0.033234194 61
-11.818195 6.1521654 -0.10045965 25
-11.174889 3.8849468 -0.15900588 38
-18.368696 7.9222093 -0.38689557 45
-11.779299 6.131917 -0.33521885 23
-11.181816 3.8873549 -0.36851656 43
-18.381542 7.9277501 -0.74208266 47
-11.878535 6.1835766 -0.57532525 27
-11.147509 3.875428 -0.57617897 57
-18.384979 7.9292321 -1.0966192 39
-11.860611 6.1742458 -0.81080514 28
-7.89785 2.7456853 -0.55639678 1
-18.390015 7.9314046 -1.4513988 37
-11.821331 6.1537976 -1.0441892 22
-7.8158503 2.7171779 -0.69702709 0
-18.338146 7.9090338 -1.8006341 45
-7.9571261 4.1422195 -0.86157006 11
-7.6602554 2.6630855 -0.82678348 0
-18.346529 7.9126487 -2.1550121 57
-16.424999 7.0839157 -2.2463958 1
-13.754325 5.9320836 -2.1462357 1
-11.998993 5.1750293 -2.1059248 2
-10.553899 4.5517764 -2.0556066 4
-9.4854965 4.0909867 -2.0317392 4
-8.5940819 3.7065299 -2.0066323 4
-7.8068066 3.366987 -1.9736129 4
-7.2338362 3.1198714 -1.9678433 5
-5.1437836 2.2184553 -1.9271015 6
-1.2284181 0.52980274 -0.6235978 0
-2.0676718 0.90893567 0.59620881 7
-5.2922764 2.3264518 1.1171274 28
-5.5195198 2.4263463 0.84349775 20
-6.1907997 2.721437 0.58712822 10
-11.830305 5.2005286 0.66482246 27
-10.576604 4.6494093 0.38992819 12
-11.678864 6.1836433 0.36750957 22
-11.172197 3.9716496 0.25996622 41
-15.315378 6.7325449 0.26807067 2
-11.636827 6.1613865 0.13329619 25
-11.159707 3.9672093 0.050025318 47
-18.444502 8.1080885 -0.033406634 41
-11.622953 6.1540399 -0.09916281 26
-11.177642 3.9735851 -0.15943591 38
-18.378841 8.0792236 -0.38828781 48
-11.584243 6.133544 -0.33087847 24
-11.173239 3.9720199 -0.36913884 45
-18.387955 8.083231 -0.74460167 53
-11.686741 6.1878138 -0.5681144 28
-11.142767 3.9611874 -0.57734931 71
-18.387674 8.083107 -1.1001194 44
-11.658431 6.1728244 -0.79991049 30
-7.9348984 2.8208089 -0.56038052 0
-18.381674 8.0804691 -1.4551574 40
-11.61949 6.1522059 -1.0301292 25
-7.8455133 2.7890332 -0.70139194 0
-18.340836 8.0625172 -1.8063812 47
-7.8259668 4.1436381 -0.85048014 11
-7.6864705 2.7324944 -0.83165169 0
-18.349091 8.0661459 -2.1618752 50
-16.356977 7.1904254 -2.2439036 1
-13.712576 6.0279627 -2.1462357 1
-11.958958 5.2570834 -2.1052885 2
-10.521864 4.6253457 -2.0556066 4
-9.4674835 4.1618466 -2.0340552 4
-8.5644159 3.7648637 -2.0057938 4
-7.811646 3.4339509 -1.9808489 7
-7.1976686 3.1640503 -1.9639658 5
-5.1316333 2.2558339 -1.9284027 7
-1.2711545 0.55879158 -0.64725733 0
-2.0259802 0.90753776 0.58599973 16
-5.2759061 2.363342 1.1171274 42
-5.5277529 2.4761569 0.84737718 21
-6.1825604 2.7694778 0.58816618 12
-11.811939 5.2911582 0.66584998 24
-10.007572 4.482892 0.37009448 4
-11.473468 6.1778231 0.36239445 25
-11.174268 4.0604758 0.26066765 42
-15.275304 6.8425722 0.26819885 1
-11.442098 6.1609321 0.13155508 23
-11.180614 4.0627818 0.05024495 49
-18.434904 8.2579155 -0.033492852 33
-11.42475 6.1515908 -0.097835816 24
-11.179704 4.0624509 -0.15986595 36
-18.380386 8.2334938 -0.38952538 46
-11.38975 6.1327453 -0.32653809 21
-11.1753 4.0608506 -0.3701345 42
-18.393091 8.2391853 -0.74712074 49
-11.495476 6.1896725 -0.56090349 27
-11.137372 4.0470691 -0.57851958 71
-18.385471 8.2357721 -1.1034007 48
-11.470922 6.1764522 -0.78998423 24
-11.141036 4.0484004 -0.78878206 53
-18.375788 8.2314339 -1.4592052 39
-11.432302 6.1556568 -1.0173191 25
-7.912014 2.8750467 -0.70911431 0
-18.331367 8.2115355 -1.8110508 59
-7.6671362 4.1283255 -0.83633095 11
-7.7120886 2.8023982 -0.8365199 2
-18.339516 8.2151861 -2.1674514 49
-16.273783 7.2898412 -2.239418 1
-13.626797 6.1041236 -2.1394277 1
-11.896737 5.329143 -2.1008334 2
-10.478537 4.6938605 -2.053494 3
-9.409543 4.2150049 -2.0278797 4
-8.5200768 3.8165681 -2.001601 5
-7.7697029 3.4804382 -1.9763263 8
-7.178946 3.2158089 -1.9649351 5
-5.1054039 2.2869656 -1.924499 6
-1.2970005 0.58099139 -0.662467 0
-2.0477426 0.93450516 0.59416699 14
-5.2842884 2.411531 1.1224399 36
-5.5391626 2.5278451 0.85181081 18
-6.1848273 2.8224998 0.59024209 13
-11.814688 5.3917351 0.66811061 24
-9.6487093 4.4032726 0.35795137 5
-11.296784 6.1848063 0.35816893 22
-11.183137 4.152308 0.26154444 40
-15.274461 6.970633 0.26903194 2
-11.254964 6.1619105 0.12989494 24
-11.185724 4.1532683 0.050397001 47
-18.435026 8.4129848 -0.033598967 50
-11.220136 6.1428428 -0.096448503 17
-11.177316 4.150146 -0.16024223 36
-18.358839 8.3782158 -0.39029887 49
-11.188822 6.1256986 -0.32199582 18
-11.176661 4.1499033 -0.37113017 43
-18.382399 8.3889675 -0.7490471 50
-11.294243 6.1834154 -0.55317754 22
-11.138809 4.1358485 -0.58007997 67
-18.396563 8.3954315 -1.1075571 43
-11.276931 6.1739368 -0.77957374 26
-11.142434 4.1371946 -0.79090673 54
-18.390461 8.3926468 -1.4649876 37
-11.242139 6.1548886 -1.0041964 22
-11.135139 4.1344862 -1.0005496 31
-18.335205 8.3674307 -1.817157 57
-7.5158906 4.1148286 -0.82294661 10
-7.684875 2.8534002 -0.83570856 2
