# .PCD v0.7 - Point Cloud Data file format
VERSION 0.7
FIELDS x y z intensity
SIZE 4 4 4 4
TYPE F F F F
COUNT 1 1 1 1
WIDTH 1400
HEIGHT 1
VIEWPOINT 0 0 0 1 0 0 0
POINTS 1400
DATA ascii
0.28320804 1.9775505 -0.39291614 26
0.28111136 1.9629099 -0.42514107 26
0.27729118 1.9362348 -0.4540576 33
0.27617857 1.928466 -0.48662922 38
0.26650026 1.8608855 -0.64670455 23
0.2559545 1.7872478 -0.84160352 33
0.92919093 6.1804624 1.6497833 17
1.0451595 6.9518209 1.3584634 4
1.5348144 10.208734 1.4442544 21
1.6097165 10.706941 0.94002795 10
1.6706529 11.112255 0.57809752 10
1.6576458 11.02574 0.37630093 7
2.3524461 10.421663 0.2971212 44
1.9064311 24.832945 0.54606056 63
1.651836 10.987096 0.17803019 8
2.3549964 10.432961 0.10827278 45
1.9062599 24.830713 0.10518663 58
1.6413413 10.917292 -0.018305004 8
2.3594537 10.452708 -0.080795974 42
0.39677349 5.168324 -0.069665864 50
1.6903868 11.243515 -0.21990086 6
2.3578889 10.445775 -0.27031499 42
0.3898845 5.078589 -0.15855795 13
0.76543462 5.0912461 -0.19085512 13
2.3582263 10.44727 -0.46012285 53
0.52386242 6.82377 -0.33412141 0
0.7565009 5.0318241 -0.278694 0
2.3578322 10.445524 -0.64932197 48
0.38432455 5.006166 -0.33410364 0
0.75268728 5.0064578 -0.36689743 0
1.1827412 5.2397079 -0.42086264 0
0.38015398 4.9518404 -0.41835058 0
0.73502839 4.8890009 -0.44575843 0
1.1178086 4.9520473 -0.48757294 10
0.194031 2.5274246 -0.25842056 1
0.35771263 2.3793058 -0.25951082 1
0.32157993 2.1389713 -0.27164096 2
0.3078784 2.0478361 -0.29671723 11
0.30118966 2.0033464 -0.32648519 19
0.29621288 1.9702437 -0.35633329 19
0.29350585 1.952238 -0.38828453 23
0.29480806 1.9608996 -0.42514107 24
0.28964317 1.9265455 -0.4522486 29
0.29136583 1.9380038 -0.48953736 38
0.28004742 1.86272 -0.64800572 49
0.26842549 1.7854173 -0.84160352 31
0.97051072 6.162364 1.6467205 13
0.67391855 4.2791195 0.83708668 4
1.5450344 9.8103647 1.3893882 23
1.6410282 10.419888 0.91580933 36
1.6773424 10.650469 0.5546695 13
1.6680319 10.591351 0.36186415 11
2.4305909 10.42835 0.29778838 46
2.0814197 24.838955 0.54649895 70
1.6631676 10.560464 0.1713012 10
2.4323137 10.435742 0.10847524 46
2.0812333 24.836729 0.10527111 71
1.6515553 10.486731 -0.017601985 17
2.4341853 10.443772 -0.080856293 44
0.43251124 5.1614423 -0.069612108 55
1.7047557 10.824533 -0.211934 14
2.4352946 10.448532 -0.27081969 42
0.42532995 5.0757432 -0.15855795 19
2.4338255 10.442228 -0.46063793 54
0.4163557 4.9686475 -0.24342294 0
0.79285365 5.0343108 -0.2791315 32
2.4334168 10.440475 -0.65004832 48
0.42193076 5.0351782 -0.33622831 0
1.0073348 6.3961825 -0.46924707 0
1.2636466 5.4216242 -0.4361724 0
0.41271779 4.9252338 -0.41633603 0
0.76356393 4.8483324 -0.44252568 0
1.1559682 4.9596343 -0.48910257 24
0.21233547 2.5339394 -0.25923193 1
0.37740797 2.3963931 -0.26165554 1
0.34206179 2.1719587 -0.27612677 2
0.31785539 2.0182576 -0.29274589 12
0.31578255 2.0050957 -0.32712162 18
0.314861 1.9992443 -0.36196703 17
0.31018075 1.9695265 -0.3921442 19
0.30666503 1.9472032 -0.42262542 26
0.30369201 1.9283255 -0.4531531 24
0.30126601 1.9129215 -0.48372108 36
0.29304475 1.8607196 -0.64800572 44
0.28144744 1.7870812 -0.84329349 33
1.015393 6.1668863 1.6497833 17
0.6871863 4.1735559 0.8173548 4
1.538185 9.3420105 1.3245463 20
1.7189115 10.439634 0.91857719 34
1.7166091 10.425651 0.54357201 29
1.7172515 10.429552 0.35673708 38
2.5061388 10.422791 0.29812199 46
1.6419748 18.077221 0.3979719 9
1.7193083 10.442044 0.16957088 27
2.5088496 10.434064 0.10863721 45
1.6173884 17.806538 0.075519472 13
1.7208264 10.451263 -0.017562192 35
2.5117121 10.445969 -0.081007093 43
0.46781051 5.150331 -0.069504596 36
1.7172583 10.429593 -0.20443122 55
2.5109837 10.44294 -0.27112252 42
0.46039304 5.0686688 -0.1584335 18
0.89424264 5.4310918 -0.20404309 0
2.5104032 10.440525 -0.46132466 54
0.45862246 5.0491757 -0.247519 0
0.82862902 5.0325937 -0.27935025 14
2.5099788 10.438761 -0.65101671 46
0.45129579 4.968513 -0.33197898 0
1.0545563 6.4047403 -0.47040355 0
2.5115674 10.445367 -0.84172529 34
0.45033708 4.9579587 -0.41935784 0
1.1989422 4.9862852 -0.49254426 10
0.22894047 2.5205061 -0.25801486 1
0.39283636 2.3858516 -0.26079765 1
0.35721645 2.1695175 -0.27612677 2
0.33129436 2.0120826 -0.29217854 12
0.32848975 1.9950491 -0.32584876 19
0.32817087 1.9931123 -0.3612628 21
0.32392293 1.9673131 -0.3921442 29
0.32406399 1.9681697 -0.42765668 22
0.31777978 1.930003 -0.4540576 28
0.32028764 1.9452344 -0.4924455 36
0.30725679 1.8660927 -0.65060818 45
0.29214963 1.774341 -0.83822358 31
1.0551462 6.1405892 1.6446787 16
0.70566475 4.1067271 0.80521214 3
1.5564061 9.0577507 1.2857522 19
1.7924265 10.431308 0.91892314 34
1.7920575 10.429161 0.54439402 31
1.7920523 10.42913 0.35714185 38
2.5923085 10.459375 0.29967874 15
1.7256763 17.631495 0.38841495 50
1.7935199 10.437671 0.16969906 26
2.5893288 10.447352 0.10896113 3
1.7264652 17.639553 0.07486058 51
1.7964571 10.454764 -0.017588722 35
9.0489054 36.510273 -0.28361529 28
0.50414455 5.1509204 -0.069558352 11
1.7893509 10.413409 -0.20435387 116
0.49576753 5.065331 -0.1584335 8
1.7918417 10.427905 -0.39223099 60
2.5841911 10.426623 -0.46149635 35
0.4868558 4.9742789 -0.24400809 0
0.86712462 5.0463681 -0.28044403 27
2.5847142 10.428734 -0.65150094 5
0.48869276 4.9930472 -0.33383808 0
0.8573696 4.9895968 -0.36689743 0
2.5882652 10.443062 -0.84297502 16
0.48571545 4.9626279 -0.42002934 0
1.0133413 5.8972988 -0.53950781 0
0.24536833 2.5069652 -0.25679782 1
0.4074626 2.3712926 -0.25951082 1
0.3676489 2.1395905 -0.27263778 2
0.34600368 2.0136228 -0.29274589 12
0.33973467 1.9771392 -0.32330307 19
0.33941004 1.97525 -0.35844594 22
0.33831406 1.9688718 -0.39291614 25
0.33779642 1.9658594 -0.42765668 27
0.33454514 1.946938 -0.45858008 23
0.33320284 1.9391263 -0.49147612 31
0.31643367 1.8415354 -0.64280087 43
0.30575758 1.7794044 -0.84160352 30
1.0973079 6.1292663 1.6436578 11
0.97655249 5.4547591 1.0708334 0
1.5707353 8.7737045 1.2469579 18
1.8694198 10.442076 0.92099905 36
1.8676383 10.432124 0.54521608 32
1.8655214 10.4203 0.35727677 36
10.198224 39.950958 1.1466743 53
1.8499762 17.630947 0.38867798 46
1.8698683 10.44458 0.17001948 30
9.3290825 36.546146 0.38182959 9
1.8504043 17.635027 0.074894369 54
1.8715154 10.45378 -0.017608618 39
8.3627291 32.760513 -0.25493407 1
1.8523406 17.653481 -0.23856257 16
1.8641204 10.412474 -0.20458591 89
8.358326 32.743263 -0.85303658 8
0.53236943 5.0736747 -0.15880688 4
1.8688246 10.43875 -0.39312005 57
0.90444499 5.0519857 -0.2811003 13
5.406755 21.180653 -1.3255175 1
0.52395505 4.9934826 -0.33410364 0
0.89569759 5.0031252 -0.36834306 0
0.51618952 4.9194746 -0.41667178 0
0.89090824 4.9763732 -0.45581585 0
1.374805 5.3857198 -0.53384453 1
0.26120302 2.4893601 -0.25517508 1
0.42190474 2.3566461 -0.25822398 1
0.38467517 2.1486919 -0.27413306 2
0.3621462 2.022851 -0.2944479 12
0.35770485 1.9980427 -0.32712162 19
0.35319149 1.9728324 -0.35844594 17
0.35412601 1.9780524 -0.39523196 25
0.35082313 1.9596034 -0.42681813 26
0.34606913 1.9330488 -0.45586661 33
0.34604836 1.9329329 -0.49050674 39
0.33194843 1.8541744 -0.64800572 37
0.31881151 1.7807951 -0.84329349 30
1.2936096 6.9458594 1.3652936 17
1.5949578 8.5639076 1.2186935 18
1.9430028 10.432688 0.92134506 32
1.9433478 10.434541 0.54603809 33
1.9418825 10.426673 0.35795137 38
8.480464 32.279694 0.92817014 33
1.9743526 17.629526 0.38894102 49
1.9464003 10.45093 0.17033991 28
8.4741621 32.255707 0.33761349 47
1.9748094 17.633604 0.074945055 54
1.9473798 10.45619 -0.017635148 34
8.4713058 32.244835 -0.25137532 20
1.975539 17.64012 -0.23856257 40
1.9389638 10.411 -0.20481797 95
8.477994 32.27029 -0.8422361 32
0.5668872 5.0618882 -0.15855795 18
1.9460458 10.449027 -0.39400914 53
7.0817184 26.955564 -1.1973495 0
0.75679833 6.7576561 -0.33197585 0
5.5352154 21.069019 -1.3209175 1
0.5645777 5.041266 -0.33755624 0
0.93133438 5.0006728 -0.36863217 19
4.5364408 17.267324 -1.3988136 3
0.55273914 4.9355564 -0.41835058 0
0.90447485 4.8564539 -0.44539925 1
1.5793056 6.011405 -0.59694225 2
0.28123286 2.511204 -0.25760919 1
0.45145354 2.4240181 -0.26594496 1
0.39603305 2.1264453 -0.27164096 2
0.37698442 2.0241663 -0.29501522 12
0.37092194 1.9916147 -0.32648519 17
0.36839762 1.9780607 -0.35985437 11
0.36577082 1.9639564 -0.39291614 17
0.36091456 1.9378814 -0.42262542 18
0.36312282 1.9497384 -0.46038908 32
0.36024478 1.934285 -0.49147612 39
0.34488481 1.8518118 -0.64800572 34
0.33123592 1.7785259 -0.84329349 31
0.75815392 3.918618 1.0535744 2
1.3435608 6.9443707 1.3668115 28
1.6163291 8.3542099 1.1904291 19
2.0195737 10.438432 0.9230749 32
2.0169055 10.424642 0.54624361 33
2.0169046 10.424637 0.35835615 36
8.6983099 32.192684 0.92739177 61
2.0983264 17.623255 0.38911638 45
2.0231121 10.45672 0.17066033 27
8.7085304 32.230507 0.33797792 66
2.0992849 17.631304 0.074995741 54
2.0226092 10.454122 -0.017655045 35
8.7149887 32.254414 -0.25191817 54
2.1014786 17.649729 -0.2388851 39
2.0131176 10.405064 -0.20497265 110
8.7187195 32.268219 -0.84375018 59
0.60362983 5.0697174 -0.15893133 48
2.0197048 10.439111 -0.39415732 59
7.255136 26.851458 -1.1949459 0
0.59659076 5.0105982 -0.24634869 0
1.0500021 5.427074 -0.30275705 0
5.6602979 20.948917 -1.3158333 1
0.59220827 4.9737906 -0.33330691 0
0.96773827 5.0018826 -0.36921042 31
4.6558375 17.231382 -1.3985013 2
0.58859587 4.9434514 -0.41935784 0
0.93230313 4.8187313 -0.44252568 12
1.5412631 5.704257 -0.56749666 1
0.29499352 2.4775677 -0.25436372 1
0.45854467 2.3700485 -0.2603687 1
0.4146381 2.1431115 -0.27413306 2
0.38885006 2.0098226 -0.29331321 12
0.38481688 1.9889766 -0.32648519 17
0.38369387 1.9831722 -0.3612628 3
0.37872726 1.9575016 -0.3921442 1
0.37814927 1.9545141 -0.42681813 11
0.3759855 1.9433304 -0.45948458 23
0.37300259 1.9279128 -0.49050674 36
0.35780439 1.8493589 -0.64800572 44
0.34433287 1.7797297 -0.84498346 29
0.79234266 3.9473569 1.0627626 7
1.3958732 6.9540744 1.3706061 22
1.6449875 8.1951323 1.1693695 19
2.0947509 10.4358 0.92411286 37
2.0943506 10.433805 0.54747665 33
2.095927 10.441659 0.35943553 36
8.9421005 32.200523 0.92939335 64
2.22331 17.624046 0.38946709 50
2.0968511 10.446263 0.17072442 26
8.9483109 32.222885 0.33854479 86
2.2243252 17.632093 0.075063318 57
2.099479 10.459354 -0.017688205 35
8.9613581 32.269867 -0.25252137 58
2.2271478 17.654469 -0.23915388 40
2.094367 10.433887 -0.20582348 61
8.9608984 32.268211 -0.84536523 52
0.64201057 5.0891795 -0.15967807 22
2.0980406 10.452189 -0.39519456 53
7.4359999 26.77705 -1.1939158 0
0.62405586 4.9468536 -0.24342294 0
2.0963399 10.443716 -0.58341986 52
5.8128195 20.931974 -1.317286 1
0.62292093 4.9378572 -0.33118224 0
1.0042046 5.0028276 -0.36978865 27
4.7600155 17.140823 -1.3938146 1
0.62159646 4.9273582 -0.41835058 0
0.9635691 4.8003869 -0.44144812 28
1.5618712 5.624301 -0.56061327 1
0.31228289 2.4754479 -0.25436372 1
0.47429678 2.3628902 -0.25993976 1
0.43583822 2.1712942 -0.27812046 2
0.3997547 1.9915304 -0.29104388 12
0.39713868 1.9784977 -0.32521233 17
0.39830449 1.9843056 -0.36196703 3
0.96551156 4.8100638 -0.96492177 0
0.9505983 4.7357678 -1.0356001 1
0.39031008 1.9444784 -0.46038908 17
0.38492531 1.9176521 -0.48856798 22
0.37293971 1.8579413 -0.65190941 43
0.35674927 1.7772825 -0.84498346 29
0.82066846 3.9455156 1.0637835 9
1.4451872 6.9480052 1.3713651 24
1.6852188 8.1020012 1.1577312 18
2.171612 10.440427 0.92584276 34
2.1712081 10.438485 0.54850423 33
2.1712141 10.438513 0.3598403 36
9.1776514 32.175762 0.93050528 18
2.349463 17.63188 0.38999316 48
2.1746149 10.454864 0.17110893 29
10.446809 36.625282 0.38555476 15
2.3494785 17.631996 0.075130895 55
2.1757057 10.460108 -0.017714735 35
10.443756 36.614578 -0.28708357 9
2.3503437 17.638489 -0.23915388 39
2.169601 10.430758 -0.20605554 53
9.3307343 32.712456 -0.85868919 9
0.67752373 5.0845733 -0.15967807 14
2.1734011 10.449028 -0.39563912 58
7.5734286 26.551548 -1.1861899 1
0.67387933 5.0572233 -0.24907941 0
2.1724524 10.444468 -0.58429486 51
5.9588099 20.890884 -1.317286 1
0.66370416 4.9808626 -0.33436924 0
1.0456057 5.0269427 -0.37210163 3
4.8719072 17.080332 -1.3916274 1
0.6528216 4.8991928 -0.41633603 0
1.0027373 4.8208451 -0.44396248 39
1.5399373 5.3988385 -0.53919828 1
0.33218503 2.4929299 -0.25639212 1
0.49078116 2.3595214 -0.25993976 1
0.44936955 2.1604273 -0.2771236 2
0.42171165 2.0274568 -0.29671723 11
0.41737494 2.0066073 -0.33030373 16
0.40733668 1.9583465 -0.35774174 3
0.99667054 4.791678 -0.96260595 1
1.0003625 4.8094282 -1.0532094 1
0.89344555 4.2954049 -1.0184639 0
0.40146467 1.9301158 -0.4924455 5
0.38205007 1.8367765 -0.64540333 41
0.36545676 1.757001 -0.83653361 29
0.84168106 3.9094429 1.0556163 9
1.4953109 6.945425 1.3728828 27
1.7300671 8.035821 1.1499723 18
2.246124 10.432804 0.92653471 33
2.2448699 10.426978 0.54870975 33
2.245718 10.430918 0.36011016 37
11.693019 39.935253 1.1572381 40
2.4736099 17.622969 0.39016852 43
2.2500753 10.451158 0.1713012 28
11.701435 39.964001 0.42155123 44
2.4752944 17.634968 0.075215369 55
2.2528865 10.464215 -0.017747896 35
10.715977 36.598354 -0.28753597 10
2.4739811 17.625612 -0.23920763 30
2.2457347 10.430996 -0.20636493 54
8.1060028 27.684492 -0.72817492 8
0.72634149 5.1747417 -0.16266502 1
2.2496607 10.449231 -0.39623183 55
7.7574835 26.494192 -1.1860181 1
0.70861334 5.0484395 -0.24888435 0
2.2486775 10.444665 -0.58516991 51
6.0843143 20.779804 -1.3129281 1
0.71122044 5.0670137 -0.34047765 0
1.1360937 5.2769318 -0.39118379 0
4.9865484 17.030596 -1.3903776 1
0.7063995 5.0326676 -0.42808747 0
1.0380455 4.821517 -0.44468087 34
1.5865413 5.4185262 -0.54225755 1
0.34958071 2.4905503 -0.25639212 1
0.51477492 2.3910282 -0.26380023 1
0.46611175 2.1649973 -0.27812046 2
0.43252209 2.00898 -0.2944479 12
0.42638651 1.9804814 -0.32648519 17
0.42928585 1.9939483 -0.36478388 2
1.0375327 4.8191352 -0.96955341 1
1.0380299 4.8214445 -1.0574021 1
0.93407214 4.3385811 -1.0302223 0
0.69263834 3.2171686 -0.82203501 0
0.40202865 1.867344 -0.65711427 33
0.37924004 1.7614954 -0.83991355 29
0.86811292 3.8996966 1.0545954 6
1.5471758 6.950151 1.3759185 27
1.7955937 8.066083 1.1560686 16
2.3240988 10.440208 0.92861062 34
2.3193443 10.418851 0.54912072 30
2.3245649 10.442302 0.36105463 37
12.000292 39.948383 1.1600181 46
2.3255897 10.446906 0.17149346 27
12.01122 39.984764 0.42264447 43
1.6586941 11.246237 0.048014842 2
2.3276234 10.456041 -0.01776116 35
8.4073563 27.987677 -0.2203417 0
1.6568085 11.233452 -0.15260909 6
2.3211083 10.426774 -0.20659697 61
8.1713839 27.202135 -0.71697068 4
0.79278475 5.3752193 -0.16913678 0
2.3242917 10.441074 -0.39652818 53
7.9020185 26.305433 -1.1800091 1
0.73917705 5.0117497 -0.24732395 31
2.325011 10.444305 -0.58604491 50
6.2039652 20.652695 -1.3076018 1
0.73725963 4.9987493 -0.33622831 0
1.2101821 5.4363232 -0.40361607 0
5.0904078 16.945719 -1.3863159 2
0.7298851 4.9487486 -0.42137235 0
1.0941875 4.9152579 -0.45401987 45
1.6369315 5.449265 -0.54646409 1
0.36405626 2.4683652 -0.25436372 1
0.5288623 2.3757305 -0.2625134 1
0.4777652 2.1461945 -0.27612677 2
0.4439556 1.9943167 -0.29274589 12
0.44106039 1.981311 -0.32712162 16
0.44148448 1.983216 -0.36337546 2
1.0694455 4.8041129 -0.96800953 1
1.0759135 4.833169 -1.0615948 1
0.96433806 4.3319545 -1.0302223 0
0.70833522 3.1819506 -0.81427997 1
0.41341147 1.8571078 -0.65451181 25
0.39152825 1.7588049 -0.83991355 30
0.70203918 3.0530183 0.82693344 2
1.5762963 6.8549762 1.3592223 24
1.8420961 8.0108824 1.1499723 18
2.3987141 10.431496 0.92930257 32
2.3973961 10.425764 0.55035383 31
2.4000962 10.437506 0.36145937 37
12.303607 39.943882 1.1623533 49
1.6909319 10.935379 0.24260591 10
2.402051 10.446007 0.1717498 25
12.315975 39.984035 0.42353529 56
1.6790981 10.85885 0.046409842 9
2.4032524 10.451232 -0.017781056 36
8.4506474 27.435179 -0.21645118 1
1.6655152 10.771008 -0.14648108 10
2.3947403 10.414214 -0.20667432 111
8.3151817 26.995386 -0.71303403 182
1.6514182 10.679841 -0.33640671 10
2.3998146 10.436281 -0.39697272 55
8.0631189 26.177061 -1.1767471 1
0.77597892 5.018312 -0.2479091 7
2.4014492 10.443389 -0.5869199 49
6.3562226 20.635592 -1.3092965 1
0.98499596 6.3700404 -0.42891684 0
2.3996518 10.435573 -0.77600688 50
5.2085862 16.909767 -1.3863159 2
0.7686795 4.9711061 -0.42372265 0
1.1409745 4.9618545 -0.45904857 59
1.6843112 5.4681463 -0.54952335 1
0.38371208 2.4814937 -0.25598645 1
0.54543501 2.3719804 -0.2625134 1
0.49451557 2.1505425 -0.2771236 1
0.46319172 2.0143218 -0.29614991 12
0.45488173 1.9781835 -0.32712162 17
0.4579663 1.9915975 -0.36548811 3
1.1108742 4.8309546 -0.97495699 1
1.1087526 4.8217282 -1.0607563 1
0.72966236 3.1731458 -0.81331056 1
0.42467108 1.8468038 -0.65190941 3
0.40460989 1.7595619 -0.84160352 28
0.70726186 2.9803088 0.80855715 2
1.5860279 6.6833138 1.3273478 23
1.8934039 7.9785557 1.1472013 17
2.4779215 10.441637 0.93172443 28
2.475657 10.432095 0.55158687 31
2.4756739 10.432165 0.36186415 37
12.617073 39.967587 1.165578 45
1.6969783 10.489059 0.2329613 15
2.4813831 10.456223 0.1721984 27
12.623712 39.988617 0.42450705 54
1.6948158 10.475692 0.044821739 32
2.4807746 10.453659 -0.017814217 37
8.5600939 27.116138 -0.21440037 2
1.6902063 10.447202 -0.14223447 32
2.47385 10.424479 -0.20721576 55
8.4889956 26.890919 -0.71182275 137
1.6901791 10.447033 -0.32943714 43
2.478152 10.442608 -0.39786181 55
8.2504835 26.135374 -1.1774337 1
0.81354648 5.0285482 -0.24868931 36
2.4807544 10.453573 -0.58845121 50
6.4688797 20.491718 -1.3030019 1
0.81335545 5.0273676 -0.33888415 0
2.4825795 10.461265 -0.7791872 52
5.3133054 16.831163 -1.382879 2
0.96314722 5.9532337 -0.5079971 0
1.1829455 4.9847775 -0.46192211 29
1.734431 5.4942241 -0.55334747 1
0.39657792 2.4512568 -0.25314668 1
0.57483691 2.4222872 -0.26851863 1
0.51226616 2.1586225 -0.27861887 2
0.47358587 1.9956287 -0.29388055 11
0.47050452 1.9826443 -0.32839444 17
0.46731314 1.9691962 -0.36196703 3
1.1463858 4.830719 -0.97650087 1
1.1496119 4.8443141 -1.0674646 1
0.75538135 3.1830781 -0.81718808 1
0.74148327 3.1245134 -1.1047328 0
0.42023245 1.7708044 -0.8483634 30
0.72069687 2.945245 0.80038989 2
1.5841064 6.4737086 1.287884 26
1.9499996 7.9689908 1.1477555 18
3.4998319 14.302632 1.2783965 20
2.5531731 10.433957 0.55261439 28
2.5588953 10.457343 0.36334831 19
12.920394 39.95462 1.167802 39
1.7635015 10.437526 0.23208451 44
2.5600238 10.461954 0.17258291 9
12.938265 40.00988 0.42568129 46
1.7652423 10.447829 0.044754159 48
2.5584476 10.455512 -0.01784738 1
8.2667465 25.563828 -0.20257804 1
1.7650987 10.44698 -0.14239573 38
2.5522692 10.430264 -0.20767984 53
1.7637374 10.438922 -0.32956159 46
2.5547945 10.440584 -0.39845452 54
0.84996337 5.0306249 -0.24907941 30
2.5555716 10.443759 -0.5888887 3
6.5786104 20.343487 -1.296465 1
0.84311372 4.9900842 -0.33675948 0
2.5536554 10.435928 -0.77860898 2
5.423317 16.770895 -1.3810043 1
0.84465235 4.9991908 -0.42708018 0
1.7800961 5.5047126 -0.55564195 1
0.41898468 2.4798183 -0.25639212 1
0.59551454 2.4336672 -0.27023441 1
0.52355021 2.1395733 -0.27662519 2
0.48938861 1.9999663 -0.29501522 11
0.48527306 1.9831474 -0.32903087 17
0.4847928 1.9811846 -0.36478388 2
1.1856794 4.8454719 -0.98113245 1
1.1843328 4.8399692 -1.0683032 1
0.76928318 3.143801 -0.80846369 0
0.7659753 3.1302829 -1.1086364 0
0.43430805 1.7748706 -0.85174334 27
0.73840445 2.9288914 0.79732722 2
1.5860586 6.2911234 1.2537327 24
2.0075226 7.9628658 1.1488639 17
3.6054418 14.301035 1.2804724 23
8.1620359 32.374828 1.7176464 14
10.069983 39.942726 1.3902491 41
8.4583273 25.545704 0.7483629 36
1.8391006 10.440713 0.23243523 46
10.076378 39.968094 0.66046768 12
8.3253832 25.144188 0.26813102 26
1.8402201 10.447069 0.044804845 51
9.2083549 36.525066 -0.062455878 25
8.3155155 25.114384 -0.19947167 21
1.8386827 10.438341 -0.14244948 37
8.3131037 25.1071 -0.66761142 17
1.8386519 10.438167 -0.32993495 47
8.5492668 25.820356 -1.168506 2
0.88922125 5.0481768 -0.25024971 3
5.7752981 22.907799 -1.2939364 1
6.7041583 20.247789 -1.2933177 1
0.87377596 4.9604926 -0.33516598 29
4.6599236 18.48365 -1.381431 1
5.5239716 16.683409 -1.3769425 3
0.86916059 4.9342909 -0.42204386 0
1.3615047 5.4004273 -0.50215173 1
1.8284948 5.5223904 -0.55870122 1
0.43697706 2.480752 -0.25679782 1
0.60568464 2.4024565 -0.26723179 1
0.54623622 2.1666534 -0.28061259 2
0.50624281 2.008019 -0.29671723 10
0.50489837 2.0026863 -0.33284941 16
0.49091157 1.9472075 -0.35915017 3
1.2156401 4.8218532 -0.97804475 1
1.2228737 4.8505449 -1.0724959 1
0.80828869 3.2060881 -0.82591254 0
0.78688532 3.1211915 -1.1073351 0
0.44757459 1.7753108 -0.85343331 27
0.75203252 2.8974607 0.79018086 1
1.5944208 6.1430473 1.2264117 30
2.0630646 7.9486566 1.1488639 17
3.7182083 14.32566 1.2849702 21
6.1830072 23.822134 1.2661426 0
8.4212847 32.445858 1.1313314 21
8.5556164 25.247458 0.74135745 28
1.9126664 10.431554 0.2325229 44
8.3878212 32.316929 0.53498781 24
8.4981508 25.077879 0.26805004 54
1.9145516 10.441835 0.044838633 48
8.3778324 32.278442 -0.05529305 19
8.499629 25.082239 -0.19968277 39
1.9129533 10.433118 -0.142557 36
8.5008621 32.752457 -0.65444291 1
8.4958801 25.071177 -0.66821706 49
1.9136418 10.436873 -0.33030832 45
7.6872225 29.617636 -1.1343136 1
8.5933619 25.358845 -1.1503072 13
0.97848207 5.336575 -0.26487848 0
5.9320726 22.855324 -1.2932801 1
6.8274093 20.147552 -1.2899282 1
0.91702271 5.00138 -0.33835298 7
4.7778239 18.40819 -1.3782506 1
5.6108713 16.557571 -1.3697563 2
0.91149426 4.9712281 -0.42573717 0
1.5863304 6.111876 -0.5693208 3
1.8810602 5.550972 -0.5629077 1
0.45500287 2.481555 -0.25720349 1
0.62543941 2.4097176 -0.26851863 1
0.55736059 2.1474209 -0.27861887 2
0.51925433 2.0006034 -0.29614991 10
0.51688325 1.9914681 -0.33157656 17
0.51240718 1.9742228 -0.36478388 3
1.2551893 4.8360429 -0.98267633 1
1.2547418 4.8343186 -1.0708188 1
0.82382697 3.174073 -0.81912684 0
0.81340724 3.1339276 -1.1138412 0
0.4572252 1.7616153 -0.8483634 29
1.0486131 3.9271822 1.0729717 11
1.5977548 5.9837842 1.1968138 22
2.1174841 7.9302325 1.1483097 17
3.8263531 14.330153 1.287738 22
7.7950144 29.193268 1.5544721 4
8.6011829 32.212463 1.1252599 50
8.6714211 25.01333 0.73624229 57
1.9891884 10.437588 0.2329613 43
8.6049767 32.226673 0.53447509 50
8.6756401 25.025497 0.26813102 84
1.9896487 10.440003 0.044889316 48
8.6163874 32.269409 -0.055379272 54
8.6889391 25.063862 -0.20001453 62
1.9879894 10.431296 -0.14271826 37
8.6013765 32.213192 -0.64485174 21
8.691658 25.071705 -0.66983211 51
1.9909487 10.446824 -0.33105507 44
7.8680239 29.466698 -1.1306092 1
8.6759424 25.026371 -1.1379457 41
1.9850559 10.415903 -0.51766384 33
6.0770621 22.759331 -1.2902175 1
6.9652834 20.091854 -1.2894441 1
0.95266354 4.9987769 -0.33861858 38
4.8887239 18.308859 -1.3733355 1
5.7211027 16.502926 -1.3685066 1
0.9491623 4.9804053 -0.42708018 0
1.603267 6.0044279 -0.560341 3
1.9315048 5.5715628 -0.56634939 1
0.47753105 2.5056813 -0.26004329 0
0.64942873 2.4321887 -0.27152124 1
0.5764342 2.1588154 -0.28061259 2
0.53627282 2.0084062 -0.29785192 9
0.52567977 1.968734 -0.32839444 18
0.52414572 1.962989 -0.36337546 3
1.2868954 4.8195782 -0.98113245 1
1.2904787 4.8329983 -1.0724959 1
0.84596586 3.1682441 -0.81912684 0
0.84014511 3.1464448 -1.1203473 0
0.47138292 1.7653857 -0.85174334 29
1.0739565 3.9123065 1.0709299 13
1.6083015 5.8588672 1.1740463 19
2.180136 7.941998 1.1521891 18
3.9347415 14.333835 1.2905058 20
7.8495278 28.594976 1.5254953 11
8.8459635 32.224884 1.1278235 65
8.8712187 25.023788 0.7383551 52
2.0643356 10.435216 0.23322433 45
8.8477468 32.23138 0.53556454 48
8.8755302 25.03595 0.26890036 73
2.0655894 10.441554 0.044956896 50
8.8531055 32.2509 -0.055452224 53
8.8797426 25.047831 -0.20037644 59
2.063869 10.432857 -0.14293328 37
8.8419342 32.210205 -0.64601195 66
8.8958721 25.093328 -0.67205274 58
2.0669355 10.448358 -0.33155289 44
8.0555582 29.345522 -1.1280901 1
8.8758173 25.036758 -1.1412077 46
2.063926 10.433146 -0.51922423 62
6.2104278 22.623913 -1.2849674 1
7.0853682 19.98629 -1.2858125 1
0.9937343 5.0233264 -0.34074324 21
5.0058622 18.235811 -1.3704443 1
5.8321772 16.451309 -1.3675692 1
0.97617346 4.9345565 -0.42372265 1
1.5565615 5.6703844 -0.53016877 2
1.9849888 5.5992236 -0.57055593 1
0.49501216 2.5022864 -0.26004329 1
0.6695509 2.439101 -0.27280805 1
0.59779501 2.1777022 -0.2836031 2
0.55132908 2.0084317 -0.29841924 8
0.5446381 1.9840572 -0.33157656 18
0.54200631 1.97447 -0.36619231 3
1.3288223 4.840755 -0.98730797 1
1.325223 4.8276429 -1.0733345 1
0.86292714 3.1435497 -0.81427997 0
0.48465577 1.7655482 -0.85343331 30
1.1043926 3.9158807 1.0739926 18
1.6214476 5.7492189 1.1543144 23
2.2441301 7.9570856 1.1566228 2
4.0390406 14.321357 1.2918897 21
7.2574062 25.732821 1.3754735 2
9.0880804 32.223904 1.1299822 40
9.0688601 25.025152 0.74024546 63
2.1403501 10.436219 0.23357505 43
9.0942593 32.245811 0.53684628 15
9.0664511 25.018501 0.26938626 73
2.141649 10.442553 0.045024473 49
10.320151 36.592495 -0.063039519 4
9.0775595 25.049158 -0.20088914 59
2.141475 10.441703 -0.1432558 39
9.080699 32.197731 -0.64701748 79
2.1430409 10.44934 -0.33205071 44
8.2244253 29.161612 -1.1232002 1
9.0776224 25.04933 -1.1446414 43
2.1391206 10.430223 -0.51980942 51
6.3422008 22.487747 -1.2797173 1
7.2016006 19.872524 -1.2816967 1
5.1298003 18.1889 -1.3695769 1
5.9332995 16.3727 -1.3644447 1
1.0146031 4.9471445 -0.42540142 7
1.6155747 5.7283959 -0.53663427 1
2.041666 5.6338949 -0.57552725 1
0.51087028 2.490973 -0.25923193 1
0.68332404 2.4228842 -0.27152124 1
0.61513817 2.1811154 -0.28459996 1
0.56963617 2.0197775 -0.30068859 8
0.55740404 1.9764056 -0.33094013 18
0.55363983 1.9630587 -0.36478388 4
1.3647152 4.8389149 -0.98885185 1
1.361017 4.8258023 -1.0750115 1
0.88906562 3.1523888 -0.81815749 0
0.89939499 3.189014 -1.1398655 0
0.49992198 1.7725897 -0.85850322 28
1.1295519 3.9006455 1.0719508 15
1.6440662 5.6774015 1.1421717 21
2.6500239 9.1512432 1.3328594 17
4.1577663 14.357882 1.2977713 19
6.9046397 23.843571 1.2770345 0
11.574587 39.970154 1.4044161 41
9.2558432 24.994974 0.74124622 9
2.2164791 10.436669 0.23392576 42
11.578578 39.983932 0.66700441 38
2.2178228 10.442997 0.045092054 51
10.590938 36.573349 -0.063132368 12
9.938386 26.83815 -0.21578769 27
2.2176423 10.442147 -0.14347082 34
11.570113 39.9547 -0.80449831 38
8.4913483 22.930492 -0.61724281 1
2.2167687 10.438034 -0.3321752 39
8.4189148 29.072769 -1.1220148 1
9.2647667 25.019073 -1.1461866 28
2.2143743 10.42676 -0.52039456 49
6.4812636 22.381542 -1.2762172 1
7.3290677 19.791807 -1.2797599 1
1.139225 5.3642354 -0.36491129 0
5.2411208 18.098995 -1.3655292 2
6.0446877 16.323399 -1.3638198 2
1.0590521 4.9867277 -0.42943048 45
1.6710404 5.7705503 -0.54166293 1
2.098923 5.6680441 -0.58049858 0
0.52907467 2.4912384 -0.25963759 1
0.70243454 2.4256949 -0.2723791 1
0.62483037 2.1577067 -0.28210786 2
0.58041877 2.0043416 -0.29898658 9
0.57338512 1.9800525 -0.33221298 19
0.57390231 1.9818386 -0.3690092 4
1.4017388 4.8405795 -0.99116766 1
1.4044648 4.8499937 -1.0825584 1
0.91428995 3.1572883 -0.82106566 0
0.92268848 3.1862907 -1.1411668 0
0.5092594 1.7586092 -0.85343331 24
1.1611624 3.9074938 1.0760344 16
1.6635247 5.5980225 1.1285112 20
2.7838085 9.3679533 1.36722 7
4.2715225 14.374345 1.3019232 19
7.2757516 24.484049 1.3140262 5
11.878399 39.972679 1.4073844 56
13.497257 35.681778 1.0609406 21
2.291002 10.428754 0.23410112 43
11.890472 40.013309 0.66886294 38
10.773407 28.480923 0.30825755 0
2.294107 10.442886 0.045159634 47
10.873353 36.590542 -0.063291542 10
10.150981 26.835455 -0.21633054 21
2.2956367 10.44985 -0.14379334 36
8.2614403 27.801044 -0.56092894 1
8.5564365 22.62007 -0.61047989 4
2.2938747 10.44183 -0.33279747 43
8.5818214 28.879179 -1.1168284 1
9.4745522 25.047228 -1.1504788 3
2.2896838 10.422753 -0.5209797 47
6.6282554 22.30512 -1.2744672 1
7.4543476 19.706551 -1.277581 1
2.2873523 10.41214 -0.7093727 50
5.354846 18.019899 -1.3623488 1
6.1415677 16.236044 -1.3600706 2
1.098116 4.9986777 -0.43110925 31
1.7214985 5.7931128 -0.54489571 1
2.1821122 5.7687016 -0.59235328 0
0.54730755 2.4913707 -0.26004329 1
0.7363444 2.4779146 -0.27881327 1
0.64213967 2.1609008 -0.28310469 2
0.6022926 2.0268092 -0.30295795 7
0.58831924 1.9797868 -0.33284941 19
0.58660245 1.9740094 -0.36830497 6
1.4377338 4.8382006 -0.99271154 1
0.93741488 3.1545484 -0.82203501 0
0.94706511 3.1870232 -1.1437691 0
0.52978605 1.7828133 -0.86695302 15
1.1793933 3.8696961 1.0678672 13
1.7037107 5.5900288 1.1292702 21
2.8526061 9.3596582 1.3688827 8
4.3891969 14.401353 1.3071128 20
7.2788014 23.882406 1.2844329 3
12.181646 39.969086 1.4102178 47
13.524158 35.012283 1.0438161 4
2.3672934 10.428104 0.23445183 40
12.191682 40.002014 0.67008054 38
1.7078408 4.4213772 0.047981769 0
2.3713832 10.446121 0.045244105 48
11.147196 36.574959 -0.063397661 11
1.7078799 4.4214783 -0.035738423 8
2.3720756 10.449171 -0.14400837 34
8.3095856 27.264502 -0.55126041 2
1.7073845 4.4201961 -0.11961287 13
2.3693709 10.437257 -0.33317083 42
8.7715731 28.780327 -1.1153467 1
8.7319269 22.60582 -1.0411139 0
2.3659298 10.422099 -0.52175993 48
6.7721686 22.220098 -1.2722796 1
7.5816717 19.62796 -1.2758863 0
2.3635209 10.411487 -0.71043503 50
5.4642344 17.928648 -1.3583012 1
6.2461438 16.170452 -1.3581959 0
1.1338687 4.9947772 -0.431445 7
1.7735144 5.8190613 -0.5484876 1
1.7201909 4.4533501 -0.45850974 0
0.56468713 2.4874892 -0.26004329 1
0.76290089 2.5031469 -0.2822448 1
0.65952402 2.1639581 -0.28410155 2
0.60719281 1.9922546 -0.29841924 6
0.59982389 1.9680765 -0.33157656 20
0.60036933 1.969866 -0.36830497 6
1.47262 4.8317995 -0.99348348 0
1.4720446 4.8299117 -1.0825584 0
0.9650718 3.1664879 -0.82688195 1
0.97039437 3.1839519 -1.1450704 0
0.54116249 1.7756032 -0.86526304 18
1.2098398 3.8724427 1.0709299 15
1.7274694 5.5292659 1.1194042 23
2.9403238 9.4113579 1.3794125 7
4.4967599 14.393182 1.3091887 19
7.3059764 23.384892 1.2603883 0
12.490188 39.978462 1.4135909 43
1.7219491 4.3669515 0.13054651 16
2.4464245 10.438579 0.23506558 40
12.500467 40.011364 0.67168272 38
1.7225264 4.3684158 0.047536369 20
2.4469905 10.440993 0.045294791 45
8.7398672 27.974476 -0.048594482 0
1.7122949 4.3424683 -0.035195559 31
2.4467916 10.440145 -0.14411588 34
8.4233961 26.961517 -0.54631013 5
1.7088646 4.3337688 -0.11759409 19
2.4449153 10.432139 -0.33354419 43
8.9591703 28.676418 -1.1137167 1
1.7400848 4.4129443 -0.20379321 18
2.4413664 10.416997 -0.52234507 85
6.8949695 22.069345 -1.2663733 1
1.7341027 4.3977742 -0.28665072 22
2.4452558 10.433592 -0.71309084 52
5.5714202 17.832943 -1.3539642 2
1.7275913 4.3812609 -0.36899686 16
1.8319157 5.8635764 -0.55387551 1
1.7161851 4.3523335 -0.44933191 18
0.59565943 2.5416021 -0.26612854 1
0.79577482 2.5471077 -0.28782108 1
0.68645054 2.1971836 -0.28908578 1
0.62580961 2.0030849 -0.30068859 6
0.61708182 1.9751489 -0.33348584 19
0.61997783 1.9844185 -0.37182605 8
1.5133386 4.8438783 -0.99811512 1
1.5103929 4.8344498 -1.0859126 1
0.98599714 3.1559691 -0.82591254 2
0.99598259 3.1879306 -1.1489741 0
0.55678874 1.7821635 -0.87033296 19
1.2321286 3.8491685 1.0668463 15
1.7600421 5.4983697 1.1156096 27
3.031317 9.4698315 1.3910508 12
4.5983477 14.365233 1.3095347 17
7.2815056 22.747416 1.2287399 0
12.800672 39.989285 1.4170989 45
1.7270185 4.2917638 0.12865615 18
2.5239377 10.440681 0.23550397 42
12.807535 40.010727 0.67315668 35
1.7156525 4.2635183 0.046524096 20
2.5254617 10.446984 0.04539616 48
8.1862049 25.573696 -0.044522282 0
1.7201712 4.2747478 -0.034743175 23
2.5243163 10.442246 -0.14438465 37
8.6004429 26.867775 -0.545614 83
1.7122083 4.2549596 -0.11577719 21
2.5252008 10.445906 -0.33453986 41
9.0506926 28.274353 -1.1005287 6
1.7290778 4.2968817 -0.19898596 22
2.517786 10.415233 -0.52312529 75
7.0354795 21.97883 -1.2639669 1
1.7304808 4.3003678 -0.28108233 23
2.5236626 10.439543 -0.71468437 42
5.6811857 17.748018 -1.3504947 1
1.7224077 4.2803059 -0.36149821 23
1.3739525 5.683579 -0.4925524 7
1.9007405 5.9379115 -0.56213695 1
1.7167999 4.2663698 -0.44168371 23
0.61432356 2.5412498 -0.26653424 1
1.6004016 4.9996529 -0.56620538 0
0.69693309 2.1772182 -0.28709209 1
0.64702117 2.0212934 -0.30409262 6
0.62965184 1.9670316 -0.33284941 18
0.63261598 1.9762917 -0.37112182 10
1.5483146 4.8369331 -0.99888706 0
1.5476838 4.8349624 -1.0884281 1
1.0216734 3.1917069 -1.1528777 0
0.56811166 1.7747802 -0.86864299 22
1.2613802 3.8478234 1.0688881 16
1.7959378 5.4784842 1.1140918 27
3.0837801 9.4070301 1.3849546 10
3.8059897 11.610121 1.060775 2
8.4057703 25.641691 1.3882151 2
8.3871908 25.585012 0.9087081 35
1.7265677 4.2056251 0.12643218 18
2.6064329 10.461611 0.23638076 7
8.3883972 25.588694 0.43148932 36
1.7241087 4.199635 0.045957223 21
9.0946493 36.503784 0.158895 27
8.2411861 25.139627 -0.043865688 17
1.724148 4.1997309 -0.034230471 20
9.0987434 36.520222 -0.50583005 14
8.7878036 26.807077 -0.545614 77
1.7190921 4.1874156 -0.11426309 18
8.3575668 25.494646 -0.99458039 1
1.7347499 4.2255554 -0.19623896 23
2.5914018 10.401278 -0.52332032 5
7.1713295 21.876043 -1.2609044 1
1.7286175 4.210618 -0.27599818 23
2.5974469 10.425543 -0.71494997 19
5.812407 17.730669 -1.3522295 1
1.724987 4.2017746 -0.35587418 24
1.5157388 6.0838199 -0.52814239 5
1.963245 5.9888525 -0.56824321 2
1.7238603 4.1990299 -0.43594757 21
0.63589776 2.5523443 -0.26815698 1
0.84240991 2.5697601 -0.29168156 0
0.72076994 2.198699 -0.29058105 1
0.66728365 2.0355399 -0.30692929 5
0.64213872 1.9588355 -0.33221298 18
0.64885074 1.9793105 -0.37253025 12
1.5795994 4.8185468 -0.99734318 0
0.9804011 2.9907002 -0.78616792 1
1.0451089 3.1880908 -1.1541789 0
0.58048797 1.7707708 -0.86864299 24
1.2955942 3.8609228 1.0750135 19
1.8366396 5.4732594 1.1156096 27
3.1380358 9.3514719 1.3799667 6
3.803278 11.33392 1.0379403 5
7.3963342 22.041372 1.1960639 0
8.5007391 25.332544 0.90182698 33
1.7265441 4.1233935 0.12431943 20
9.3977928 36.628529 0.82908618 5
8.4879475 25.294424 0.42751601 19
1.7178543 4.1026397 0.04502593 24
9.3651743 36.501396 0.15916532 23
8.4317617 25.126987 -0.043945275 30
1.7256178 4.121181 -0.03368761 20
8.4081907 32.771488 -0.4547095 4
8.4085674 25.057869 -0.51119405 24
1.7204839 4.1089201 -0.1124462 19
8.3860016 32.685001 -1.0504153 8
8.4183559 25.087036 -0.98094791 14
1.7333374 4.1396174 -0.19280522 22
6.3436427 24.724773 -1.2461772 1
7.3086295 21.780008 -1.2582793 1
1.7348397 4.1432052 -0.27236661 26
5.9220867 17.648054 -1.3490492 1
1.726555 4.1234193 -0.35025018 23
1.5779861 6.1503067 -0.53485751 2
2.0404937 6.0807528 -0.57830065 2
1.7223761 4.1134391 -0.42829937 22
0.65666771 2.5594065 -0.26937401 1
1.6789078 5.0032125 -0.56920803 12
0.74367774 2.2161894 -0.29357159 1
0.68777633 2.0496011 -0.30976599 4
0.66082346 1.9692804 -0.33475867 18
0.66140038 1.9709995 -0.37182605 13
1.6219407 4.8334484 -1.0027467 0
1.6610768 4.9500756 -1.1194543 0
1.0176853 3.032743 -0.74259222 0
1.069747 3.1878886 -1.1567813 0
0.59629619 1.7769864 -0.8737129 25
1.3275406 3.8664155 1.0790972 17
1.8735297 5.4565892 1.1148506 25
3.2161086 9.3668032 1.3855088 12
3.8344285 11.167639 1.0251391 2
8.5865383 25.007992 1.3602659 49
8.5904045 25.019251 0.89278716 54
1.7364484 4.067112 0.12298505 18
8.5139952 32.246967 0.73123717 32
8.5928936 25.026501 0.42399129 49
1.7244662 4.0390468 0.044459056 26
8.5149441 32.250561 0.14088522 56
8.6056757 25.063728 -0.043938644 60
1.7276467 4.0464964 -0.033174906 20
8.5122089 32.240204 -0.44815147 25
8.5949869 25.032598 -0.51189023 44
1.719295 4.0269351 -0.11052835 19
8.5149794 32.250698 -1.0383431 33
8.5971842 25.038998 -0.98139244 60
1.7355191 4.0649347 -0.18988653 24
6.491621 24.587175 -1.241496 1
7.4332652 21.649124 -1.2536855 1
1.7355027 4.0648966 -0.26800874 27
5.1411414 19.4722 -1.3401327 1
6.0218277 17.538363 -1.3438449 1
1.7318124 4.056253 -0.34556353 24
1.6300421 6.1738248 -0.53787929 3
2.1010075 6.1191106 -0.58332932 3
1.7244728 4.0390625 -0.42179838 20
0.67655128 2.5624547 -0.27018538 1
1.7189616 5.0064154 -0.57092381 15
0.75397599 2.1959286 -0.29157791 1
0.69692504 2.0297697 -0.30749664 4
0.67199057 1.9571489 -0.33348584 18
0.67258692 1.9588857 -0.37041762 15
1.5256404 4.4433737 -0.92400908 0
1.4606241 4.2540164 -0.96432388 0
1.023649 2.9813416 -0.73173827 0
1.9874133 5.7882714 -1.5287137 0
1.094433 3.1874976 -1.1593838 0
0.60633254 1.7659222 -0.87033296 20
1.3519378 3.8497553 1.0770553 15
1.9167829 5.4581985 1.1178864 28
3.2892976 9.3665485 1.388834 11
3.8040276 10.832285 0.99676871 4
8.782093 25.007742 1.363554 54
8.7900276 25.030334 0.89535069 52
1.7376735 3.9925637 0.12109468 20
8.7462463 32.213757 0.73185092 55
8.7925787 25.0376 0.42520893 42
1.7254865 3.9645624 0.043770712 24
8.7545586 32.244373 0.14112175 72
8.8029718 25.067196 -0.04405139 48
1.7175449 3.9463153 -0.032451089 20
8.7569904 32.25333 -0.44917279 53
8.7827864 25.009716 -0.51266366 88
1.7234297 3.9598365 -0.10901427 18
8.7566833 32.252197 -1.0403343 31
8.7956181 25.046253 -0.98405969 65
1.7399329 3.9977548 -0.1873112 25
6.6212387 24.38703 -1.233694 1
7.5498147 21.498724 -1.2479979 1
1.733565 3.9831238 -0.26340878 27
5.266499 19.397318 -1.337477 1
6.1427984 17.492128 -1.3435558 1
1.7314426 3.9782474 -0.33993953 20
1.6783253 6.1815276 -0.53955805 3
2.1542351 6.1343641 -0.58620286 3
1.7192602 3.9502563 -0.41376778 21
0.70902145 2.611434 -0.27586496 1
1.7630947 5.0205588 -0.57392639 16
0.79295832 2.2580147 -0.30054954 1
0.72026199 2.0510061 -0.31146801 3
0.69087136 1.9673138 -0.33603153 17
0.69668323 1.9838634 -0.37605134 19
0.68142915 1.9404262 -0.40449521 0
1.0043237 2.8598955 -0.64987046 0
1.1166589 3.1797793 -1.1593838 0
0.61624354 1.7548048 -0.86695302 27
1.3787811 3.8402233 1.0770553 16
1.9694399 5.4853439 1.1262344 25
3.3626397 9.3657265 1.3921592 12
3.8405068 10.696696 0.98673528 2
8.979414 25.009739 1.3670475 48
8.9915762 25.043612 0.89804918 54
1.7314588 3.9035792 0.11875952 22
8.9913473 32.225098 0.73351681 62
8.9955406 25.054653 0.42655471 41
1.7271742 3.8939197 0.043122854 26
8.9923534 32.228703 0.14132448 70
9.0007381 25.06913 -0.04416414 51
1.7272136 3.8940086 -0.032119341 21
8.9980707 32.249195 -0.44997913 53
8.9774446 25.004253 -0.51382393 95
1.7153633 3.8672919 -0.1067936 21
8.9998989 32.255745 -1.0424501 26
8.9905195 25.040668 -0.98628235 73
1.735393 3.9124489 -0.18387745 25
6.7687821 24.259398 -1.2295979 1
7.6956706 21.434217 -1.2473415 1
1.7370468 3.9161775 -0.25977722 28
5.3824816 19.290878 -1.3326964 1
6.2445445 17.392496 -1.339219 1
1.7284527 3.8968022 -0.33400309 23
1.7235819 6.1773386 -0.54022956 5
2.2050858 6.1416721 -0.58835804 4
1.730652 3.9017603 -0.40994367 22
0.73151326 2.6217523 -0.2774877 1
1.8034772 5.0230999 -0.57564217 15
0.80870289 2.252424 -0.30054954 1
0.73723912 2.053381 -0.31260267 2
0.70592344 1.9661595 -0.33666795 17
0.70652443 1.9678335 -0.37393871 19
0.69495928 1.9356217 -0.40449521 0
1.0454111 2.911711 -0.66328716 0
1.149056 3.2003858 -1.1697935 0
0.63582999 1.7709332 -0.87709284 24
1.405557 3.8305042 1.0770553 14
2.0144508 5.4898958 1.1300291 28
3.4402242 9.375495 1.3971471 12
3.8313518 10.441418 0.96563047 0
9.1716843 24.995195 1.3697193 45
9.1813402 25.021513 0.89953333 27
1.7273812 3.8221676 0.11664676 19
9.2304201 32.211517 0.73465663 11
9.193655 25.055073 0.42764416 7
1.724666 3.8161595 0.04239402 27
10.480974 36.575588 0.16070274 10
9.8961811 26.969637 -0.047632806 6
1.728 3.8235366 -0.031636797 21
9.1793394 25.01606 -0.51537085 67
1.7225584 3.811496 -0.10558233 20
9.4032822 32.814754 -1.0626121 7
1.7396232 3.8492553 -0.18147382 28
6.9313745 24.188507 -1.2284276 1
7.8203554 21.312479 -1.2434039 1
1.7363911 3.8421035 -0.25566146 28
5.5137267 19.241323 -1.3318996 1
6.3465734 17.296043 -1.3351712 1
1.7276963 3.8228645 -0.32869154 26
1.7688615 6.1728187 -0.54090112 5
2.2643769 6.1710086 -0.59266835 3
1.7217737 3.8097599 -0.40153065 25
0.76185673 2.6586611 -0.28195021 1
1.8426106 5.0215874 -0.57692897 14
0.83124381 2.265353 -0.30304164 1
0.76383227 2.0816393 -0.3177087 2
0.72235316 1.9685979 -0.33794081 17
0.7175324 1.9554602 -0.37253025 20
0.73279166 1.9970455 -0.4183901 0
1.1802335 3.2164392 -0.73456323 0
1.1648557 3.1745312 -1.1632874 0
0.64443117 1.7562405 -0.87202293 30
1.4281919 3.8097341 1.0739926 17
2.0582426 5.4904084 1.1330647 26
3.5083742 9.3586674 1.3982555 13
3.8523958 10.276352 0.95282924 0
10.457938 27.896786 1.532688 14
13.449224 35.87611 1.2931044 19
1.723925 3.744638 0.11464519 20
11.748032 39.942123 0.91281897 41
10.147522 27.068745 0.46321177 1
1.7211579 3.7386274 0.041665182 26
10.747348 36.539898 0.16087168 0
10.067373 26.854946 -0.047553219 7
1.7161791 3.7278128 -0.03094314 23
8.2488947 28.04541 -0.39289182 1
1.7223703 3.7412608 -0.10396731 22
8.2422609 28.022856 -0.90928131 0
8.6082325 22.962654 -0.90908086 2
1.7413853 3.7825646 -0.17889851 26
7.0831618 24.082035 -1.2255019 1
7.950727 21.208744 -1.2405602 1
1.7347871 3.7682321 -0.2515457 29
5.6197658 19.106636 -1.3252602 2
6.4531627 17.213957 -1.33228 1
1.7326634 3.7636192 -0.32462975 26
1.8265336 6.2100301 -0.54526591 4
2.2962155 6.1252069 -0.58979481 1
1.7266825 3.750628 -0.39655933 28
0.78264463 2.6609128 -0.28276157 0
1.8873948 5.034668 -0.57993162 14
0.86932904 2.3189549 -0.31101641 1
0.7769562 2.0725482 -0.31714138 1
0.73746508 1.9672048 -0.33857721 18
0.73807734 1.9688381 -0.37605134 19
0.74671566 1.9918809 -0.4183901 0
1.1856619 3.16278 -1.1619862 1
0.65922147 1.7584882 -0.87540287 29
1.4589024 3.8105061 1.0770553 15
1.6892942 4.4122667 0.91297847 13
1.6883708 4.4098549 0.66061056 12
1.6898751 4.4137836 0.41033241 15
10.505321 27.438839 1.5115206 11
13.459217 35.154121 1.2704374 6
1.7262615 3.6818275 0.11308842 20
12.052006 39.943363 0.91474789 42
1.6874342 4.4074082 0.07562118 0
1.7149547 3.657712 0.040895853 25
11.019512 36.521423 0.16112511 1
1.6962296 4.4303813 -0.0078658462 0
1.72688 3.6831467 -0.030671708 23
8.3162413 27.562105 -0.38692507 2
8.672617 22.652004 -0.46911666 4
1.7161939 3.6603551 -0.10204946 23
8.2459822 27.329248 -0.88862151 1
8.6625671 22.625755 -0.89811558 3
1.740606 3.7124219 -0.17615151 27
7.2003322 23.863703 -1.2169197 1
8.0957413 21.145262 -1.2401227 1
1.7373224 3.7054186 -0.24815625 27
5.7414875 19.028727 -1.3226043 1
6.5646219 17.146132 -1.3305453 0
1.7250385 3.679219 -0.31838086 25
1.8732971 6.2085757 -0.54627317 3
2.3389213 6.1090274 -0.58979481 0
1.7240897 3.6771955 -0.39005834 27
1.5713676 5.2079058 -0.55456972 1
1.928185 5.0362253 -0.58164734 12
0.90394497 2.3610134 -0.31749594 1
0.78715897 2.05598 -0.31543937 1
0.74976867 1.9583203 -0.33794081 16
0.74758071 1.9526056 -0.37393871 18
0.74797332 1.9536312 -0.41144264 1
1.2050084 3.1473606 -1.1593838 0
0.6637041 1.7335283 -0.86526304 28
1.4896929 3.8110344 1.0801181 20
1.6886005 4.3198938 0.89628226 11
1.6859452 4.3131008 0.64786392 14
1.6858286 4.3128023 0.40202889 15
1.723385 4.4088817 0.24352847 14
1.7144941 4.3861365 0.15893959 12
1.7295289 3.6227779 0.11164284 19
12.356568 39.942299 0.91667682 44
1.712338 4.3806205 0.075364836 13
1.7249393 3.6131642 0.040531434 24
11.303763 36.539135 0.16154748 3
1.7067304 4.3662748 -0.0077729947 13
1.7232555 3.6096373 -0.030159006 27
8.4127102 27.193878 -0.38257095 65
1.7282535 4.4213367 -0.091812283 7
1.7244784 3.6121986 -0.10104007 34
8.3727674 27.064762 -0.88190085 4
1.7361217 4.4414654 -0.17677808 15
1.7458205 3.656903 -0.17409126 28
7.3738399 23.835754 -1.2180899 1
1.7274438 4.4192653 -0.25988105 17
1.7407867 3.6463592 -0.2450089 27
5.8635764 18.953865 -1.320214 1
1.7226027 4.4068804 -0.34290019 21
1.7317836 3.6275005 -0.31494397 27
1.9283751 6.2334247 -0.5496307 2
1.712891 4.3820353 -0.42420685 0
1.7257036 3.6147649 -0.38470459 29
1.6182717 5.2310233 -0.55822086 2
0.92474049 2.3657346 -0.31899121 1
0.81879163 2.0946889 -0.32224742 2
0.76342195 1.9530383 -0.33794081 16
0.7654947 1.958341 -0.37605134 16
0.76445174 1.9556729 -0.41298652 1
1.2786604 3.2711565 -0.75301117 3
1.2255746 3.1353488 -1.1580826 0
0.68634933 1.7558659 -0.87878281 24
1.5105298 3.7861731 1.0760344 18
1.6910667 4.2386923 0.88186282 15
1.6954638 4.2497139 0.64010507 16
1.6966993 4.2528105 0.39753115 16
1.7171156 4.3039846 0.23839074 24
1.7169267 4.3035107 0.15637605 16
1.7460395 3.5926342 0.11108685 42
12.664119 39.946552 0.9187811 48
1.7176838 4.3054085 0.074275374 14
1.74138 3.5830469 0.040328979 51
11.591213 36.562279 0.16200364 5
1.7090086 4.2836642 -0.0076469821 21
1.7414197 3.5831287 -0.03003837 41
8.5310392 26.909538 -0.37939942 49
1.7249928 4.323729 -0.09003327 27
1.7444104 3.5892823 -0.10073725 50
8.5578842 26.994217 -0.88152748 7
1.7285748 4.3327069 -0.17292541 25
1.7451049 3.5907111 -0.17151594 50
7.5147085 23.703718 -1.2139939 1
1.7256933 4.3254848 -0.25506845 21
1.755729 3.6125715 -0.24355628 54
5.9861054 18.88203 -1.3180894 1
1.7193242 4.3095202 -0.33625036 23
1.7431209 3.5866289 -0.31244442 50
1.9899135 6.276803 -0.55466706 1
1.7434412 4.3699703 -0.42420685 20
1.7421948 3.5847232 -0.38279256 58
1.6583591 5.230978 -0.55943787 2
1.7330508 4.3439264 -0.50443757 25
0.96917659 2.4292605 -0.32846126 0
0.84660035 2.1220207 -0.32735345 1
0.78142804 1.9586649 -0.33985007 15
0.78206581 1.9602636 -0.37745976 12
0.78972095 1.9794514 -0.41916203 1
1.2927701 3.2403543 -0.74797994 0
1.2474333 3.1267164 -1.1580826 0
0.70530796 1.7678685 -0.88723266 24
1.5398418 3.7826998 1.0780762 20
1.6835985 4.1358457 0.86288989 16
1.6862577 4.1423779 0.62569577 18
1.6962984 4.1670437 0.39061153 18
1.7169985 4.2178941 0.23428056 19
1.7213051 4.2284741 0.15408236 19
1.7639867 3.5660214 0.11064206 42
12.974801 39.956055 0.92106074 44
1.7115086 4.2044082 0.072737321 14
1.7663518 3.5708027 0.040328979 42
8.3080177 25.584641 0.11361711 0
1.7147422 4.2123518 -0.0075408658 14
1.7681656 3.5744693 -0.03006853 39
8.7199297 26.853128 -0.37945318 39
1.7264867 4.2412028 -0.088563658 26
1.7711986 3.580601 -0.10083819 43
8.269495 25.466011 -0.83348715 1
1.7301457 4.2501912 -0.17011 25
1.7630426 3.5641127 -0.17082919 53
7.6577969 23.582279 -1.210483 1
1.7227196 4.2319484 -0.25025582 22
1.7720551 3.5823324 -0.24234575 45
6.1103845 18.817003 -1.3164959 1
1.7177804 4.2198148 -0.33017877 24
1.7698858 3.5779469 -0.31275687 50
2.0435333 6.2930861 -0.55735308 0
1.743866 4.2838955 -0.417023 26
1.7654129 3.5689046 -0.38241014 54
1.710815 5.2684755 -0.56471181 2
1.7363447 4.2654195 -0.49671656 27
1.7357972 4.2640743 -0.57817155 20
0.87632293 2.1527319 -0.3330268 1
0.80401647 1.9751074 -0.34366861 14
0.78979355 1.9401681 -0.37464291 12
0.80056131 1.9666197 -0.41761816 2
1.2534264 3.0791059 -0.71276116 0
1.2720835 3.124938 -1.1606849 0
0.71489888 1.7561855 -0.88385272 24
1.5691785 3.779001 1.0801181 18
1.6913456 4.0732121 0.85226506 15
1.6969057 4.0866022 0.61904532 15
1.7039534 4.1035752 0.38576782 16
1.7111683 4.1209502 0.22955385 17
1.7170554 4.1351285 0.15111405 22
1.7906369 3.5571911 0.11075326 42
8.4932966 25.546677 0.59025043 39
1.714745 4.1295643 0.07164786 16
1.8002295 3.5762472 0.040531434 50
8.3413076 25.089514 0.11167421 24
1.7103609 4.1190062 -0.0073949564 19
1.7948753 3.5656109 -0.030098688 40
8.3456755 25.102655 -0.35553241 32
1.7315149 4.1699505 -0.087326087 22
1.7997484 3.5752916 -0.10104007 43
8.352479 25.123117 -0.82415289 15
1.7321829 4.1715593 -0.16744277 25
1.8004595 3.5767043 -0.17203102 49
7.8045983 23.475166 -1.2077522 1
1.7277153 4.1608 -0.24675575 23
1.8059974 3.5877054 -0.24355628 55
6.2353063 18.754951 -1.3151679 1
1.7242489 4.152452 -0.32584193 20
1.8019934 3.5797513 -0.31400663 48
2.0937047 6.2975779 -0.55903184 0
1.7385919 4.1869936 -0.40876156 34
1.7992367 3.5742748 -0.3843222 54
1.7500647 5.2639561 -0.56552315 3
1.7447289 4.2017736 -0.49071136 31
1.7381274 4.1858754 -0.56919992 26
0.88070124 2.1209638 -0.32905546 1
0.81778562 1.9694463 -0.34366861 12
0.81237912 1.956426 -0.37886822 14
0.81728148 1.9682322 -0.41916203 2
1.286891 3.0991774 -0.71946949 0
1.2426727 2.9926879 -0.80943304 0
1.3025717 3.1369407 -1.1684923 0
0.72714186 1.7511519 -0.88385272 24
1.5925065 3.7608314 1.0780762 16
1.6906446 3.9925921 0.83784556 16
1.6898668 3.9907556 0.60629863 19
1.6968212 4.0071788 0.37781027 16
1.7180891 4.0574045 0.22667672 18
1.719382 4.0604582 0.14882034 19
1.8227178 3.5588391 0.11119805 41
8.5786953 25.214174 0.58393764 38
1.7170212 4.054883 0.070558406 15
1.8269757 3.5671525 0.040571924 41
8.5304327 25.072323 0.11186005 44
1.7156795 4.0517144 -0.0072954725 16
1.8324875 3.5779142 -0.0303098 38
8.5310278 25.07407 -0.35596246 44
1.7309554 4.0877895 -0.085856475 24
1.8283103 3.5697582 -0.10124195 41
8.5289545 25.067978 -0.82427734 49
