# .PCD v0.7 - Point Cloud Data file format
VERSION 0.7
FIELDS x y z intensity
SIZE 4 4 4 4
TYPE F F F F
COUNT 1 1 1 1
WIDTH 1352
HEIGHT 1
VIEWPOINT 0 0 0 1 0 0 0
POINTS 1352
DATA ascii
-6.3779001 -0.16366866 0.55391413 6
-11.688689 -0.29995331 0.6015256 19
-18.303551 -0.46970284 0.61794847 30
-18.404423 0.86793113 0.51240063 39
-13.045615 -1.2860276 0.28740954 6
-18.3556 -0.47103852 0.29421765 34
-15.218306 0.71767759 0.15423 20
-17.916992 -1.7662445 0.076043211 58
-18.066029 -0.46360758 -0.029964495 30
-18.367065 0.86616939 -0.13864096 44
-17.907574 -1.765316 -0.2418416 43
-18.338533 -0.47060055 -0.35479608 42
-18.385702 0.86704832 -0.46462283 39
-17.896542 -1.7642285 -0.55980664 49
-18.345356 -0.47077563 -0.68029183 48
-18.346668 0.86520749 -0.78907639 46
-17.852102 -1.7598476 -0.87577647 55
-18.314512 -0.46998414 -1.0034297 43
-18.345877 0.86517018 -1.1136768 53
-17.857758 -1.7604051 -1.194062 54
-7.9884133 -0.20499741 -0.5791139 2
-18.311466 0.86354744 -1.436307 45
-7.7032471 -0.7593807 -0.65203595 13
-7.6584034 -0.19652875 -0.69072801 0
-18.30732 0.86335182 -1.7602339 41
-7.7223482 -0.76126367 -0.79108334 3
-7.75247 -0.19894266 -0.83643979 1
-7.5025792 -0.19253001 -0.94251931 1
-7.4217348 -0.19045539 -1.0637568 97
-7.4415026 -0.19096266 -1.199658 16
-7.4079776 -0.19010235 -1.3253345 38
-7.3722863 -0.18918644 -1.4504704 37
-7.3739414 -0.18922892 -1.5814912 32
-7.4786143 -0.19191502 -1.7366346 5
-8.150794 -0.20916438 -2.0366693 5
-5.717164 -0.14671296 -1.9674392 6
-1.5693105 -0.040271401 -0.73175567 14
-1.9914411 -0.036498826 0.52576631 5
-2.5798328 -0.047282778 0.49860919 3
-3.3983285 -0.062284041 0.4755066 4
-5.0362058 -0.092302807 0.43731886 3
-9.1343851 -0.16741359 0.46999967 14
-18.358463 -0.33647105 0.61970246 28
-14.756381 0.80434412 0.410988 22
-13.082569 -1.1929122 0.28802329 7
-18.358561 -0.33647284 0.29421765 31
-14.76133 0.80461389 0.14965452 28
-18.224232 -1.6617464 0.077293426 46
-18.372889 -0.33673549 -0.030468548 34
-18.364218 1.0010009 -0.13867112 37
-18.226732 -1.6619743 -0.24598069 34
-18.34149 -0.33616 -0.35479608 43
-18.366875 1.0011458 -0.46432 39
-18.219553 -1.6613196 -0.56951427 37
-18.348314 -0.33628505 -0.68029183 51
-18.351805 1.0003244 -0.78959143 44
-17.93614 -1.6354771 -0.87928736 57
-18.337431 -0.33608562 -1.0045234 43
-18.347015 1.0000632 -1.114161 54
-18.168282 -1.6566446 -1.2139808 45
-7.9936905 -0.14650713 -0.57940304 2
-18.324554 0.99883896 -1.4378692 40
-7.6887593 -0.70108676 -0.65035719 31
-7.6676044 -0.14053066 -0.69144642 1
-18.296522 0.99731094 -1.7598515 44
-7.6365733 -0.69632822 -0.78175259 0
-7.5708117 -0.13875666 -0.81670839 0
-7.610929 -0.13949193 -0.95597678 1
-7.4229317 -0.13604635 -1.0637568 50
-7.4466505 -0.13648106 -1.2002945 32
-7.4052353 -0.13572201 -1.3246303 38
-7.377399 -0.13521183 -1.4512423 38
-7.3712201 -0.13509858 -1.5806526 33
-7.4798203 -0.13708898 -1.7366346 8
-8.1365871 -0.14912611 -2.0327919 4
-5.7067404 -0.10459226 -1.9635355 8
-1.5949377 -0.029231772 -0.74358547 13
-1.9993819 -0.022682805 0.52780813 2
-2.5565374 -0.02900368 0.49405569 2
-3.3709526 -0.038243145 0.47162718 4
-4.7896724 -0.054338396 0.4158681 4
-7.1740503 -0.081388943 0.36909464 0
-18.364361 -0.20834199 0.6198374 14
-18.378143 1.130497 0.51206702 36
-11.831332 -0.99558634 0.26031694 27
-11.705744 -0.13280058 0.18757898 3
-15.23043 0.93687129 0.15447295 17
-18.271261 -1.5374954 0.077445477 55
-17.106876 -0.19407593 -0.028366124 5
-18.360773 1.1294284 -0.13870127 41
-18.257818 -1.5363641 -0.24624947 35
-18.33939 -0.20805869 -0.35471871 48
-18.363428 1.1295918 -0.46442094 38
-18.262577 -1.5367646 -0.57050991 37
-18.338223 -0.20804545 -0.6798473 52
-18.348362 1.1286651 -0.78976309 46
-18.21784 -1.533 -0.89255077 44
-18.319363 -0.20783147 -1.0034297 43
-18.347557 1.1286155 -1.1146452 52
-18.223152 -1.533447 -1.2169021 47
-8.0104752 -0.090878107 -0.58055949 2
-18.333055 1.1277235 -1.439119 42
-7.6815505 -0.64638931 -0.64934993 33
-7.6683984 -0.086997271 -0.69144642 1
-18.316933 1.1267318 -1.7625283 42
-7.7086596 -0.64867049 -0.7886492 1
-7.5596657 -0.085763715 -0.81542158 0
-7.5918741 -0.086129114 -0.95348465 1
-7.4395375 -0.08440087 -1.0660262 44
-7.4395242 -0.084400713 -1.1990216 48
-7.406002 -0.084020413 -1.3246303 37
-7.3860121 -0.083793625 -1.4527862 40
-7.3719835 -0.083634473 -1.5806526 33
-8.844245 -0.10033715 -2.0532086 4
-8.1451912 -0.092406444 -2.0347304 4
-5.6997666 -0.064663328 -1.9609331 7
-1.5987281 -0.018137421 -0.74527544 13
-2.0110941 -0.0087755146 0.53087085 4
-2.5959506 -0.011327568 0.50164485 2
-3.4226353 -0.01493485 0.47883183 4
-4.8855743 -0.021318462 0.42417163 4
-6.7030721 -0.02924921 0.34484455 7
-8.5590448 -0.037347846 0.28887066 6
-13.455233 0.92200685 0.37507102 20
-10.03578 -0.77397436 0.22068633 7
-11.486416 -0.050121583 0.18405426 5
-15.23948 1.0442706 0.15463491 18
-18.317442 -1.4126685 0.077597529 44
-18.3678 -0.080148868 -0.030455282 35
-18.368402 1.258677 -0.1388219 43
-18.292027 -1.4107083 -0.246572 29
-18.344395 -0.080046736 -0.35479608 45
-18.371052 1.2588586 -0.46482471 37
-18.288807 -1.41046 -0.57100779 39
-18.343225 -0.08004164 -0.67999548 44
-18.344023 1.2570064 -0.78993481 45
-18.240049 -1.4066998 -0.89313591 64
-18.336342 -0.080011599 -1.0043046 41
-18.335247 1.2564051 -1.1144031 54
-18.25729 -1.4080294 -1.2184956 36
-8.0069246 -0.034938637 -0.58027041 2
-18.328714 1.2559575 -1.4394314 41
-7.677928 -0.59213328 -0.64867842 33
-7.664835 -0.033445913 -0.69108719 0
-18.296703 1.2537639 -1.7613811 40
-7.744741 -0.59728599 -0.79189467 0
-7.79074 -0.033995304 -0.84030026 14
-7.5248213 -0.032834955 -0.94501144 1
-7.4359856 -0.032447316 -1.0654589 43
-7.443881 -0.032481767 -1.199658 47
-7.4142833 -0.032352615 -1.3260387 37
-7.3824921 -0.032213897 -1.4520143 40
-7.3762984 -0.03218687 -1.5814912 34
-7.4147668 -0.032354727 -1.7212582 5
-8.133996 -0.035493121 -2.0318224 4
-5.6887321 -0.024823084 -1.9570295 6
-1.609692 -0.0070239762 -0.75034529 11
-2.0613842 0.005396402 0.5441426 8
-2.682368 0.0070220469 0.51834106 1
-3.5494213 0.0092918659 0.49656636 6
-5.3119993 0.013906037 0.46119148 4
-6.9427953 0.018175222 0.35717508 7
-9.0148363 0.023599522 0.30425194 6
-13.484352 1.0186304 0.37607181 15
-10.056896 -0.70501119 0.22103705 18
-16.749792 0.043848507 0.2683911 0
-14.28656 1.0792305 0.14503856 20
-18.35878 -1.2869921 0.07773269 50
-18.371912 0.04809498 -0.030461915 34
-18.37911 1.3883885 -0.1389727 39
-18.357286 -1.2868873 -0.24732456 36
-18.340508 0.048012767 -0.35471871 43
-18.35783 1.386781 -0.46472377 39
-18.314161 -1.2838641 -0.57150561 40
-18.347334 0.048030637 -0.68014365 48
-18.338785 1.3853424 -0.79010648 45
-18.277323 -1.2812817 -0.89450127 57
-18.324472 0.04797079 -1.0036484 44
-18.341955 1.3855817 -1.1153715 55
-8.6635323 -0.60733318 -0.57790899 1
-8.0349007 0.021034196 -0.58229429 2
-18.3195 1.3838855 -1.4394314 42
-7.6778989 -0.53823811 -0.64834267 34
-7.6728497 0.020086398 -0.6918056 1
-18.311327 1.3832681 -1.7636756 40
-7.7606311 -0.54403782 -0.79311174 1
-7.8504419 0.020551309 -0.84673446 25
-7.5010548 0.019636665 -0.94202089 1
-7.4439507 0.019487174 -1.0665935 40
-7.4676208 0.019549139 -1.2034765 40
-7.4222035 0.019430244 -1.3274472 38
-7.3825374 0.019326404 -1.4520143 40
-7.3724327 0.01929995 -1.5806526 32
-7.4109159 0.019400693 -1.7203537 2
-8.1301651 0.021283584 -2.030853 5
-5.688767 0.01489236 -1.9570295 7
-1.5661964 0.0041000731 -0.7300657 13
-2.1193061 0.020344313 0.55945623 47
-4.9011011 0.0470482 0.94712979 13
-8.8612909 0.085064106 1.2397532 19
-6.3956451 0.061395098 0.55529809 7
-9.2633219 0.08892341 0.47657597 0
-18.380688 0.17644571 0.62037712 37
-13.472927 1.1124086 0.37596062 16
-10.744052 -0.67784113 0.23603004 6
-11.909923 0.11432949 0.19084735 12
-14.218884 1.1739994 0.1444312 19
-18.363325 -1.1585402 0.077715792 44
-17.199184 0.16510384 -0.028518666 5
-18.372957 1.5169854 -0.13900286 36
-18.353848 -1.1579423 -0.2471633 35
-18.343725 0.17609088 -0.35479608 46
-18.367626 1.5165454 -0.46522847 39
-18.330658 -1.1564794 -0.57175452 39
-18.35055 0.17615639 -0.68029183 51
-18.340614 1.5143151 -0.79062158 42
-18.301773 -1.1546569 -0.89528149 48
-18.327684 0.17593691 -1.0038671 45
-18.331835 1.5135902 -1.1153715 50
-8.5480633 -0.53929639 -0.56994152 2
-8.0784407 0.077549115 -0.58547461 2
-18.325291 1.5130498 -1.4406812 40
-7.6655574 -0.48361921 -0.64699966 48
-7.6685386 0.073614262 -0.69144642 1
-18.313128 1.5120456 -1.7648228 40
-7.6649532 -0.48358107 -0.78296965 0
-7.8580604 0.075433575 -0.84759235 25
-7.51264 0.072117709 -0.94351619 1
-7.4515514 0.071531288 -1.0677282 40
-7.4396601 0.071417138 -1.1990216 40
-7.4376359 0.071397707 -1.330264 36
-7.3822227 0.070865765 -1.4520143 38
-7.3838515 0.070881397 -1.5831683 33
-8.8249254 0.084715009 -2.0486863 4
-8.1259375 0.078005068 -2.0298836 4
-5.6923065 0.054643389 -1.9583306 7
-1.5915067 0.015277694 -0.7418955 14
-2.1384475 0.03545998 0.56456071 28
-5.3051147 0.087970011 1.0252984 20
-5.850215 0.097008936 0.81855857 4
-6.4149833 0.10637398 0.557028 7
-11.523175 0.1910786 0.5928942 9
-15.425097 0.2557807 0.5206688 2
-13.504659 1.2100086 0.3770726 16
-11.846533 -0.66439748 0.26014158 2
-18.375116 0.30469826 0.29447401 25
-14.118713 1.2650275 0.14349991 12
-14.944382 -0.83813632 0.063220106 9
-18.36545 0.30453798 -0.030455282 34
-18.369886 1.6459298 -0.13906318 40
-18.349504 -1.0291083 -0.24700204 32
-18.342049 0.30414996 -0.35479608 47
-18.380489 1.6468798 -0.46583408 40
-18.334295 -1.0282552 -0.57163006 39
-18.352869 0.30432937 -0.68044001 53
-18.345518 1.6437465 -0.79130828 46
-18.317366 -1.0273057 -0.89567161 45
-18.330004 0.30395022 -1.0040859 46
-18.336729 1.6429589 -1.1163399 50
-8.52771 -0.47826561 -0.56834805 3
-8.1295595 0.13480529 -0.58923322 2
-18.322224 1.6416593 -1.4413061 40
-7.6687469 -0.43009177 -0.64699966 35
-7.6797876 0.12734711 -0.69252396 1
-18.310059 1.6405692 -1.7655876 41
-7.5767603 -0.42493281 -0.7736389 0
-7.9249406 0.13141227 -0.85488439 2
-7.5238585 0.12476148 -0.94501144 1
-7.4548297 0.12361684 -1.0682955 39
-7.427135 0.1231576 -1.1971123 39
-7.4487677 0.12351631 -1.3323767 39
-7.393321 0.12259689 -1.4543301 40
-7.3909974 0.12255836 -1.5848454 34
-8.8319111 0.14645176 -2.0504951 4
-8.1174345 0.13460422 -2.0279448 4
-5.6766586 0.094131 -1.9531257 7
-1.5841113 0.026267916 -0.73851556 12
-2.1226821 0.050023824 0.56047714 23
-5.3122234 0.1251896 1.0268162 38
-8.9265652 0.21036637 1.2491747 17
-6.4101 0.15106252 0.55668199 5
-9.24121 0.21778139 0.47554842 1
-18.384426 0.43325341 0.62064695 33
-13.507821 1.3054131 0.37740618 18
-13.280816 -0.65186232 0.29153043 5
-16.657236 0.3925499 0.26698121 3
-14.013988 1.3543298 0.14252812 4
-15.852774 -0.77810174 0.06703832 5
-18.362877 0.43274558 -0.030455282 36
-18.373873 1.7756746 -0.13918382 43
-18.356241 -0.90097946 -0.24700204 36
-18.343475 0.43228835 -0.35487342 54
-18.352623 1.773621 -0.46543035 42
-18.345018 -0.90042865 -0.57175452 38
-18.354294 0.43254331 -0.68058819 52
-18.353485 1.7737043 -0.79216671 51
-18.312119 -0.89881378 -0.89508647 59
-18.339413 0.43219262 -1.0047421 49
-18.33276 1.7717015 -1.1168242 55
-8.5069227 -0.41754535 -0.56675452 2
-8.2002125 0.19324888 -0.59443742 2
-18.310316 1.7695324 -1.4413061 43
-7.6914682 -0.37752035 -0.64867842 46
-7.7105732 0.1817099 -0.69539756 1
-18.333828 1.7718046 -1.7690293 40
-7.5676184 -0.37144145 -0.7724219 0
-7.601788 0.17914623 -0.82013994 0
-7.5188365 0.17719136 -0.94451302 5
-7.4656606 0.1759382 -1.0699975 33
-7.4576774 0.17575008 -1.2022038 43
-7.4437876 0.17542273 -1.3316724 21
-7.3922849 0.174209 -1.4543301 40
-7.3899617 0.17415427 -1.5848454 33
-8.8111963 0.20764753 -2.0459726 3
-8.1046572 0.19099702 -2.0250368 4
-5.6834264 0.13393748 -1.9557282 6
-1.5693915 0.036984794 -0.73175567 14
-2.095221 0.064014956 0.55333078 18
-5.2994437 0.16191307 1.0245395 43
-8.9248791 0.2726804 1.2491747 21
-6.4049058 0.19568807 0.55633599 4
-11.52737 0.35219389 0.59330523 4
-18.384949 0.56171244 0.6207819 47
-13.518265 1.4017458 0.37796217 16
-10.592075 -0.44578966 0.23243523 3
-16.686071 0.50980687 0.2674939 57
-15.245472 1.5808448 0.15516129 18
-18.363579 -0.77286965 0.077631317 44
-18.347412 0.56056559 -0.030435385 13
-18.365005 1.9043177 -0.13921396 37
-18.350096 -0.77230221 -0.24684078 36
-18.344007 0.56046158 -0.35495076 45
-18.387522 1.9066525 -0.4666416 40
-18.334879 -0.77166182 -0.5712567 39
-18.362814 0.56103611 -0.68103272 52
-18.336679 1.9013804 -0.79199505 47
-18.309965 -0.77061319 -0.89469635 60
-18.335949 0.56021535 -1.0047421 45
-18.3398 1.9017041 -1.1180347 52
-8.4697552 -0.3564674 -0.56409872 2
-8.5176764 0.26023921 -0.6175673 1
-18.325283 1.9001987 -1.4434932 43
-7.6939163 -0.3238146 -0.64867842 29
-7.7250447 0.23602207 -0.69683433 9
-18.317051 1.8993452 -1.7686468 41
-7.5660515 -0.31843314 -0.77201617 0
-7.6122775 0.2325767 -0.82142675 1
-7.5293174 0.23004204 -0.94600827 32
-7.4761233 0.2284168 -1.0716995 39
-7.4602165 0.2279308 -1.2028401 41
-7.4266381 0.2269049 -1.3288556 35
-7.3948112 0.22593248 -1.4551021 39
-7.3963842 0.22598055 -1.5865225 33
-7.7891531 0.23798075 -1.8089944 2
-7.8432374 0.23963317 -1.9600883 2
-5.6823525 0.17361201 -1.9557282 7
-1.5908377 0.048604611 -0.7418955 13
-2.0908582 0.078495696 0.55230987 17
-5.3060331 0.19920087 1.0260572 36
-8.8950472 0.33394083 1.2452953 18
-6.4033837 0.24039796 0.55633599 4
-11.524631 0.43266153 0.59330523 6
-16.047552 0.60246253 0.5419867 1
-13.504175 1.4956468 0.37785098 16
-10.311172 -0.36187363 0.22621007 6
-18.376692 0.68990391 0.29466626 22
-15.234064 1.6872396 0.15516129 20
-18.348539 -0.64394742 0.077546842 46
-18.359041 0.68924129 -0.030461915 37
-18.371143 2.0346849 -0.13936476 38
-18.339052 -0.64361447 -0.24662575 38
-18.347641 0.68881327 -0.35510546 52
-18.381712 2.0358555 -0.46684349 37
-18.335823 -0.64350116 -0.57113224 36
-18.350458 0.68891907 -0.68073636 50
-18.334875 2.030668 -0.79251009 46
-18.31889 -0.64290684 -0.89489138 23
-18.335583 0.68836057 -1.0049609 46
-18.345921 2.0318913 -1.1192452 53
-8.1329947 -0.28542987 -0.54152411 1
-18.319019 0.68773872 -1.3285214 43
-18.327425 2.0298429 -1.444743 41
-7.6999726 -0.27023283 -0.64901417 56
-7.7630191 0.29144186 -0.70042622 27
-18.319174 2.0289292 -1.7701765 42
-7.56809 -0.26560435 -0.77201617 0
-7.650209 0.28720671 -0.8257162 1
-7.5632219 0.283941 -0.95049411 36
-7.525784 0.28253549 -1.079075 15
-7.4505501 0.27971104 -1.2015673 202
-7.4288082 0.27889478 -1.3295598 35
-7.4048195 0.27799422 -1.4574178 37
-7.3946261 0.27761152 -1.5865225 32
-7.549789 0.28343669 -1.7538201 5
-7.5427647 0.28317299 -1.8854458 5
-5.6847816 0.21341997 -1.9570295 6
-1.5868366 0.05957355 -0.74020553 13
-2.0825319 0.092746593 0.55026805 15
-5.2966666 0.23588967 1.0245395 35
-6.4134927 0.28562808 0.55737394 4
-9.2745304 0.41304579 0.47760352 1
-18.367327 0.81799799 0.62051201 28
-13.449723 1.5847404 0.3766278 1
-11.652597 -0.32752419 0.2555823 2
-15.250924 0.67920744 0.24461529 25
-15.229858 1.7944883 0.15524228 21
-15.049922 -0.42301416 0.063591793 4
-18.36577 0.81792867 -0.030481812 25
-18.356491 2.16289 -0.13936476 38
-18.339102 -0.51546443 -0.246572 31
-18.34638 0.81706512 -0.3551828 61
-18.355139 2.1627307 -0.46654066 37
-18.323883 -0.5150367 -0.57063442 38
-18.341211 0.81683487 -0.68058819 48
-18.340096 2.1609583 -0.79336858 49
-18.306959 -0.514561 -0.89411116 51
-18.3423 0.81688344 -1.0056171 49
-18.319391 2.1585188 -1.1185188 51
-8.3901253 -0.23582458 -0.55852145 2
-18.329714 0.81632286 -1.3296779 47
-18.32865 2.1596096 -1.4459928 37
-7.6897187 -0.21613799 -0.64800692 36
-18.319458 0.81586611 -1.6533651 28
-18.328289 2.1595671 -1.772471 37
-7.5618043 -0.21254265 -0.77120483 0
-7.695694 0.34273154 -0.83086354 16
-7.5729499 0.33726507 -0.95198935 25
-7.5196733 0.33489236 -1.0785075 5
-7.554935 0.33646277 -1.2187507 59
-7.4266801 0.33075088 -1.3295598 34
-7.4419079 0.33142903 -1.4651372 76
-7.4081373 0.32992506 -1.5898767 33
-7.4542055 0.33197674 -1.7321122 15
-7.5406041 0.33582455 -1.8854458 6
-5.6755958 0.25276548 -1.954427 6
-1.5718946 0.070005104 -0.73344564 12
-2.0702465 0.10668503 0.54720533 15
-3.6083698 0.18594842 0.69820464 40
-3.5961599 0.18531922 0.50377101 20
-6.3954234 0.32957232 0.55599004 5
-14.800761 0.76272064 0.76243937 5
-14.732053 0.75917989 0.49786678 33
-13.454203 1.680581 0.3770726 2
-13.369804 -0.28239393 0.29319629 4
-14.754525 0.76033801 0.23673274 13
-15.212991 1.9002734 0.15520179 30
-18.359741 -0.38779023 0.07756374 39
-17.161205 0.88436025 -0.028492138 1
-18.364756 2.2939644 -0.13954572 37
-18.342253 -0.38742083 -0.246572 42
-18.340229 0.94511831 -0.3551828 47
-18.375301 2.2952816 -0.46744913 40
-18.335028 -0.38726822 -0.57088333 37
-18.347036 0.94546914 -0.68103272 52
-18.344389 2.2914205 -0.794227 50
-18.310104 -0.38674179 -0.89411116 51
-18.336149 0.94490814 -1.0056171 46
-18.367266 2.2942779 -1.1223925 56
-8.3915672 -0.17724474 -0.55852145 2
-18.33552 0.94487566 -1.3305453 38
-18.344782 2.2914693 -1.4484923 43
-7.6751003 -0.1621117 -0.6466639 28
-18.313314 0.94373143 -1.6533651 46
-10.035475 1.2535435 -0.97132176 10
-7.5790176 -0.16008227 -0.77282757 0
-9.6710024 0.49837118 -1.0444773 3
-7.6734633 0.39543298 -0.96494842 6
-7.509243 0.38697028 -1.0773729 9
-7.4932446 0.38614583 -1.2092043 2
-7.435987 0.38319522 -1.3316724 37
-7.4472518 0.38377571 -1.4666811 152
-7.421277 0.38243717 -1.5932308 255
-7.4672709 0.38480735 -1.7357302 12
-7.5264487 0.38785693 -1.8825377 7
-5.6850252 0.29296371 -1.9583306 5
-1.5713676 0.080976546 -0.73344564 12
-2.077173 0.12158746 0.54924715 17
-3.6187456 0.21182352 0.70048141 4
-3.6026878 0.21088359 0.50487942 2
-6.4168358 0.37560993 0.55806589 5
-9.2917862 0.54389536 0.47883657 1
-18.378059 1.075761 0.62132156 32
-13.446106 1.7749913 0.37718379 2
-13.367451 -0.18899168 0.29310861 5
-15.5953 0.91287196 0.25031891 0
-15.223146 2.0095744 0.15544473 20
-18.365999 -0.25966215 0.077580631 43
-18.35256 1.0742683 -0.030481812 28
-18.376053 2.4257829 -0.13975683 39
-18.332512 -0.25918871 -0.24641074 33
-18.341169 1.0736016 -0.3553375 43
-18.390545 2.427696 -0.46825662 39
-18.337284 -0.25925615 -0.57088333 37
-18.332006 1.0730653 -0.68073636 46
-18.343794 2.4215243 -0.79491377 47
-18.312357 -0.25890374 -0.89411116 41
-18.325119 1.0726621 -1.0053984 43
-18.354759 2.422972 -1.1226346 49
-8.388608 -0.1185998 -0.55825585 2
-18.33246 1.0730919 -1.3308344 41
-18.336243 2.4205277 -1.4491172 38
-7.6760449 -0.10852545 -0.6466639 35
-18.30628 1.0715594 -1.6533651 46
-7.6078033 -0.10756063 -0.77566737 0
-9.6236162 0.56331903 -1.039759 0
-18.28483 1.0703039 -2.3002257 50
-7.7039986 0.45095408 -1.1057397 3
-7.5455585 0.44167981 -1.2181143 27
-7.4685078 0.43716961 -1.3380104 46
-7.4483089 0.43598729 -1.467453 32
-7.4496622 0.43606648 -1.5999391 25
-7.5266385 0.44057232 -1.7502021 4
-7.5351806 0.44107231 -1.8854458 6
-5.6639614 0.33154038 -1.9518245 4
-1.5816218 0.092580341 -0.73851556 12
-2.0569775 0.13482118 0.5441426 15
-5.317997 0.34855929 1.0298519 24
-5.7357154 0.37593794 0.80414927 0
-6.3901987 0.41883495 0.55599004 6
-9.3316107 0.6116249 0.48109719 2
-13.491354 0.8842684 0.45631042 4
-13.46903 1.8737717 0.37818459 3
-10.869109 -0.077779405 0.23830968 7
-13.848505 0.90767723 0.22237754 6
-15.232516 2.1191027 0.15568767 19
-15.071479 -0.10785159 0.06365937 4
-18.340622 1.2021056 -0.030475179 11
-18.378481 2.5567598 -0.13990763 41
-18.35387 -0.1313404 -0.24667951 33
-18.34919 1.2026672 -0.35564691 44
-18.37315 2.5560184 -0.46825662 39
-18.350639 -0.13131729 -0.5712567 36
-18.35598 1.2031121 -0.68192178 50
-18.346233 2.5522738 -0.79577219 40
-18.309723 -0.13102448 -0.89391613 54
-18.325155 1.2010919 -1.0058359 46
-18.349262 2.552695 -1.123361 52
-8.4131784 -0.060204752 -0.55984938 2
-18.324522 1.2010504 -1.3308344 39
-18.342596 2.5517678 -1.4509919 43
-7.6726298 -0.054905381 -0.64632815 34
-18.302328 1.1995957 -1.6537243 47
-10.001221 1.3913401 -0.96979213 0
-7.7277474 -0.055299804 -0.78783786 3
-9.5757971 0.6276297 -1.0350406 0
-18.280872 1.1981894 -2.300724 60
-15.962379 1.0462276 -2.2920413 1
-7.6171627 0.49925426 -1.2302064 11
-7.5399265 0.49419197 -1.3513905 18
-7.4842482 0.49054259 -1.4751724 18
-7.586935 0.49727306 -1.6301267 2
-7.5272675 0.49336225 -1.7511066 3
-7.516428 0.49265179 -1.8815683 6
-5.6728325 0.37181637 -1.9557282 4
-1.580937 0.10361989 -0.73851556 13
-2.0521286 0.14889842 0.5431217 15
-5.3076 0.38510904 1.028334 29
-5.6855383 0.4125315 0.79749882 3
-6.4109659 0.46516711 0.55806589 5
-9.3510189 0.67849153 0.48233023 1
-12.444181 0.90292537 0.42109546 20
-13.479359 1.9712291 0.37885177 3
-10.48548 -0.001829826 0.22989255 4
-13.781996 0.99999452 0.22141625 13
-15.225266 2.2265515 0.15576866 24
-18.359837 -0.0032039837 0.077546842 40
-18.375668 1.3333023 -0.030548135 35
-18.368099 2.6861613 -0.13996795 36
-18.354342 -0.0032030246 -0.24667951 40
-18.340345 1.3307395 -0.35564691 44
-18.382553 2.6882751 -0.46896321 40
-18.343115 -0.0032010656 -0.57100779 38
-18.347132 1.3312318 -0.68192178 51
-18.343786 2.6826055 -0.7964589 44
-18.310192 -0.0031953203 -0.89391613 63
-18.348192 1.3313087 -1.007586 42
-18.354698 2.6842012 -1.1248136 50
-8.4493141 -0.0014744938 -0.56223959 2
-18.343544 1.3309715 -1.3328582 40
-10.030246 1.4668288 -0.79423374 0
-7.6807981 -0.0013403797 -0.64699966 32
-18.305428 1.3282058 -1.6548018 54
-9.8139734 1.435201 -0.95258367 0
-7.7478418 -0.0013520794 -0.78986627 2
-9.5870466 0.69561726 -1.0367564 0
-18.272062 1.3257849 -2.300724 78
-15.915194 1.1547751 -2.2863681 1
-11.950462 0.86710209 -2.1429293 2
-10.63574 0.77170843 -2.0973539 1
-9.6234293 0.69825715 -2.0686843 2
-7.5430708 0.54731035 -1.7556291 0
-7.5089345 0.54483354 -1.880599 7
-5.6587801 0.41058996 -1.9518245 4
-1.580175 0.11465439 -0.73851556 13
-2.0587497 0.16383494 0.54516351 15
-5.3008671 0.4218421 1.0275751 37
-5.5877452 0.44467181 0.78419799 19
-6.3916726 0.50864822 0.55668199 7
-9.3500366 0.74407429 0.48253575 2
-12.425619 0.98882866 0.42069069 29
-13.481078 2.0677094 0.37929657 3
-13.420464 0.091352664 0.29424843 10
-13.778665 1.0965037 0.22148034 11
-15.225165 2.3352153 0.15593062 21
-18.367411 0.12502638 0.077580631 41
-18.377872 1.462508 -0.030568032 30
-18.37262 2.8179677 -0.14014889 38
-18.341919 0.12485285 -0.24651824 35
-18.334597 1.459064 -0.35572425 45
-18.367292 2.8171504 -0.46906415 42
-18.346687 0.12488531 -0.57113224 37
-18.34536 1.4599205 -0.68221813 52
-18.356209 2.8154507 -0.79783243 42
-18.313763 0.1246612 -0.89411116 45
-18.338449 1.4593707 -1.007586 41
-18.355242 2.8153024 -1.1260241 53
-8.5010023 0.057866052 -0.56569219 2
-18.329828 1.4586846 -1.3325691 39
-9.6216516 1.4757559 -0.76267684 0
-7.6806202 0.052281734 -0.64699966 34
-18.299681 1.4562854 -1.655161 81
-9.2487879 1.4185666 -0.89866382 0
-7.7436829 0.052711003 -0.7894606 3
-18.291746 1.455654 -1.9791453 50
-18.290056 1.4555194 -2.304213 39
-15.914639 1.2664841 -2.2875028 1
-13.612765 1.0833015 -2.200752 2
-11.924492 0.94894904 -2.1394081 2
-10.614445 0.84469569 -2.0942662 2
-9.6066236 0.76449347 -2.0661688 2
-8.7547932 0.69670492 -2.0387368 2
-7.5126848 0.59785813 -1.8825377 9
-5.6708579 0.4512859 -1.9570295 5
-1.5648798 0.12453286 -0.73175567 13
-2.0459964 0.1772026 0.54210085 13
-5.3017058 0.45917773 1.028334 36
-5.6042385 0.4853799 0.78696901 20
-6.4157567 0.55566508 0.55910385 7
-9.3804331 0.81243396 0.48438534 2
-12.442309 1.0776213 0.42150024 30
-13.470262 2.1624086 0.37940776 3
-11.908006 0.1642008 0.26110604 23
-13.810519 1.1961212 0.22212119 12
-15.22034 2.4433522 0.1560521 30
-15.506387 0.21381927 0.065500893 12
-18.399097 1.5935353 -0.030621089 31
-18.376196 2.9499681 -0.14032985 40
-18.348598 0.25301084 -0.24662575 32
-18.339901 1.5884084 -0.35603365 49
-18.370867 2.9491127 -0.46966979 40
-18.341372 0.25291118 -0.57100779 37
-18.346668 1.5889945 -0.68266267 51
-18.328217 2.942266 -0.79748905 83
-18.312447 0.25251234 -0.89411116 43
-18.339752 1.5883956 -1.0082422 41
-9.6938534 1.556174 -0.59533286 2
-8.612133 0.11875365 -0.57312852 2
-18.343046 1.5886807 -1.3343039 41
-9.2921867 1.4916937 -0.73736882 0
-7.6880388 0.10601121 -0.64767116 34
-18.304943 1.5853808 -1.6565979 70
-8.9831219 1.4420788 -0.87380719 0
-7.6197777 0.10506995 -0.77688438 0
-18.304911 1.5853781 -1.9817189 50
-18.283403 1.5835152 -2.3047113 38
-15.885684 1.3758501 -2.2846661 1
-13.604871 1.1783102 -2.200752 1
-11.901886 1.0308156 -2.1365914 4
-10.612199 0.91911656 -2.0950382 2
-9.6166391 0.8328917 -2.0695229 3
-8.7458344 0.75747174 -2.0378323 3
-7.5160608 0.65096176 -1.8844765 8
-5.6562643 0.48988584 -1.9531257 5
-1.5675843 0.13576759 -0.73344564 13
-2.0562615 0.19256386 0.54516351 9
-4.6805534 0.43832237 0.90842497 18
-5.6362104 0.52781731 0.79195684 9
-6.423624 0.60155666 0.5601418 4
-9.3824863 0.87864685 0.48479635 2
-12.434484 1.1644589 0.42150024 35
-13.49427 2.2630091 0.38051975 4
-13.421878 0.27880725 0.29433611 6
-13.813778 1.2936265 0.22231345 10
-15.250247 2.5574889 0.15653799 24
-15.320558 0.31824777 0.064723738 3
-18.399469 1.7230653 -0.030640986 35
-18.37882 3.0821552 -0.14051081 39
-18.354382 0.38126814 -0.24673326 31
-18.352255 1.7186437 -0.35649773 47
-18.381378 3.0825844 -0.47047728 42
-18.347153 0.38111797 -0.5712567 39
-18.347069 1.718158 -0.6831072 52
-18.342699 3.0760977 -0.79903424 67
-18.31423 0.38043413 -0.89430624 46
-18.348099 1.7182546 -1.009336 44
-9.43468 1.5822097 -0.58008033 2
-8.6789303 0.1802839 -0.57764345 2
-18.33548 1.7170727 -1.3345931 39
-9.0377092 1.5156372 -0.71799725 0
-7.6990662 0.15992959 -0.64867842 35
-18.313261 1.714992 -1.6583937 70
-8.7332973 1.4645869 -0.85048014 0
-7.6307936 0.1585114 -0.77810144 1
-18.305275 1.7142442 -1.9830058 55
-18.287708 1.712599 -2.3067052 39
-15.867808 1.4859813 -2.2835314 1
-13.588449 1.272525 -2.1994791 1
-11.894399 1.1138813 -2.1365914 3
-10.605524 0.99318129 -2.0950382 4
-9.6028013 0.89927882 -2.0678458 2
-8.7403326 0.81851071 -2.0378323 3
-7.4881496 0.70124686 -1.8786602 7
-5.6451745 0.52865672 -1.9505234 8
-1.5882564 0.14873631 -0.74358547 13
-2.0433228 0.20575212 0.54210085 1
-4.4702773 0.45013395 0.86820233 4
-5.7466912 0.57866234 0.8080287 3
-6.4232326 0.64678657 0.56048775 5
-9.4238186 0.94893014 0.48726246 2
-12.441961 1.2528416 0.42203993 29
-13.466327 2.3550954 0.38018614 4
-13.435595 0.37294027 0.29468682 4
-13.80839 1.390434 0.22237754 14
-15.239901 2.6652715 0.15661897 23
-15.218001 0.42241564 0.064301372 3
-18.375053 1.8502736 -0.030621089 36
-18.384436 3.2152123 -0.14072192 42
-18.35527 0.50949883 -0.24678701 38
-18.359705 1.8487279 -0.35688448 44
-18.386982 3.2156575 -0.47118387 40
-18.332056 0.50885439 -0.57088333 40
-18.346558 1.8474041 -0.68355179 51
-18.332588 3.2061446 -0.79954928 78
-18.307137 0.50816274 -0.89411116 59
-18.347578 1.8475069 -1.0099922 48
-9.1362963 1.5978261 -0.56240678 2
-8.7133665 0.24186239 -0.58003366 1
-18.330984 1.845836 -1.3351712 40
-8.7833614 1.5361022 -0.69862574 0
-7.74159 0.2148882 -0.6523717 19
-18.320662 1.8447967 -1.6601897 63
-8.4679203 1.4809352 -0.82562351 0
-7.661324 0.21266019 -0.78134692 0
-18.308689 1.843591 -1.9847215 48
-18.29505 1.8422177 -2.3091972 36
-15.853107 1.5963266 -2.282964 1
-13.579234 1.3673592 -2.1994791 1
-11.894168 1.1976817 -2.1379998 3
-10.582711 1.0656247 -2.0919504 4
-9.5885067 0.96551341 -2.0661688 4
-8.7150221 0.87755793 -2.0333097 3
-7.5139618 0.75661737 -1.8864152 7
-5.641346 0.56805462 -1.9505234 7
-1.5907863 0.16018403 -0.74527544 13
-2.045682 0.22042653 0.5431217 2
-5.2870221 0.56968772 1.0275751 14
-5.7503891 0.61961651 0.80913711 8
-6.418561 0.69161338 0.56048775 4
-9.5202293 1.0258247 0.49260569 17
-12.444837 1.3409573 0.4224447 28
-13.484961 2.4554973 0.38118693 4
-13.42467 0.46645159 0.29451147 2
-13.826182 1.4898002 0.22282614 15
-15.240598 2.7751839 0.15682143 28
-14.623045 0.50809014 0.061800949 3
-18.393505 1.9819387 -0.030674146 34
-18.377281 3.3463473 -0.14084256 41
-18.359262 0.63790816 -0.24689452 34
-18.354305 1.9777148 -0.35703915 45
-18.387688 3.3482425 -0.47178951 38
-18.344038 0.63737923 -0.57138115 41
-18.357058 1.9780115 -0.68444085 58
-18.333347 3.3383474 -0.80057943 81
-18.319113 0.63651317 -0.89489138 44
-18.346146 1.9768357 -1.0106485 41
-8.8420973 1.6100712 -0.54497534 6
-18.320404 0.636558 -1.2198236 46
-18.341452 1.9763298 -1.336906 40
-8.5095654 1.5495198 -0.67769194 0
-7.883307 0.27391219 -0.66445887 2
-18.311296 1.9730806 -1.6605489 65
-8.2654285 1.5050646 -0.80688542 0
-7.6994224 0.26752296 -0.78540373 0
-18.299326 1.9717909 -1.9851505 55
-18.297527 1.971597 -2.3111908 38
-11.200121 1.2068365 -1.6140738 1
-13.553652 1.4604344 -2.1969335 1
-11.885517 1.2806894 -2.1379998 2
-10.598428 1.1420028 -2.0965822 2
-9.5698671 1.0311732 -2.0636532 5
-8.708683 0.93837887 -2.0333097 3
-7.4853458 0.80656171 -1.880599 5
-5.6410036 0.60782999 -1.9518245 6
-1.5824202 0.1705091 -0.7418955 12
-2.0517778 0.23558408 0.54516351 5
-5.2907195 0.60747766 1.0290929 28
-5.7498584 0.66019577 0.80969131 2
-6.4214945 0.73731267 0.56117976 4
-10.124007 1.1624333 0.52425414 9
-12.443115 1.428712 0.42271453 25
-13.471418 2.550324 0.38129812 4
-13.437069 0.5608291 0.29486218 1
-13.982327 1.6054436 0.22551773 14
-15.240501 2.8852355 0.15702388 24
-14.659106 0.61183387 0.061969895 3
-18.379221 2.1102924 -0.030674146 34
-18.384912 3.4805157 -0.14108384 39
-18.354361 0.76606435 -0.24689452 43
-18.351969 2.1071637 -0.35727122 45
-18.38744 3.480994 -0.47239515 42
-18.343136 0.76559591 -0.57150561 38
-18.33486 2.1051991 -0.6841445 48
-18.333153 3.470717 -0.80160958 90
-18.322208 0.76472241 -0.89528149 46
-18.343803 2.106226 -1.0113049 43
-8.6070318 1.6294289 -0.53117543 7
-18.315514 0.76444298 -1.2198236 51
-18.331171 2.1047757 -1.3371952 38
-8.2712851 1.5658675 -0.65957016 0
-18.303186 0.76392853 -1.5431294 40
-18.301035 2.1013153 -1.6609081 74
-7.9847784 1.5116279 -0.7804991 5
-7.7927895 0.32525122 -0.79514015 3
-18.312773 2.102663 -1.9881531 48
-10.798052 1.2398267 -1.55734 5
-11.059697 1.2698687 -1.7940774 2
-10.949185 1.2571799 -1.9711006 1
-10.582398 1.2150655 -2.0950382 2
-9.5274649 1.0939386 -2.0561063 4
-8.7019196 0.99914998 -2.0333097 3
-7.5103765 0.86233753 -1.8883541 5
-5.6366229 0.64719409 -1.9518245 7
-1.5775895 0.18113801 -0.74020553 13
-2.0462441 0.24943449 0.5441426 7
-5.3019433 0.6462999 1.0321286 35
-8.816247 1.0746889 1.2425243 19
-6.4043231 0.78067857 0.5601418 4
-10.064095 1.2268 0.52158248 7
-12.452679 1.5179652 0.42338917 24
-13.488596 2.6512506 0.38229892 15
-13.440815 0.6550132 0.29503754 0
-13.994598 1.7059231 0.22590224 22
-15.223912 2.9923356 0.15706438 26
-15.589359 0.75971854 0.065923266 2
-18.391834 2.2419403 -0.030720573 31
-18.387642 3.614182 -0.14129494 42
-18.35256 0.89437801 -0.24694829 38
-18.348721 2.2366848 -0.35750327 45
-18.366613 3.6100488 -0.47249609 40
-18.357311 0.89460957 -0.57212788 37
-18.363361 2.2384696 -0.68577445 48
-18.339848 3.6047881 -0.80298305 69
-18.316422 0.89261687 -0.89528149 50
-18.340546 2.2356882 -1.0119611 42
-8.4309025 1.6571357 -0.52100706 5
-18.313717 0.89248508 -1.2200892 51
-18.339792 2.2355964 -1.3389299 40
-8.0723324 1.586657 -0.64457285 9
-18.313332 0.89246631 -1.5444725 39
-18.293827 2.2299933 -1.6616266 57
-7.8451028 1.5419939 -0.76787955 14
-9.6782904 0.47165355 -0.98783994 1
-10.690406 1.3031464 -1.161579 4
-10.345554 1.2611095 -1.3088608 6
-10.246728 1.2490627 -1.4790475 6
-10.544878 1.2854068 -1.7119788 2
-10.549283 1.2859437 -1.900679 2
-10.561971 1.2874902 -2.0927224 2
-9.5506544 1.1642122 -2.0628147 2
-8.6792612 1.0579906 -2.0296917 5
-7.5157294 0.91615754 -1.8912622 5
-5.6244583 0.68561405 -1.9492221 6
-1.5726876 0.19170855 -0.73851556 13
-2.0482886 0.26420864 0.54516351 17
-5.3011975 0.68380117 1.0328876 44
-8.8556757 1.1422931 1.2491747 19
-6.3710513 0.82180154 0.55771995 5
-10.079058 1.3000971 0.52281559 8
-17.156015 2.2129536 0.58381289 28
-13.532446 2.7581241 0.38407809 5
-14.733588 0.82115585 0.323533 7
-13.974416 1.8025591 0.22577408 21
-15.226169 3.1033311 0.15730731 22
-15.539745 0.86608583 0.065737426 4
-18.391602 2.3723316 -0.030747101 35
-18.385479 3.7472477 -0.1414759 39
-18.353857 1.0229263 -0.24705578 36
-18.348524 2.3667753 -0.35781264 43
-18.403656 3.7509525 -0.47411111 41
-18.346628 1.0225235 -0.57200342 40
-18.359182 2.36815 -0.68621898 51
-18.34948 3.7399106 -0.80452824 50
-18.333679 1.0218018 -0.89645177 46
-18.344299 2.36623 -1.0130548 46
-8.3174114 1.6952183 -0.51471233 2
-18.322981 1.0212055 -1.2211515 48
-18.339563 2.3656194 -1.3400863 38
-18.306656 1.0202957 -1.5444725 40
-10.055564 1.2970667 -0.91414601 10
-9.6191378 0.53610909 -0.98216039 0
-10.32212 1.3314497 -1.1225451 6
-9.938941 1.2820234 -1.25852 4
-9.8568373 1.2714329 -1.4240158 4
-10.202737 1.3160504 -1.6578828 5
-10.446324 1.3474709 -1.8837779 1
-10.54494 1.3601912 -2.0911784 2
-9.5384159 1.2303597 -2.061976 2
-8.6600704 1.117062 -2.0269783 5
-7.5206976 0.97009432 -1.8941703 5
-5.6120319 0.72389567 -1.9466196 6
-1.5928851 0.20546617 -0.74865532 12
-2.0463941 0.27850196 0.54516351 15
-5.3001862 0.72132343 1.0336465 34
-8.8514099 1.2046237 1.2497289 16
-6.3809533 0.8684094 0.55910385 4
-10.069736 1.3704305 0.52281559 7
-16.91832 2.3024817 0.57625717 32
-13.493299 2.848402 0.38352209 6
-13.478253 0.84561878 0.29608968 0
-13.997157 1.9049289 0.22635084 19
-15.243266 3.2178156 0.15771222 25
-15.569248 0.97680676 0.065889478 11
-18.382519 2.5017505 -0.030760366 32
-18.390179 3.8821208 -0.14171717 42
-18.362236 1.1520373 -0.24727081 38
-18.343441 2.4964321 -0.35804468 47
-18.412231 3.8867762 -0.47501954 37
-18.347021 1.1510828 -0.57225233 39
-18.358044 2.4984193 -0.68681169 49
-18.342472 3.87205 -0.80538666 43
-18.310148 1.1487694 -0.89567161 58
-18.355034 2.4980097 -1.0145861 45
-8.3053732 1.7532436 -0.51471233 3
-18.315405 1.1490992 -1.2211515 51
-18.334461 2.4952099 -1.3409537 39
-7.8699102 1.6613184 -0.63020039 0
-18.307041 1.1485745 -1.545144 35
-10.212056 1.3897995 -0.92923212 26
-7.7643714 1.6390395 -0.76214343 0
-9.5992737 0.60225356 -0.98053765 1
-9.8948679 1.346632 -1.0770772 4
-9.5364904 1.2978591 -1.2086776 5
-9.4200706 1.282015 -1.3621761 5
-9.696352 1.3196152 -1.577057 4
-9.7226782 1.323198 -1.7549063 1
-10.539075 1.4343047 -2.0919504 2
-9.4985905 1.292701 -2.0552678 2
-8.6404781 1.1759171 -2.0242648 2
-7.9521065 1.0822339 -2.0046797 7
-5.614337 0.76407754 -1.9492221 6
-1.562673 0.2126704 -0.73513561 13
-2.0329146 0.29113683 0.54210085 14
-5.2989087 0.75886488 1.0344054 40
-5.9487824 0.85193425 0.84072673 4
-6.1774969 0.88468885 0.54180485 4
-10.127147 1.4503243 0.52630919 9
-16.692093 2.3905003 0.56910628 30
-13.500429 2.9485054 0.38430047 6
-13.727339 0.95750296 0.3017011 8
-13.983517 2.0026011 0.22635084 20
-15.236061 3.327569 0.1578742 25
-15.733631 1.0974449 0.066615947 5
-18.364605 2.6300235 -0.030760366 33
-18.386074 4.0155349 -0.14189813 39
-18.365713 1.2810367 -0.24743207 33
-18.341404 2.6267006 -0.35835409 43
-18.400274 4.0186357 -0.47542331 38
-18.354492 1.280254 -0.57275015 38
-18.352026 2.6282218 -0.68725628 49
-18.346228 4.0068321 -0.80676019 71
-18.313639 1.2774044 -0.89625674 78
-18.349009 2.6277897 -1.0152425 45
-8.273427 1.8069237 -0.51350182 4
-18.34277 1.2794363 -1.2235417 55
-18.344238 2.6271067 -1.3429775 37
-7.9126635 1.7281326 -0.63457459 0
-18.30653 1.2769085 -1.5458155 37
-10.091684 1.4452456 -0.91917473 0
-7.7177296 1.6855589 -0.75870174 0
-18.292513 1.2759308 -1.8693907 43
-9.5112324 1.3621184 -1.0363275 4
-9.1736107 1.313767 -1.1638194 6
-9.0698872 1.2989125 -1.3128178 6
-9.3038054 1.3324122 -1.5146875 9
-9.2961435 1.3313152 -1.6795552 7
-10.501609 1.5039515 -2.0865469 1
-9.500948 1.3606454 -2.0577834 2
-8.6320581 1.2362103 -2.0242648 3
-7.9443574 1.1377237 -2.0046797 9
-5.6051216 0.8027181 -1.9479209 6
-1.564739 0.22408868 -0.73682559 13
-2.0576043 0.30934712 0.54924715 17
-5.2934818 0.79583979 1.0344054 35
-8.8063059 1.3239696 1.2458495 17
-6.3839688 0.95978731 0.56048775 7
-10.156278 1.5269288 0.5283643 5
-16.441753 2.4719083 0.56114578 27
-13.499018 3.0470865 0.38485646 6
-13.640574 1.0471923 0.29994753 15
-13.98106 2.1019595 0.22654311 18
-15.243672 3.4409013 0.15819812 23
-15.653798 1.2017484 0.066311844 12
-18.401175 2.7664943 -0.030853217 35
-18.384905 4.1499605 -0.14210923 37
-18.352337 1.4089161 -0.24737832 30
-18.346346 2.7582512 -0.35881817 44
-18.395174 4.1522789 -0.47602895 39
-18.349094 1.4086672 -0.57287461 38
-18.349039 2.758656 -0.68784899 50
-18.345095 4.1409745 -0.807962 55
-18.316225 1.4061439 -0.89684188 51
-18.365763 2.7611701 -1.0172112 45
-8.2177696 1.8549685 -0.51083869 4
-18.309515 1.4056287 -1.2219483 50
-7.9004059 1.7833313 -0.63457459 0
-18.321014 1.4065115 -1.54783 39
-9.7307272 1.4629501 -0.88720655 0
-7.6980066 1.7376443 -0.75793689 0
-18.291094 1.4042145 -1.8702021 46
-9.2104692 1.3847327 -1.0045856 6
-8.8698626 1.3335248 -1.1264377 7
-8.7825947 1.3204046 -1.2725369 5
-9.0052958 1.3538862 -1.4675922 6
-8.9400778 1.3440813 -1.6168799 4
-10.490853 1.5772301 -2.0865469 1
-9.4757481 1.4246156 -2.0544293 2
-8.6039524 1.293547 -2.0197423 3
-7.7558527 1.1660409 -1.9591188 4
-5.599381 0.84182972 -1.9479209 7
-1.5703068 0.23608518 -0.74020553 12
-2.0515742 0.32310271 0.54822624 17
-5.3071942 0.83583075 1.0382 34
-8.7772818 1.3823353 1.2430785 21
-6.3889227 1.0061923 0.5615257 4
-9.4863749 1.4940104 0.49404427 1
-16.187153 2.5493169 0.5530504 27
-13.500781 3.146699 0.38552365 8
-13.644886 1.1433978 0.30021057 14
-14.009503 2.2063587 0.22724804 16
-15.242651 3.5526857 0.15844107 21
-15.696844 1.3153453 0.066531472 6
-18.401167 2.8980024 -0.030886378 35
-18.398335 4.288198 -0.14244099 41
-18.36198 1.5386752 -0.24764709 34
-18.362198 2.8918653 -0.3595143 50
-18.385212 4.2851391 -0.47653365 41
-18.354746 1.538069 -0.57337242 38
-18.356974 2.8910422 -0.68888623 55
-18.350767 4.2771106 -0.80950719 56
-18.309944 1.5343148 -0.89703697 41
-18.365765 2.892427 -1.0183049 43
-8.1890659 1.9086691 -0.50987029 5
-18.335049 1.5364183 -1.2243385 52
-9.5174236 1.4989004 -0.69823271 0
-7.8683457 1.8339173 -0.63301241 0
-18.318693 1.5350478 -1.5485015 35
-9.3818378 1.4775469 -0.85631597 0
-7.6895657 1.792248 -0.75831932 0
-18.332396 1.5361962 -1.875476 40
-8.9373665 1.4075471 -0.97584641 6
-8.5976629 1.3540471 -1.0930433 8
-8.4172287 1.3256304 -1.2209091 5
-8.5626173 1.3485278 -1.3969493 5
-8.5492983 1.3464302 -1.5478668 1
-8.5643377 1.3487988 -1.7052097 1
-8.3799276 1.3197559 -1.8187988 1
-8.6101084 1.3560071 -2.0233603 2
-7.7705245 1.223781 -1.9649351 4
-5.5896311 0.88031179 -1.9466196 8
-1.5936897 0.25099039 -0.75203526 12
-2.0607171 0.33930257 0.55128896 17
-5.2934799 0.87158555 1.0366821 43
-8.7048779 1.4332813 1.2342112 18
-6.401403 1.054008 0.56325561 4
-9.4835978 1.5614996 0.49445528 1
-15.955954 2.6271904 0.54576457 24
-13.482372 3.2418103 0.38563484 10
-13.660468 1.2407932 0.30073664 17
-13.997705 2.3047595 0.22731213 13
-15.240811 3.6646235 0.15868402 22
-16.029865 1.4560078 0.067984425 3
-18.400223 3.0296457 -0.030919541 38
-18.391285 4.4221487 -0.14262193 38
-18.362741 1.6679052 -0.24780835 40
-18.337616 3.0193374 -0.35943696 76
-18.389837 4.4218006 -0.47744209 39
-18.351528 1.6668866 -0.57362133 42
-18.363953 3.0236738 -0.68992347 60
-18.355429 4.4135275 -0.81105238 61
-18.334597 1.6653488 -0.89879239 42
-18.356947 3.0225203 -1.0189612 34
-8.1367197 1.9564586 -0.50744927 5
-18.319902 1.664014 -1.2240729 49
-9.2154255 1.5173444 -0.67683756 0
-7.8902459 1.8971944 -0.63582438 0
-18.323408 1.6643325 -1.5498445 34
-9.1197157 1.5015855 -0.83332759 0
-7.7000942 1.8514727 -0.76061374 0
-18.321226 1.6641343 -1.875476 40
-8.6644087 1.426618 -0.9471072 7
-8.3412857 1.373415 -1.0616426 9
-8.1030264 1.3341849 -1.1766568 7
-8.4672689 1.3941584 -1.3829479 3
-8.310463 1.3683398 -1.506318 1
-8.2371559 1.3562696 -1.6419109 1
-8.1582565 1.3432786 -1.7726789 3
-8.4697142 1.3945611 -1.9926074 2
-7.7694502 1.2792606 -1.9668739 5
-5.5721531 0.9174698 -1.942716 7
-1.5775894 0.2597543 -0.74527544 13
-2.0544865 0.35302484 0.55026805 17
-5.3104897 0.91250771 1.0412357 34
-8.6751385 1.4906592 1.2314402 8
-6.4017439 1.1000192 0.56394756 3
-11.72444 2.0146244 0.6120066 21
-15.771744 2.7100773 0.54009777 26
-13.490459 3.3435509 0.38652444 9
-13.663413 1.3372997 0.30099967 16
-14.000984 2.4058056 0.22763257 14
-15.23815 3.7767084 0.15892695 24
-15.824244 1.54879 0.067156583 13
-18.390453 3.160053 -0.030939437 36
-18.394905 4.5590963 -0.14289337 37
-18.362593 1.7972295 -0.24796961 35
-18.339741 3.1513393 -0.35990104 79
-18.39345 4.5587358 -0.47835055 42
-18.355358 1.7965214 -0.57411921 38
-18.362097 3.1551805 -0.69066435 51
-18.335808 4.5444493 -0.81156743 53
-18.338428 1.7948644 -0.89957261 47
-9.4156895 1.617909 -0.5232622 2
-8.1151123 2.0112951 -0.50696504 7
-18.331673 1.7942032 -1.2256664 49
-8.9490337 1.5377229 -0.65804458 0
-7.8574557 1.947436 -0.63426214 0
-18.319277 1.7929899 -1.550516 36
-8.8380966 1.5186605 -0.80854332 0
-7.6792517 1.9032687 -0.75984895 0
-18.325003 1.7935505 -1.8770987 42
-8.4190683 1.4466585 -0.92137063 9
-8.0968056 1.3912835 -1.0317372 10
-7.9374208 1.3638964 -1.1539634 13
-8.1265097 1.3963877 -1.3288519 0
-7.9941363 1.3736418 -1.450685 2
-7.9451137 1.3652183 -1.5855595 1
-7.8788567 1.3538332 -1.7139809 2
-8.0450401 1.3823887 -1.8949217 1
-7.7871037 1.3380672 -1.9736595 5
-5.5730681 0.95762688 -1.9453185 7
-1.5542991 0.26707703 -0.73513561 14
-2.0481646 0.36667767 0.54924715 17
-5.3039899 0.94955969 1.0412357 38
-5.4201994 0.97036439 0.77034289 4
-6.3821402 1.1425782 0.56290966 3
-11.721886 2.0985391 0.6126231 20
-15.630449 2.7982793 0.53591514 26
-13.517153 3.4505074 0.38797 9
-13.669653 1.434325 0.30135038 18
-14.015342 2.5091307 0.22814526 11
-15.238541 3.889924 0.1592104 21
-15.960238 1.6746708 0.067781687 6
-18.403378 3.2947097 -0.030999128 38
-18.389757 4.6943312 -0.14310448 36
-18.36153 1.9266328 -0.24813087 31
-18.352724 3.285641 -0.36059719 64
-18.399921 4.6969256 -0.47935992 38
-18.362251 1.9267085 -0.57474148 36
-18.371099 3.2889307 -0.69184983 51
-18.357843 4.6861849 -0.81397104 52
-18.333399 1.923681 -0.89996272 46
-9.1093016 1.6308148 -0.50685555 2
-8.0931358 2.0659251 -0.50648081 10
-18.330608 1.9233882 -1.2264632 53
-8.6828184 1.5544627 -0.63925153 0
-7.8475323 2.0032301 -0.63457459 0
-18.330097 1.9233347 -1.5525305 36
-8.5763025 1.5353935 -0.78555495 0
-7.6850667 1.9617578 -0.76176101 0
-18.331823 1.9235158 -1.8791271 41
-8.2130299 1.4703577 -0.89992344 12
-7.907186 1.4156033 -1.0088097 12
-7.7873917 1.3941568 -1.1335393 14
-7.8094707 1.3981096 -1.2785745 14
-7.74017 1.3857027 -1.4063194 18
-7.6997228 1.3784616 -1.5384713 4
-7.8384137 1.4032911 -1.7072725 3
-7.8625994 1.407621 -1.8542193 1
-7.7737517 1.3917148 -1.9726901 5
-5.5588002 0.99517769 -1.942716 7
-1.5738089 0.28175497 -0.74527544 13
-2.0417528 0.38025954 0.54822624 17
-5.3319798 0.99303699 1.0480659 40
-5.2263594 0.97336608 0.7437411 5
-6.3935962 1.1907542 0.56463951 3
-11.73444 2.185442 0.61406165 20
-15.469049 2.8809819 0.53105789 21
-13.512072 3.5498641 0.38852599 10
-13.6911 1.5332828 0.30205181 16
-14.005348 2.6083798 0.22827342 11
-15.2497 4.0063701 0.15961531 21
-15.868654 1.7771498 0.067443788 12
-18.407455 3.4282358 -0.031045552 37
-18.395224 4.832756 -0.14340608 40
-18.359556 2.056109 -0.24829215 36
-18.3372 3.4151514 -0.36075187 80
-18.397625 4.8333864 -0.48016745 40
-18.360271 2.0561888 -0.57511485 39
-18.367338 3.4207642 -0.69259071 54
-18.35947 4.8233624 -0.81551623 55
-18.335402 2.0534039 -0.90074289 46
-8.8974419 1.6570748 -0.49569905 1
-8.0823793 2.1233861 -0.50672293 10
-18.332598 2.0530899 -1.2275255 49
-8.4325066 1.5704844 -0.62161505 0
-7.8295002 2.0569503 -0.63426214 0
-18.336027 2.0534739 -1.5542094 36
-8.3382177 1.5529239 -0.76472175 0
-7.6442275 2.008276 -0.75908411 0
-18.313992 2.0510061 -1.8787215 37
-8.0188084 1.4934365 -0.87976307 12
-7.7332377 1.4402514 -0.98787588 2
-7.6840463 1.4310899 -1.1199232 29
-7.7063451 1.4352428 -1.2633003 24
-7.6528883 1.425287 -1.392235 24
-7.6320348 1.4214032 -1.5268922 23
-7.6900058 1.4321997 -1.677085 0
-7.8525805 1.462478 -1.8542193 3
-7.7714767 1.447373 -1.9746289 5
-5.5517168 1.0339612 -1.942716 7
-1.5682395 0.29207158 -0.74358547 13
-2.0428455 0.39523903 0.54924715 16
-5.3017826 1.025761 1.0435123 32
-4.9277391 0.95339316 0.70217586 23
-6.3773026 1.233847 0.56394756 3
-11.777727 2.278693 0.61714429 20
-15.37791 2.9752374 0.5286293 12
-13.51784 3.6524534 0.38941559 11
-13.977886 1.664288 0.30862769 27
-14.026063 2.7136891 0.22891428 9
-15.236803 4.1169086 0.15977727 15
-16.006794 1.9058615 0.06808579 6
-18.398783 3.5597 -0.031072082 33
-18.39193 4.969408 -0.14364734 41
-18.360641 2.1861243 -0.24850716 30
-18.348249 3.5499232 -0.36144802 85
-18.398174 4.9710956 -0.48107591 38
-18.36532 2.1866813 -0.57573712 41
-18.354782 3.5511868 -0.69303524 53
-18.356213 4.9597578 -0.81688976 70
-18.324587 2.1818314 -0.90093797 43
-8.6543007 1.6743888 -0.4827925 1
-8.1020479 2.1891332 -0.50890189 13
-18.329706 2.182441 -1.2283223 53
-8.1941576 1.5853626 -0.60484588 9
-7.8226485 2.1136408 -0.63488704 0
-18.329161 2.1823761 -1.5548809 36
-8.0612049 1.5596397 -0.74029666 1
-7.6684594 2.0719795 -0.76290822 0
-11.008778 1.3107688 -1.130235 0
-7.8637195 1.5214311 -0.8638922 12
-7.6606493 1.4821422 -0.97990108 27
-7.6388812 1.4779307 -1.1148171 44
-7.6263485 1.4755058 -1.2518448 32
-7.5538373 1.4614768 -1.3760381 26
-7.5410056 1.4589942 -1.5106815 34
-7.5723023 1.4650493 -1.6536058 1
-7.8498306 1.518744 -1.8560283 3
-7.7802334 1.5052787 -1.9794759 4
-5.5592175 1.0755682 -1.9479209 6
-1.5590432 0.3016355 -0.74020553 13
-2.0627878 0.414058 0.5553726 17
-5.317595 1.0673869 1.0480659 41
-4.9481511 0.99322933 0.70605528 25
-6.3841615 1.281476 0.56533152 3
-11.769364 2.3624337 0.61755532 17
-13.961407 2.8024366 0.4805966 1
-13.518981 3.7542262 0.39019397 10
-13.981796 1.7638335 0.30897841 29
-13.975406 2.8052466 0.22840159 12
-15.257792 4.2370949 0.16030365 18
-15.929602 2.0095534 0.067815475 10
-18.408777 3.6951458 -0.031131772 33
-18.391474 5.1073194 -0.14391878 37
-18.356836 2.3157542 -0.24866843 35
-18.354387 3.6842282 -0.36206681 46
-18.409258 5.112258 -0.48228717 36
-18.349606 2.314842 -0.57573712 38
-18.360895 3.6855345 -0.69422066 49
-18.340393 5.0931344 -0.81774819 62
-18.324762 2.311708 -0.90171814 47
-8.477932 1.701753 -0.47360477 1
-8.0942612 2.2477794 -0.50938606 14
-18.333824 2.312851 -1.2296501 48
-8.0303411 1.6119093 -0.59357005 17
-7.8422832 2.1778049 -0.63769907 0
-18.325342 2.3117809 -1.5558881 34
-7.9251299 1.5907905 -0.72880244 11
-7.6768265 2.1318576 -0.7652027 0
-10.257119 1.2939575 -1.0539664 6
-7.7086368 1.5473344 -0.84802127 0
-7.7084837 1.5473037 -0.98737746 5
-7.6167307 1.5288863 -1.1131152 45
-7.5887589 1.5232717 -1.2473898 54
-7.5434499 1.514177 -1.3760381 1
-7.5498762 1.5154668 -1.5145413 157
-7.4967012 1.5047932 -1.6393507 2
-7.8695979 1.5796437 -1.8632642 2
-7.7543159 1.5565034 -1.9755983 5
-5.5404477 1.1121196 -1.9440173 7
-1.560454 0.31322584 -0.7418955 13
-2.0560603 0.42766124 0.55435169 17
-5.3215489 1.106884 1.0503427 40
-4.9449749 1.0285565 0.70660949 24
-6.3555517 1.321957 0.56360161 4
-11.744763 2.4429147 0.61714429 12
-15.06872 3.1342988 0.51945454 7
-13.530892 3.859482 0.39130595 13
-13.981034 1.8629866 0.30924144 32
-14.014216 2.9149618 0.22936288 10
-15.243226 4.3478994 0.16046561 21
-16.049992 2.1386771 0.0683899 7
-18.390364 3.825202 -0.031145036 37
-12.035615 3.4329767 -0.094367526 1
-18.375904 2.4486074 -0.24915221 35
-18.363459 3.8196056 -0.36276293 47
-12.001361 3.4232063 -0.31503102 7
-18.356777 2.4460585 -0.57648385 38
-18.369938 3.8209534 -0.69555432 48
-18.338976 5.2309151 -0.81929338 52
-18.32402 2.4416938 -0.90249836 68
-8.680913 1.8056328 -0.48563632 3
-8.063014 2.2998526 -0.50841767 12
-18.321186 2.4413161 -1.2299157 53
-7.8460617 2.2379704 -0.63926131 0
-18.328512 2.4422922 -1.5575669 39
-7.627296 2.1755705 -0.76176101 0
-10.078221 1.3429329 -1.036522 2
-7.6898589 1.5994933 -0.84716338 2
-7.7052646 1.6026976 -0.98837429 8
-7.5981178 1.5804111 -1.1119804 49
-7.5740728 1.5754098 -1.2467533 45
-7.5249853 1.5651995 -1.3746296 69
-7.4622607 1.5521528 -1.4991025 255
-7.440063 1.5475355 -1.6292881 3
-8.4801817 1.7638806 -2.0106974 2
-7.7736554 1.616923 -1.9833534 7
-5.5288453 1.1500018 -1.942716 6
-1.5617788 0.3248505 -0.74358547 13
-2.0568056 0.44281885 0.5553726 17
-5.3175311 1.144835 1.0511016 33
-4.9531641 1.0663888 0.7088263 26
-6.3773341 1.3730047 0.56636941 4
