# .PCD v0.7 - Point Cloud Data file format
VERSION 0.7
FIELDS x y z intensity
SIZE 4 4 4 4
TYPE F F F F
COUNT 1 1 1 1
WIDTH 1393
HEIGHT 1
VIEWPOINT 0 0 0 1 0 0 0
POINTS 1393
DATA ascii
2.3672934 10.428104 0.23445183 42
12.192848 40.005836 0.67014462 38
1.7063997 4.4176464 0.047941279 0
2.369612 10.438319 0.045210317 47
11.153027 36.59409 -0.063430816 10
1.7107624 4.4289408 -0.03579874 7
2.3703048 10.44137 -0.14390086 33
8.3119164 27.272152 -0.55141515 2
1.7073845 4.4201961 -0.11961287 12
2.3711412 10.445055 -0.33341974 43
8.7715731 28.780327 -1.1153467 1
8.7477665 22.646828 -1.0430024 0
2.3650455 10.418203 -0.52156484 78
6.7698393 22.212456 -1.2718421 1
7.5716009 19.601887 -1.2741915 0
2.3661716 10.423163 -0.71123177 49
5.4688869 17.943913 -1.3594576 1
6.2332125 16.136974 -1.3553839 0
1.1347512 4.9986639 -0.43178076 6
1.7758373 5.826683 -0.54920602 1
1.705844 4.4162078 -0.45468566 0
0.57085371 2.5146534 -0.26288307 1
0.76058209 2.4955387 -0.28138691 1
0.66530937 2.1829402 -0.28659365 1
0.61758208 2.0263429 -0.30352527 6
0.60788292 1.9945188 -0.33603153 18
0.60610896 1.9886985 -0.37182605 6
1.4714757 4.8280449 -0.99271154 0
1.4754653 4.8411355 -1.0850741 0
0.96280903 3.1590636 -0.82494318 1
0.9725998 3.1911879 -1.1476729 0
0.54327643 1.7825392 -0.86864299 17
1.2075334 3.8650599 1.0688881 16
1.7286407 5.5330148 1.1201631 23
2.9403238 9.4113579 1.3794125 9
4.4943829 14.385573 1.3084967 20
7.3345666 23.476402 1.2653205 0
12.494956 39.993725 1.4141306 42
1.7219491 4.3669515 0.13054651 16
2.4464245 10.438579 0.23506558 39
12.500467 40.011364 0.67168272 39
1.7195921 4.3609743 0.047455385 17
2.4488161 10.448783 0.04532858 46
8.7649164 28.054653 -0.04873376 0
1.7108277 4.338747 -0.035165399 28
2.4467916 10.440145 -0.14411588 35
8.4257812 26.969152 -0.54646486 5
1.7132652 4.3449287 -0.11789691 18
2.4485645 10.44771 -0.33404204 47
8.9627466 28.687864 -1.1141613 1
1.7400848 4.4129443 -0.20379321 18
2.4413664 10.416997 -0.52234507 78
6.9009247 22.088408 -1.267467 1
1.7355673 4.4014883 -0.28689283 22
2.4452558 10.433592 -0.71309084 47
5.570231 17.829136 -1.3536751 2
1.7261285 4.3775511 -0.36868441 17
1.8354797 5.8749843 -0.5549531 1
1.7205666 4.3634458 -0.45047915 22
0.58476323 2.4951096 -0.26126033 1
0.78747314 2.5205357 -0.28481847 1
0.68645054 2.1971836 -0.28908578 1
0.62699032 2.0068641 -0.30125594 6
0.61825949 1.9789184 -0.33412227 19
0.62115204 1.9881768 -0.37253025 7
1.5133386 4.8438783 -0.99811512 1
1.5103929 4.8344498 -1.0859126 1
0.98599714 3.1559691 -0.82591254 2
0.99711049 3.1915407 -1.1502752 0
0.5535453 1.7717819 -0.86526304 19
1.2366738 3.8680174 1.0719508 16
1.7581227 5.4989834 1.1156096 27
3.0243919 9.459568 1.3893882 12
4.5933328 14.366837 1.3095347 18
7.2905965 22.803226 1.231617 0
12.78793 39.997559 1.4172338 49
1.7270117 4.2960768 0.12876734 18
2.5193548 10.437674 0.23541629 40
12.796004 40.022812 0.67328483 36
1.7186396 4.2752504 0.046645567 19
2.5227532 10.451754 0.045413055 48
8.1833687 25.595602 -0.044555441 0
1.7171868 4.2716365 -0.034713015 20
2.5206711 10.443127 -0.14438465 37
8.5935001 26.878393 -0.54576868 85
1.7107229 4.2555571 -0.11577719 19
2.5215545 10.446786 -0.33453986 40
9.0396051 28.273703 -1.1003805 6
1.730559 4.3049006 -0.19932935 26
2.5141501 10.416111 -0.52312529 76
7.0326719 21.9965 -1.2648419 1
1.7289795 4.3009715 -0.28108233 22
2.5209548 10.444303 -0.71494997 39
5.6859245 17.784199 -1.3530968 1
1.7238883 4.2883067 -0.36212307 22
1.3747742 5.695682 -0.49355966 6
1.895028 5.9271903 -0.56105936 1
1.7167956 4.2706633 -0.44206613 25
0.6106354 2.5298593 -0.26531717 1
1.5986563 5.0002112 -0.56620538 0
0.7082594 2.2152646 -0.29207632 1
0.64390391 2.0139761 -0.30295795 6
0.63137043 1.9747744 -0.33412227 18
0.62952793 1.9690114 -0.3697134 9
1.5418452 4.8225198 -0.9957993 0
1.5507603 4.8504038 -1.0917823 1
1.0217111 3.1956661 -1.1541789 0
0.56638801 1.771525 -0.86695302 21
1.2636473 3.8592896 1.0719508 17
1.7952473 5.4828429 1.1148506 26
3.0829616 9.4156351 1.386063 10
3.8044167 11.619022 1.0614669 3
8.3781729 25.587677 1.3851324 2
8.3770151 25.584139 0.90857315 39
1.7326858 4.2247248 0.12698817 18
2.5998847 10.450877 0.23611772 7
8.3782206 25.58782 0.43142524 36
1.7180893 4.1891346 0.045835748 24
9.0819063 36.506958 0.158895 27
8.2324095 25.142502 -0.043865688 17
1.7181286 4.1892304 -0.034139995 19
9.0975828 36.569973 -0.50647509 18
8.7772007 26.806343 -0.54553664 95
1.716113 4.1843157 -0.11416216 19
8.3523979 25.508957 -0.99502498 1
1.7302419 4.2187657 -0.19589558 23
2.5868063 10.398305 -0.52312529 5
7.1475358 21.829201 -1.2580606 1
1.7316929 4.2223034 -0.27672449 23
2.5918808 10.418702 -0.71441877 18
5.8124247 17.751656 -1.3536751 1
1.7265466 4.2097554 -0.35649908 24
1.5136151 6.0843487 -0.52814239 5
1.9760302 6.0349698 -0.57255352 1
1.7178619 4.18858 -0.43480033 24
0.63308543 2.5448427 -0.26734561 1
0.84646291 2.5851719 -0.29339734 1
0.72247237 2.2064941 -0.29157791 1
0.65548408 2.0019059 -0.30182326 5
0.64882791 1.9815774 -0.33603153 18
0.64325869 1.9645686 -0.3697134 11
1.5766959 4.8153677 -0.99657124 0
0.98297983 3.0021067 -0.78907609 1
1.047527 3.1992393 -1.1580826 0
0.58551055 1.7882006 -0.87709284 23
1.2905592 3.8503737 1.0719508 19
1.8359771 5.4776239 1.1163685 25
3.1335123 9.3488102 1.3794125 6
3.795522 11.323912 1.0369024 6
7.3822927 22.025015 1.1950363 0
8.4906254 25.331718 0.90169209 37
1.7235619 4.1203074 0.12420823 23
9.3740902 36.589191 0.82812172 5
8.4803886 25.301178 0.42758009 18
1.7210526 4.1143088 0.045147404 25
9.3544188 36.512413 0.1591991 23
8.4217186 25.126137 -0.043938644 30
1.7195485 4.110713 -0.033597134 20
8.3917885 32.755047 -0.45444074 3
8.4049044 25.07597 -0.51150346 37
1.7175065 4.1058316 -0.11234526 18
8.3775692 32.699543 -1.0507888 8
8.4095984 25.089973 -0.98094791 14
1.7349768 4.1475954 -0.19314858 27
6.3052659 24.610876 -1.2403257 1
7.2984877 21.774984 -1.2578418 1
1.7333933 4.1438103 -0.27236661 24
5.9133902 17.642557 -1.3484709 1
1.7312713 4.1387372 -0.35149997 23
1.5728716 6.1392732 -0.53385025 2
2.0345728 6.0701327 -0.57722306 2
1.7194035 4.1103663 -0.42791694 24
0.65577435 2.5596354 -0.26937401 1
1.6771612 5.003798 -0.56920803 12
0.74542665 2.2239749 -0.29456845 1
0.68580252 2.0460868 -0.30919865 5
0.66139096 1.973255 -0.3353951 18
0.65695822 1.96003 -0.3697134 13
1.6140169 4.8154073 -0.99888706 0
1.6680495 4.976613 -1.125324 0
0.9992907 2.9813764 -0.72992927 0
1.0698361 3.1918483 -1.1580826 0
0.59337145 1.7703193 -0.87033296 24
1.3261909 3.8668785 1.0790972 18
1.8767213 5.4721031 1.1178864 24
3.2102687 9.3604307 1.3844004 12
3.8163097 11.127513 1.0213333 2
8.5765133 25.00721 1.3600603 49
8.5829678 25.02603 0.89292204 54
1.7240473 4.0419726 0.12220666 18
8.502739 32.249939 0.73123717 32
8.5867529 25.037066 0.42411944 48
1.7230562 4.0396485 0.044459056 24
8.5026665 32.249664 0.14086832 52
8.5956287 25.062946 -0.043932009 53
1.7183877 4.0287037 -0.03302411 21
8.5050335 32.258644 -0.44836649 25
8.5914383 25.050728 -0.51219958 45
1.7163205 4.0238571 -0.11042741 18
8.5047407 32.257534 -1.0384675 35
8.5858498 25.034433 -0.98109609 57
1.7356677 4.0692158 -0.19005822 25
6.4687786 24.535355 -1.2387654 1
7.4282999 21.659273 -1.254123 1
1.7309506 4.058157 -0.26752454 25
5.1384144 19.489431 -1.3411951 1
6.0157056 17.540462 -1.3438449 1
1.7335254 4.0641937 -0.34618843 24
1.6258546 6.1666851 -0.53720778 3
2.097579 6.116075 -0.58297014 3
1.7246249 4.0433264 -0.4221808 20
0.67768586 2.5703866 -0.27099675 1
1.7210845 5.0183005 -0.57221061 15
0.76350981 2.2262251 -0.29556528 1
0.69493198 2.0262673 -0.30692929 4
0.6802752 1.9835316 -0.33794081 18
0.67062575 1.9553958 -0.3697134 16
1.5215428 4.436481 -0.92246521 0
1.0251364 2.9890699 -0.73354721 0
1.0896391 3.177146 -1.1554801 0
0.60218763 1.7558455 -0.86526304 21
1.3493137 3.8465776 1.0760344 18
1.9187776 5.4699855 1.1201631 27
3.2860279 9.3676958 1.388834 9
3.8002462 10.833612 0.99676871 4
8.7746859 25.014576 1.3637594 51
8.7826138 25.037174 0.89548558 52
1.7235247 3.9638355 0.1202051 19
8.7360487 32.220665 0.7319386 55
8.789134 25.055763 0.42546526 47
1.7225077 3.9614964 0.043730218 27
8.7359762 32.220402 0.14100347 83
8.7955465 25.074043 -0.044058025 44
1.7209522 3.9579189 -0.032541566 21
8.7446852 32.252522 -0.44911903 53
8.7740564 25.012781 -0.51266366 71
1.7188586 3.953104 -0.10881238 21
8.7464724 32.259109 -1.0404588 34
8.7881975 25.053093 -0.98420787 72
1.7385373 3.9983618 -0.1873112 23
6.6137719 24.393196 -1.233889 1
7.5555305 21.539047 -1.2501854 1
1.7305824 3.9800668 -0.26316667 24
5.265995 19.422266 -1.3390704 1
6.1248074 17.460392 -1.3409537 1
1.7268736 3.9715374 -0.33931464 23
1.6834689 6.2090421 -0.54190838 4
2.15605 6.1463933 -0.58728045 4
1.7162935 3.9472044 -0.41338536 25
0.70394456 2.5963182 -0.27424222 1
1.7639749 5.0286794 -0.57478428 16
0.77115071 2.19837 -0.29257473 1
0.71037155 2.0251029 -0.30749664 3
0.69279903 1.9750077 -0.33730438 17
0.69208062 1.9729598 -0.37393871 19
1.535589 4.3776045 -0.91243005 0
1.0266285 2.9266772 -0.6649642 0
1.116801 3.1837382 -1.1606849 0
0.6204313 1.7687043 -0.8737129 25
1.3800516 3.847985 1.0790972 15
1.9675249 5.4860311 1.1262344 23
3.3526835 9.3482561 1.3893882 13
3.8300459 10.679281 0.98500538 2
8.9666367 25.001589 1.3664311 54
8.980134 25.039223 0.89777929 50
1.7317159 3.9078388 0.11887072 21
8.9725838 32.201271 0.73290306 57
8.9840937 25.050264 0.42642653 40
1.7209532 3.8835516 0.043001384 25
8.9821749 32.235691 0.14134137 80
8.9919863 25.072269 -0.04416414 51
1.7258542 3.8946114 -0.032119341 22
8.9868126 32.252335 -0.44997913 56
8.9700661 25.01115 -0.51390123 80
1.7172533 3.8752024 -0.10699548 20
8.9918575 32.270439 -1.0428234 26
8.9858265 25.055096 -0.98672688 76
1.7372653 3.920362 -0.18422084 25
6.7549515 24.242516 -1.2286227 1
7.672008 21.391787 -1.2447165 1
1.7308269 3.9058328 -0.25905091 29
5.3789611 19.304291 -1.3334932 1
6.2344322 17.383408 -1.3383516 1
1.7287079 3.901051 -0.33431554 23
1.7235652 6.1856194 -0.54090112 5
2.2015967 6.1386914 -0.58799887 5
1.7309029 3.9060044 -0.41032609 23
0.73166615 2.6258409 -0.27789336 1
1.7990384 5.016242 -0.57478428 18
0.81059617 2.2601776 -0.30154637 1
0.73251224 2.0424571 -0.31090066 2
0.70790327 1.97384 -0.33794081 16
0.703179 1.9606674 -0.37253025 20
0.74463224 2.076251 -0.43382883 0
1.0509964 2.9304833 -0.66747987 0
1.1543232 3.2185886 -1.1762996 0
0.62664431 1.7472665 -0.86526304 27
1.405551 3.834626 1.0780762 14
2.0152376 5.4979739 1.1315469 29
3.4314978 9.3618174 1.3949302 12
3.829078 10.446496 0.96597648 0
9.1643324 25.002146 1.3699248 48
9.176733 25.035976 0.89993805 28
1.7309831 3.8337028 0.11698035 22
9.2279778 32.245495 0.73535806 11
9.1849089 25.058281 0.42764416 7
1.7216877 3.8131158 0.042353526 28
10.475908 36.606163 0.16082101 9
1.7167889 3.8022664 -0.031455845 23
9.1623487 24.996731 -0.51490676 62
1.7162911 3.8011637 -0.10527951 23
9.3896265 32.810349 -1.0623631 6
1.7366347 3.84622 -0.18130215 27
6.9218311 24.187084 -1.2282326 1
7.8294096 21.360207 -1.246029 1
1.7301207 3.8317928 -0.25493515 25
5.5124993 19.26243 -1.3332276 2
6.3364162 17.28702 -1.3343039 1
1.7296437 3.8307364 -0.32931641 23
1.7754797 6.204092 -0.54358715 5
2.248512 6.1343937 -0.5890764 6
1.7171664 3.8031025 -0.40076584 30
0.75654912 2.6436236 -0.28032747 1
1.8463322 5.0371661 -0.57864475 14
0.8400141 2.2917275 -0.30653059 1
0.75084132 2.0484462 -0.31260267 2
0.71894783 1.9614345 -0.33666795 17
0.71820486 1.9594074 -0.37323448 21
0.70643061 1.927285 -0.40372327 0
1.214107 3.3123283 -0.75636536 0
1.1689545 3.1891432 -1.1684923 0
0.64756119 1.7666773 -0.87709284 26
1.4322872 3.8247199 1.0780762 17
2.0521939 5.4800925 1.130788 28
3.509275 9.3710203 1.3999181 12
3.8571937 10.300089 0.95490509 0
10.448199 27.900434 1.532688 17
13.424082 35.847107 1.2918901 20
1.7276301 3.7561374 0.11497879 20
11.731834 39.938549 0.91264361 41
10.133865 27.06105 0.46301949 1
1.7181813 3.735594 0.041624691 24
10.731211 36.532139 0.16082101 0
10.060804 26.865952 -0.047566481 7
1.7215635 3.7429476 -0.031063776 24
8.2334681 28.029102 -0.39262304 1
1.7210641 3.7418618 -0.10396731 22
9.3942213 31.980639 -1.0375962 15
8.6044216 22.976887 -0.90952539 2
1.7350552 3.7722807 -0.17838345 27
7.064621 24.050007 -1.2237464 1
7.9475255 21.22274 -1.2412164 1
1.7351401 3.7724652 -0.25178781 28
5.6243443 19.146891 -1.3279159 2
6.4485526 17.219946 -1.3325691 1
1.7280167 3.7569778 -0.32400486 23
1.8209957 6.1991944 -0.54425865 3
2.3010631 6.1446624 -0.59159076 1
1.7237095 3.7476132 -0.3961769 28
0.7727434 2.6306415 -0.2795161 0
1.8870319 5.0390511 -0.58036053 13
0.85042536 2.2709403 -0.30453691 1
0.77484411 2.0691113 -0.31657404 1
0.7353934 1.9637637 -0.33794081 17
0.73877096 1.972783 -0.37675557 18
0.74464393 1.9884659 -0.41761816 0
1.1872108 3.1702781 -1.1645887 1
0.6586076 1.7587181 -0.87540287 31
1.4617167 3.821852 1.0801181 14
1.6905599 4.4201927 0.9144963 14
1.6868312 4.4104438 0.66061056 14
1.6897577 4.4180956 0.41067839 15
10.500023 27.453701 1.5121372 10
13.438375 35.136414 1.2696278 6
1.7283685 3.6896718 0.11331081 19
12.038062 39.947567 0.91474789 42
1.6701795 4.3669052 0.074916236 0
1.7272514 3.6872869 0.041219782 26
11.005609 36.521435 0.16110821 1
1.7161165 4.4870138 -0.00796533 0
1.7171104 3.6656382 -0.030520914 24
8.3112364 27.580326 -0.38714007 1
8.6661367 22.658764 -0.46919402 4
1.7233973 3.6790593 -0.10255416 22
8.2422094 27.351263 -0.88924378 1
8.6503849 22.617577 -0.89767104 3
1.7342243 3.7021728 -0.17563646 27
7.1989183 23.889168 -1.2180899 1
8.0812244 21.129433 -1.2390288 0
1.7360289 3.7060249 -0.24815625 27
5.7336936 19.026909 -1.3223387 2
6.5671868 17.17078 -1.33228 0
1.723754 3.679821 -0.31838086 25
1.8780301 6.2321272 -0.54828769 3
2.341058 6.121006 -0.59087241 0
1.7312511 3.6958256 -0.3919704 25
1.5695497 5.2084541 -0.55456972 1
1.9278474 5.0406122 -0.58207631 14
0.89603186 2.3427939 -0.31500381 1
0.79351354 2.0747461 -0.31827605 1
0.74767429 1.9548935 -0.33730438 16
0.75111884 1.9638996 -0.37605134 18
0.75430155 1.9722213 -0.41530234 1
1.2093143 3.1619127 -1.1645887 0
0.67345983 1.7608498 -0.87878281 23
1.4968032 3.8331699 1.0862434 18
1.6842356 4.3131666 0.89476442 11
1.6902032 4.3284492 0.65008074 16
1.6886714 4.3245263 0.40306681 14
1.7218459 4.409483 0.24352847 14
1.7115088 4.3830109 0.15880467 12
1.7282643 3.6233814 0.11164284 23
12.342625 39.946609 0.91667682 49
1.709354 4.3774929 0.075300753 13
1.7219563 3.6101561 0.040490944 30
11.295731 36.558361 0.16161506 3
1.7066612 4.3705964 -0.0077796266 13
1.7237176 3.6138487 -0.030189164 24
8.4020367 27.192991 -0.38251719 62
1.7281647 4.4256649 -0.091889627 7
1.7214961 3.6091912 -0.10093913 33
8.3621387 27.063864 -0.88177639 4
1.7331171 4.4383478 -0.1766299 15
1.7376621 3.643084 -0.17340451 24
7.3725953 23.861229 -1.2192602 1
1.7244482 4.4161472 -0.2596623 16
1.7360762 3.6397593 -0.24452469 27
5.8581381 18.959723 -1.3204796 1
1.7210643 4.4074817 -0.34290019 19
1.7322341 3.6317041 -0.31525642 27
1.9285525 6.241714 -0.55030221 2
1.7113612 4.3826327 -0.42420685 0
1.7227274 3.611773 -0.3843222 29
1.6140962 5.2239838 -0.55740947 2
0.92824548 2.3771482 -0.32048649 1
0.8137396 2.0839095 -0.32054541 1
0.76561302 1.960662 -0.33921364 16
0.76624328 1.9622759 -0.37675557 14
0.77661741 1.9888431 -0.41993397 1
1.2732506 3.260673 -0.75049555 2
1.2272316 3.142823 -1.1606849 0
0.68837386 1.7628597 -0.88216275 23
1.5135037 3.797478 1.0790972 16
1.6910411 4.2429309 0.88262177 14
1.6881137 4.2355862 0.63788825 15
1.6922638 4.2459989 0.39683917 16
1.7126552 4.2971621 0.23797973 26
1.7213447 4.318965 0.15691574 16
1.7377992 3.5788562 0.11064206 39
12.653796 39.96241 0.91904414 48
1.7176616 4.3097234 0.074339464 14
1.7418762 3.5872526 0.04036947 41
11.579659 36.570137 0.16202053 4
1.7045513 4.2768288 -0.0076337173 22
1.7436632 3.5909326 -0.030098688 41
8.5252676 26.923954 -0.37956068 58
1.7279253 4.3354759 -0.090265319 25
1.7431574 3.589891 -0.10073725 47
8.5472546 26.993393 -0.88140303 6
1.7285421 4.3370233 -0.17307359 23
1.7438514 3.5913203 -0.17151594 53
7.497992 23.679676 -1.2126286 1
1.7227046 4.3223767 -0.25484967 21
1.754468 3.613184 -0.24355628 53
5.983129 18.895535 -1.3188862 1
1.7178198 4.3101201 -0.33625036 24
1.7470945 3.5979991 -0.31338176 45
1.9768934 6.2432981 -0.55164528 1
1.7448654 4.3779798 -0.42492524 20
1.746161 3.5960765 -0.38393977 53
1.6661432 5.2619066 -0.56268334 2
1.7344791 4.3519197 -0.5052954 24
0.96538973 2.422225 -0.3274644 0
0.83852971 2.103925 -0.32451674 1
0.77928221 1.9552692 -0.33921364 15
0.78429705 1.9678518 -0.37886822 13
0.77740526 1.9505599 -0.41298652 1
1.2872949 3.2299056 -0.74546432 0
1.2477421 3.1306651 -1.1593838 0
0.70200628 1.7613789 -0.88385272 25
1.5326935 3.7689066 1.0739926 19
1.6925111 4.1618996 0.86820233 15
1.6922733 4.1613145 0.62846678 16
1.69034 4.1565609 0.3895736 17
1.7185358 4.225894 0.23469158 16
1.7153111 4.2179646 0.15367758 17
1.7591987 3.5594678 0.11041967 43
12.964555 39.971996 0.92132378 45
1.7085344 4.2013006 0.072673231 15
1.7651051 3.5714188 0.040328979 49
8.2929163 25.568516 0.11353263 0
1.710258 4.2055392 -0.0075276014 16
1.770462 3.5822577 -0.030128848 40
8.7142582 26.867584 -0.37961444 31
1.7250061 4.2418051 -0.088563658 22
1.7717203 3.5848036 -0.10093913 42
8.2704735 25.499319 -0.83448279 1
1.7286619 4.2507944 -0.17011 24
1.7653396 3.5718932 -0.17117257 52
7.6458673 23.573549 -1.2098979 1
1.7242514 4.2399487 -0.25069335 21
1.7654974 3.5722125 -0.24161944 46
6.1087413 18.83432 -1.3175582 1
1.7208159 4.2315011 -0.33104613 24
1.7721704 3.5857143 -0.31338176 46
2.0437961 6.3013821 -0.55802459 0
1.7393689 4.277123 -0.41630462 27
1.7588744 3.5588119 -0.3812629 56
1.7028375 5.2501464 -0.56268334 2
1.7348558 4.2660251 -0.49671656 28
1.7343086 4.2646799 -0.57817155 20
0.8681134 2.1346984 -0.33019012 1
0.79886413 1.9644138 -0.34175932 14
0.79653281 1.958681 -0.37816399 11
0.79691774 1.9596276 -0.41607428 2
1.2523515 3.0795434 -0.71276116 0
1.2709926 3.1253819 -1.1606849 0
0.71428585 1.756435 -0.88385272 24
1.5721447 3.7861447 1.0821599 19
1.6943579 4.0804667 0.85378289 16
1.6938673 4.0792851 0.61793691 16
1.6978406 4.0888538 0.38438389 16
1.7203599 4.1430864 0.2307869 17
1.7201215 4.1425123 0.15138389 20
1.799626 3.5750484 0.11130925 44
8.4958191 25.554266 0.59042579 39
1.7132113 4.1258707 0.071583778 13
1.7966328 3.569102 0.040450454 49
8.3425694 25.093309 0.11169111 24
1.707293 4.111618 -0.0073816921 16
1.8020691 3.5799017 -0.030219324 38
8.343152 25.095064 -0.35542491 30
1.7315149 4.1699505 -0.087326087 24
1.8051423 3.5860069 -0.10134289 40
8.3537407 25.126911 -0.82427734 15
1.7337157 4.1752505 -0.16759095 23
1.8004595 3.5767043 -0.17203102 47
7.8058581 23.478956 -1.2079474 1
1.7231203 4.149734 -0.24609949 22
1.8042021 3.5841391 -0.24331418 52
6.2327881 18.747377 -1.3146368 1
1.7273088 4.159821 -0.32642016 21
1.8002003 3.5761893 -0.31369421 45
2.0899322 6.286231 -0.55802459 0
1.7385919 4.1869936 -0.40876156 32
1.7956561 3.567162 -0.38355738 52
1.7475538 5.2564034 -0.56471181 2
1.7401536 4.1907549 -0.48942453 28
1.7381274 4.1858754 -0.56919992 25
0.88221973 2.1246209 -0.32962278 1
0.81930006 1.9730935 -0.34430504 12
0.81539917 1.9636991 -0.38027665 12
0.80825073 1.9464837 -0.4145304 2
1.3153884 3.1678069 -0.73540181 0
1.3040222 3.140434 -1.1697935 0
0.73409349 1.7678933 -0.89230251 24
1.5955225 3.7679539 1.0801181 20
1.6906446 3.9925921 0.83784556 16
1.6914114 3.9944031 0.60685283 16
1.6968212 4.0071788 0.37781027 20
1.7165315 4.0537262 0.2264712 16
1.7131468 4.045733 0.14828065 18
1.8318315 3.5766332 0.11175404 42
8.5761194 25.206602 0.58376229 37
1.7185808 4.0585661 0.070622489 15
1.8251524 3.5635924 0.040531434 48
8.5278559 25.064749 0.11182626 41
1.7141199 4.0480313 -0.0072888406 15
1.8416044 3.5957148 -0.030460596 36
8.5310278 25.07407 -0.35596246 41
1.7309554 4.0877895 -0.085856475 22
1.8283103 3.5697582 -0.10124195 42
8.5315304 25.075548 -0.82452625 49
1.7300907 4.0857477 -0.16447918 25
1.830851 3.5747187 -0.17254607 46
7.9477048 23.359591 -1.2046314 1
1.7318028 4.0897908 -0.24325566 22
1.8364604 3.5856712 -0.24428259 48
6.3660879 18.710962 -1.3151679 1
1.7220836 4.0668383 -0.32005945 20
1.8269407 3.5670841 -0.31400663 43
5.2869153 15.539101 -1.3826386 2
1.7413722 4.1123896 -0.40265527 42
1.8332211 3.5793467 -0.38623425 50
1.7906165 5.2629118 -0.56674021 3
1.7430058 4.1162477 -0.48213246 31
1.7394519 4.1078548 -0.56022829 24
0.9140141 2.1585174 -0.3358635 1
0.83151495 1.963689 -0.34366861 10
0.8321591 1.9652103 -0.38168508 15
0.82335043 1.9444078 -0.41530234 2
1.3649228 3.2233741 -0.75049555 0
1.2695882 2.998234 -0.81331056 19
1.322965 3.1242876 -1.167191 0
0.74217683 1.7527099 -0.88723266 25
1.618723 3.7496219 1.0780762 15
1.6889013 3.9121838 0.82342613 16
1.6878542 3.9097579 0.59576875 19
1.6979043 3.9330385 0.3719286 15
1.7194569 3.9829628 0.22318305 18
1.7159976 3.9749496 0.14612187 18
1.8622987 3.5743957 0.11208764 38
8.711134 25.029034 0.58104426 63
1.7167543 3.9767027 0.069404863 13
1.8573788 3.5649526 0.040693399 48
8.7157793 25.042381 0.11199521 61
1.7138015 3.9698627 -0.0071694599 17
1.8555731 3.5614867 -0.030279642 36
8.7124405 25.032789 -0.35623121 49
1.7309194 4.0095143 -0.084464207 22
1.8661207 3.5817313 -0.10194852 40
8.7208366 25.056913 -0.82589525 50
1.736392 4.0221915 -0.16240467 26
1.8576089 3.5653942 -0.17271776 41
8.0882654 23.239391 -1.2013156 1
1.7270693 4.000596 -0.23866181 23
1.8669825 3.5833852 -0.2450089 49
6.4821277 18.624599 -1.3122466 1
1.7203898 3.9851239 -0.31456611 22
1.8610119 3.5719256 -0.31556886 42
5.4096808 15.543221 -1.3863319 2
1.7384598 4.0269814 -0.39547142 43
1.8692033 3.5876479 -0.3885287 47
1.840395 5.2878656 -0.57079703 3
1.7338701 4.0163498 -0.47183785 31
1.7397728 4.0300226 -0.55125666 25
0.96672571 2.2393305 -0.34947959 1
0.84989923 1.9687129 -0.34557787 6
0.84585845 1.9593529 -0.38168508 19
0.83846033 1.9422158 -0.41607428 5
1.8741428 4.3412781 -1.0137979 0
1.3612349 3.1531746 -1.1815045 0
0.75439483 1.7474859 -0.88723266 25
1.626169 3.6957498 1.0658253 15
1.6877011 3.8355923 0.80976564 17
1.6959627 3.8543682 0.5891183 18
1.7012463 3.8663759 0.36673892 19
1.7182618 3.9050467 0.2194839 18
1.7243851 3.918963 0.1445028 19
1.8965682 3.5789728 0.11264363 40
8.9030876 25.016588 0.58218408 56
1.7154808 3.8987265 0.068251319 16
1.8915857 3.5695703 0.040895853 45
8.9158764 25.052525 0.11231621 73
1.7140877 3.8955603 -0.0070567117 17
1.8935018 3.5731862 -0.030490754 35
8.9191732 25.061789 -0.35752133 54
1.7314869 3.9351032 -0.083149284 25
1.8966973 3.5792162 -0.10225134 40
8.9237041 25.074518 -0.82850885 56
1.7306222 3.9331379 -0.15929291 27
1.8899393 3.5664632 -0.17340451 44
8.2235174 23.107079 -1.1974146 1
1.7276105 3.9262934 -0.23494297 21
1.8994315 3.5843759 -0.24597731 51
6.5919199 18.52249 -1.3082628 1
1.7224606 3.9145894 -0.30994013 22
1.8915046 3.5694172 -0.31650621 44
5.5073686 15.475034 -1.3836458 2
1.7392546 3.9527564 -0.38936514 47
1.8979329 3.581548 -0.38929352 50
1.8759317 5.2711391 -0.57039136 3
1.7346382 3.942265 -0.46454579 29
1.7358965 3.9451246 -0.5412882 23
1.0142294 2.3050117 -0.36082631 1
0.85726076 1.9482732 -0.34303218 3
0.856345 1.9461919 -0.38027665 20
0.85516047 1.9434999 -0.41761816 17
1.9390589 4.4068465 -1.0322459 0
1.2400186 2.8181565 -1.0591902 0
0.77241665 1.7554502 -0.89399248 23
1.6582594 3.6984231 1.069909 18
1.6951559 3.7807133 0.80065858 15
1.6936566 3.7773695 0.57914269 15
1.7037414 3.7998617 0.3615492 19
1.7226011 3.8419244 0.21660677 19
1.725533 3.8484635 0.14234403 21
1.9253013 3.5726843 0.11286602 38
9.1034918 25.025229 0.58384997 63
1.7132035 3.8209651 0.067097776 15
1.9259472 3.5738828 0.041098308 38
9.1069651 25.034777 0.11251895 71
1.7150576 3.8251004 -0.0069505959 18
1.9240936 3.5704432 -0.030581232 38
9.1075916 25.036499 -0.35805887 50
1.7294651 3.8572335 -0.081757016 23
1.9368142 3.5940483 -0.10305885 39
8.4383917 23.196886 -0.76839626 5
1.7351428 3.8698964 -0.15721838 27
1.9223751 3.5672543 -0.17409126 43
8.3696089 23.007807 -1.1952691 1
1.7271998 3.8521812 -0.23122413 22
1.9319851 3.5850871 -0.24694572 50
6.7060609 18.434761 -1.3053414 1
1.725264 3.8478637 -0.3056033 24
1.922053 3.5666566 -0.31744352 42
5.5934682 15.376277 -1.3782737 2
1.7374692 3.8750851 -0.38289967 47
1.926668 3.5752206 -0.39005834 49
1.919487 5.2766123 -0.57241976 3
1.7344576 3.8683684 -0.45725375 30
1.7309209 3.8604803 -0.53131974 27
1.0545961 2.3520701 -0.36933637 0
0.88861358 1.9818786 -0.35003284 1
0.87957668 1.9617236 -0.38450193 18
0.87031347 1.9410638 -0.4183901 23
1.1714553 2.6127017 -0.98502082 0
0.78465307 1.7500151 -0.89399248 23
1.6792179 3.6762028 1.0668463 19
1.6986638 3.7187743 0.79003376 17
1.6920054 3.7041976 0.56972122 19
1.6971132 3.7153795 0.35462961 19
1.7228246 3.7716677 0.21331862 18
1.72246 3.7708697 0.13991541 19
1.9598031 3.5766892 0.11342201 39
1.721558 3.7688949 0.066392832 16
1.9623826 3.5813966 0.041341253 46
1.7251003 3.7766502 -0.0068842731 16
1.9624271 3.5814781 -0.030792344 41
1.7281034 3.7832246 -0.080442101 23
1.9637796 3.5839462 -0.10315979 39
8.4928713 22.848848 -0.75881308 2
1.7222577 3.770427 -0.15366209 29
1.9549134 3.5677652 -0.17477801 45
8.5272446 22.941324 -1.1948789 1
1.7291588 3.7855351 -0.22794281 24
1.9646409 3.5855181 -0.24791414 51
6.8067846 18.312674 -1.3000298 2
1.7205904 3.7667766 -0.30010995 25
1.9584033 3.5741346 -0.31931821 44
5.6965117 15.325644 -1.3772665 1
1.7396514 3.8085058 -0.37751177 41
1.9554074 3.5686669 -0.39082316 49
1.9701422 5.300384 -0.57647663 3
1.741593 3.8127563 -0.45210645 32
1.7314459 3.7905421 -0.52334493 27
1.7306947 3.7888973 -0.59683847 23
1.6686713 3.6531136 -0.64724255 0
0.89325052 1.9555353 -0.38450193 18
0.89362752 1.9563607 -0.4230217 20
1.1032312 2.4152322 -0.91345388 0
0.79685122 1.7444947 -0.89399248 22
1.7015786 3.6573765 1.0648044 20
1.6931077 3.6391692 0.77561432 17
1.6994427 3.6527855 0.56362498 21
1.6994761 3.6528575 0.34978589 20
1.7187821 3.6943536 0.20961945 18
1.7183892 3.6935091 0.13748679 18
1.9866711 3.5664134 0.11353321 38
10.377481 27.333284 0.64101619 1
1.7174599 3.6915119 0.065239288 14
1.9912301 3.5745976 0.041422237 46
10.727725 28.255793 0.12765664 1
1.712616 3.6811004 -0.0067317318 22
1.9912757 3.5746794 -0.030852662 41
8.6882391 22.883982 -0.32897767 0
1.7342292 3.7275558 -0.079513922 25
2.000428 3.591109 -0.10376543 38
8.5783854 22.594639 -0.75234133 2
1.735049 3.7293179 -0.15247664 29
1.9817181 3.5575218 -0.17494969 43
8.6857777 22.877501 -1.1946839 1
1.7302727 3.7190516 -0.22466148 24
1.9896244 3.5717151 -0.24791414 51
6.9217138 18.231125 -1.2976395 2
1.7199191 3.6967976 -0.29548398 25
1.9891292 3.5708261 -0.32025552 43
5.789217 15.248239 -1.3739089 2
1.7460313 3.752923 -0.37320146 29
1.9899615 3.5723202 -0.39273521 47
2.0198095 5.3199835 -0.58012778 4
1.7396495 3.7392063 -0.44481438 33
1.7361025 3.7315822 -0.51686543 29
1.7287096 3.715692 -0.58719379 23
1.6874707 3.627053 -0.64469683 1
0.90189791 1.9385413 -0.38238928 18
0.91388595 1.9643083 -0.42610946 20
0.92059737 1.9787339 -0.46790671 1
2.187638 4.7021136 -1.2038858 0
1.1216612 2.4109008 -0.91475511 0
0.8197158 1.7618989 -0.90582228 22
1.7038883 3.596477 1.0505117 22
1.7033391 3.5953178 0.76878405 23
1.6977654 3.5835531 0.55475771 28
1.7044623 3.5976887 0.34563413 33
1.7205869 3.6317236 0.20674232 18
1.7150353 3.6200056 0.13519309 20
2.0194013 3.5663745 0.11397801 39
1.7158085 4.4259095 0.10407417 0
1.7209287 3.6324451 0.064406171 17
2.0240202 3.5745318 0.041584201 43
1.7190973 4.4343929 0.020087842 6
1.7091591 3.6076026 -0.0066189836 19
2.0260372 3.578094 -0.031003458 35
1.716066 4.4265738 -0.063806616 10
1.7259645 3.6430748 -0.077966958 27
2.0293903 3.5840156 -0.10396731 39
1.7067189 4.402463 -0.14698347 15
1.7353709 3.6629291 -0.15025395 32
2.0183203 3.5644655 -0.17597982 45
8.7571888 22.589075 -1.1827859 0
1.7202837 3.6310837 -0.22006762 23
2.0204129 3.5681612 -0.24864045 50
1.7153192 4.4246473 -0.3157784 0
1.7286043 3.6486464 -0.29259273 25
2.0218692 3.5707331 -0.32150531 38
1.7202494 4.4373651 -0.4008913 7
1.7431926 3.6794384 -0.36709517 28
2.0305476 3.5860596 -0.39579448 48
1.7231936 4.4449596 -0.48600915 18
1.7418735 3.6766543 -0.43880919 32
1.7366226 3.665571 -0.5093891 27
1.7291787 3.6498587 -0.57868373 21
1.7161324 3.6223214 -0.64596969 1
0.92552441 1.953548 -0.38661459 16
0.92085546 1.9436929 -0.4230217 15
0.91764373 1.9369137 -0.45952129 1
2.2420986 4.7325029 -1.2156442 0
0.82733947 1.7463044 -0.90075237 23
1.7188731 3.5635931 1.0443863 24
1.71816 3.5621147 0.76423055 36
1.7227416 3.5716131 0.55475771 32
1.7260745 3.5785229 0.34494218 34
1.7302794 3.5872409 0.20489274 34
1.7315817 3.5899405 0.13451847 33
2.0462444 3.5556555 0.11408921 38
1.7245926 4.3580461 0.10275899 18
1.7358204 3.5987284 0.064021662 30
2.0549107 3.5707142 0.041705672 43
1.7205762 4.3478966 0.019749949 18
1.7325652 3.5919795 -0.0066123512 40
2.0569527 3.5742629 -0.031093935 34
1.7130777 4.3289475 -0.062570266 16
1.7322437 3.5913131 -0.077116132 34
2.0643342 3.5870891 -0.104472 44
1.7065183 4.3123722 -0.14436989 19
1.7348515 3.5967195 -0.14803126 45
2.0531223 3.5676069 -0.17683826 45
1.7303056 4.3724823 -0.22957437 15
1.7369155 3.6009986 -0.21897385 45
2.0631974 3.585114 -0.25081939 49
1.7226692 4.3531857 -0.31152907 15
1.7332355 3.5933692 -0.28912327 60
2.0547044 3.5703561 -0.3227551 39
1.7189195 4.3437099 -0.39350471 34
1.7532601 3.6348846 -0.36386245 28
2.0595052 3.5786982 -0.39655933 48
1.7190408 4.3440166 -0.47627273 22
1.74331 3.6142559 -0.43280399 33
1.7466524 3.6211853 -0.50490326 42
1.7339743 3.5949011 -0.57187569 50
1.7482414 3.62448 -0.6485154 1
0.94256127 1.954132 -0.38802302 13
0.93610746 1.9407517 -0.42379364 12
0.94303757 1.9551194 -0.4653911 1
2.2547693 4.6746211 -1.2047902 0
0.84581089 1.7535477 -0.90751225 21
1.7471188 3.5584497 1.0464281 28
1.7412555 3.5465076 0.7634716 37
1.7511259 3.5666111 0.55586612 35
1.756284 3.577117 0.34598011 36
1.7535204 3.5714881 0.20468722 35
1.75484 3.5741758 0.13438356 36
2.0972581 3.586153 0.11553477 39
1.7280219 4.2791538 0.10118078 18
1.7556139 3.5757523 0.0638294 25
2.0878654 3.5700924 0.041867636 45
1.7194351 4.2578902 0.019395158 18
1.7575997 3.5797966 -0.0066123512 34
2.0919516 3.5770795 -0.031244731 37
1.7118069 4.2390003 -0.061441422 17
1.7537484 3.5719526 -0.076961435 48
2.0953822 3.5829453 -0.10477482 41
1.7081386 4.2299166 -0.14200521 19
1.759919 3.5845206 -0.14803126 52
2.0921006 3.5773342 -0.17804007 45
1.7323649 4.2899089 -0.2258684 19
1.7567321 3.5780294 -0.21831758 47
2.0982537 3.5878556 -0.2520299 49
1.7201396 4.259635 -0.30568624 21
1.7600379 3.5847626 -0.28941238 46
2.0876324 3.5696938 -0.32400486 40
1.7238299 4.2687731 -0.38779688 19
1.7592803 3.5832195 -0.35991132 57
2.0904691 3.5745444 -0.39770654 48
1.7225047 4.2654915 -0.46897042 22
1.7649945 3.5948579 -0.4319461 60
1.7526498 3.5697148 -0.49942061 42
1.7572842 3.579154 -0.57130831 45
1.0773288 2.1942527 -0.39394605 0
0.9579162 1.9510387 -0.38872725 10
0.94963366 1.9341693 -0.42379364 22
0.95149267 1.9379556 -0.46287549 5
2.2873495 4.6587658 -1.2047902 0
0.85483676 1.7410914 -0.90413231 22
1.7775906 3.5606253 1.0505117 27
1.7770177 3.5594776 0.76878405 33
1.78005 3.5655515 0.55752873 34
1.7853093 3.5760863 0.34701803 33
1.7789528 3.5633538 0.20489274 35
1.7874342 3.5803425 0.13505818 37
2.1250792 3.579041 0.11575717 42
1.7228805 4.1862416 0.099251859 18
1.7846496 3.5747647 0.064021662 28
2.1114974 3.5561666 0.041867636 37
1.7217568 4.1835113 0.019107947 21
1.7902362 3.5859551 -0.0066455123 34
2.119714 3.5700052 -0.031305049 43
1.7140057 4.1646776 -0.060527593 16
1.7756133 3.5566645 -0.076884083 42
2.1252236 3.5792847 -0.10507764 38
1.7087657 4.1519456 -0.13976498 21
1.7836535 3.5727694 -0.14803126 51
2.1259818 3.5805614 -0.17889851 46
1.7258061 4.1933498 -0.22138225 21
1.7804235 3.5662997 -0.21831758 42
2.1321952 3.5910261 -0.25324041 48
1.7225299 4.1853895 -0.30117133 24
1.7837739 3.5730107 -0.28941238 47
2.1234772 3.5763431 -0.32587951 41
1.7232808 4.1872144 -0.38141754 20
1.7794472 3.5643439 -0.35919294 49
2.1324258 3.5914142 -0.40114823 48
1.7234955 4.187736 -0.4616681 23
1.7923499 3.590189 -0.43280399 56
1.790468 3.5864193 -0.50340801 45
1.7845203 3.5745056 -0.57244301 43
1.1465389 2.2965891 -0.41367519 0
0.97435218 1.9516884 -0.39013568 5
0.96068752 1.9243171 -0.4230217 23
0.96432453 1.9316024 -0.46287549 12
2.3181968 4.6434932 -1.2047902 0
1.2445847 2.492981 -0.69601548 1
0.87284261 1.7483584 -0.91089219 22
1.8024051 3.5481286 1.0505117 28
1.8124964 3.5679939 0.77333754 32
1.8138695 3.5706968 0.56029975 32
1.8174508 3.5777469 0.34840196 37
1.8055955 3.5544093 0.20509824 33
1.8178178 3.5784695 0.13546294 38
2.1624055 3.5846605 0.11642436 40
1.7272995 4.1151133 0.097849004 22
1.8204308 3.5836132 0.064406171 28
2.1507344 3.5653133 0.042151071 37
1.7246029 4.1086893 0.018820737 19
1.8279084 3.5983334 -0.0066919383 32
2.1507838 3.5653949 -0.031395525 37
1.7136267 4.0825396 -0.059506256 17
1.8058339 3.5548785 -0.077116132 47
2.1625528 3.5849047 -0.10568327 36
1.7114042 4.0772443 -0.13764921 19
1.8194146 3.5816131 -0.14892034 51
2.1571195 3.5758982 -0.17941357 43
1.7272056 4.1148896 -0.21787134 19
1.8251752 3.5929527 -0.2207239 44
2.1572132 3.5760531 -0.25324041 40
1.7285362 4.1180601 -0.2971876 23
1.8231297 3.5889261 -0.29172537 38
2.1607518 3.5819192 -0.3277542 39
1.727788 4.1162772 -0.37604547 22
1.8187219 3.5802491 -0.36206648 51
2.1656728 3.5900772 -0.40267786 46
1.7188058 4.0948782 -0.45274308 21
1.8155693 3.574043 -0.43237504 59
1.8154621 3.5738323 -0.50340801 41
1.813018 3.5690205 -0.5735777 42
1.8135686 3.5701046 -0.64533329 44
0.98795372 1.9448386 -0.39013568 1
0.98298603 1.9350594 -0.4268814 20
0.98132885 1.9317971 -0.46455255 20
1.2619586 2.4842315 -0.69601548 5
0.88831115 1.7486869 -0.91427213 20
1.8408034 3.5588677 1.0576581 28
1.8404064 3.5581002 0.77409649 34
1.8436351 3.5643423 0.56140816 32
1.8491205 3.5749474 0.34943992 32
1.8444488 3.5659153 0.2065368 33
1.845837 3.5685992 0.13559787 38
2.1948953 3.5789385 0.11675796 38
1.7274979 4.0324984 0.096183121 22
1.8484885 3.5737255 0.064470261 27
2.189358 3.5699098 0.04239402 42
1.7231723 4.0224009 0.018482843 22
1.8542362 3.5848377 -0.0066919383 33
2.191499 3.573401 -0.031606637 42
1.7167323 4.0073676 -0.058592431 16
1.8391932 3.5557547 -0.077425517 45
2.1929541 3.5757732 -0.10588515 39
1.7144816 4.0021143 -0.13553345 18
1.8492931 3.5752809 -0.1492167 51
2.1937203 3.5770228 -0.18027201 42
1.7290041 4.0360141 -0.21436043 20
1.8588036 3.593668 -0.22159891 42
2.2000678 3.5873725 -0.25517726 40
1.7303869 4.0392418 -0.2924071 22
1.8530543 3.5825527 -0.29230362 44
2.2036288 3.5931792 -0.33025375 44
1.7265239 4.0302243 -0.36933035 21
1.8449174 3.5668213 -0.36206648 49
2.1960945 3.580894 -0.40344271 47
1.7221373 4.0199852 -0.44584644 21
1.8490278 3.5747681 -0.43409079 55
1.8507276 3.5780542 -0.50590008 44
1.8536843 3.5837708 -0.57811636 37
1.8451329 3.5672381 -0.64724255 61
1.8795463 3.6337702 -0.73168045 0
0.995341 1.9243158 -0.42610946 21
0.99366635 1.9210781 -0.463714 19
1.3015299 2.5162778 -0.70764804 7
1.1295348 2.1837559 -0.84579062 0
0.8977744 1.735688 -0.91089219 21
1.8674048 3.5493526 1.058679 29
1.8743449 3.5625439 0.77789104 35
1.8740072 3.561902 0.56307077 34
1.8870213 3.5866375 0.35186177 34
1.8692983 3.5529518 0.2065368 34
1.8781508 3.5697777 0.13613756 36
2.2261696 3.5737097 0.11709155 38
1.7300018 3.9617023 0.094780266 23
1.8827034 3.5784307 0.064790688 27
2.2311461 3.5816984 0.042717945 42
1.7336036 3.9699504 0.018297 25
1.88853 3.589505 -0.0067250994 31
2.2227373 3.5681996 -0.031697117 34
1.7174566 3.9329739 -0.057678603 15
1.8714205 3.5569854 -0.07773491 46
2.2242069 3.570559 -0.10618797 37
1.7103801 3.9167686 -0.13304432 18
1.874208 3.5622835 -0.1492167 52
2.2207522 3.5650129 -0.1804437 40
1.7347546 3.9725859 -0.21162972 21
1.887566 3.5876727 -0.22203642 41
2.2271695 3.575315 -0.25541934 39
1.7202104 3.93928 -0.28603309 21
1.8854502 3.5836515 -0.29346013 43
2.2286601 3.5777078 -0.33025375 38
1.727501 3.9559755 -0.36362252 21
1.8771931 3.5679572 -0.36350325 50
2.2294612 3.5789936 -0.40497234 45
1.7199024 3.9385748 -0.43813846 23
1.8831977 3.57937 -0.43623552 54
1.8849016 3.5826087 -0.50839221 43
1.8841892 3.5812547 -0.57981837 45
1.8736691 3.5612593 -0.6485154 66
1.9030354 3.6170752 -0.73097622 1
1.0233705 1.9451075 -0.43228495 19
1.0106958 1.9210168 -0.4653911 18
0.98874861 1.879302 -0.49295098 0
1.1183354 2.1256058 -0.82627237 0
0.92168629 1.7518375 -0.92272192 20
1.9085598 3.5669196 1.0678672 27
1.9047287 3.5597596 0.78016782 33
1.9063039 3.5627036 0.56528759 30
1.9157746 3.5804033 0.35255373 33
1.8997109 3.5503819 0.20715334 31
1.9067987 3.5636284 0.13640741 38
2.2596157 3.5715973 0.11753634 38
1.7250991 3.8764567 0.093026698 23
1.9133002 3.575779 0.064982943 27
2.266789 3.5829356 0.042920399 38
1.7303771 3.8883166 0.017976001 26
1.9192046 3.5868137 -0.0067449962 29
2.2668407 3.5830173 -0.031968545 38
1.7188532 3.8624215 -0.05681853 17
1.9056408 3.5614645 -0.078121655 45
2.2597694 3.5718403 -0.10669266 42
1.7100486 3.8426366 -0.13092855 19
1.9084605 3.5667343 -0.1499576 53
2.2626793 3.5764399 -0.1818172 44
1.7299585 3.8873761 -0.20772871 22
1.9182192 3.5849724 -0.22269268 39
2.262749 3.5765498 -0.25662988 38
1.7265743 3.8797715 -0.28258052 23
1.9179515 3.5844719 -0.29461661 41
2.259979 3.5721714 -0.33119109 40
1.7259064 3.8782706 -0.35757893 20
1.905815 3.56179 -0.36422163 49
2.2607791 3.5734365 -0.40611956 40
1.7263238 3.8792086 -0.43286458 20
1.9156452 3.5801616 -0.4379513 55
1.9098668 3.5693624 -0.50839221 40
1.916617 3.5819778 -0.58208776 39
1.9003487 3.5515738 -0.6491518 62
1.183323 2.21152 -0.4485856 1
1.0369248 1.9379156 -0.43228495 17
1.0259274 1.9173625 -0.46622965 14
1.0386093 1.9410635 -0.51104093 1
0.93218338 1.7421635 -0.92103195 21
1.93896 3.5637002 1.0709299 28
1.9332879 3.5532753 0.78168565 32
1.934916 3.5562677 0.566396 32
1.9483418 3.5809436 0.35393766 34
1.9359057 3.5580869 0.20838639 32
1.9469156 3.5783224 0.13748679 36
2.2953012 3.5725553 0.11809233 37
1.7240461 3.8024025 0.091536164 23
1.9420398 3.569361 0.065111116 25
2.2982328 3.5771182 0.043041874 35
1.7294002 3.8142109 0.01768879 26
1.9518449 3.5873823 -0.0067715254 32
2.296123 3.5738347 -0.032028865 34
1.727608 3.8102582 -0.056227233 18
1.9323692 3.5515871 -0.078198999 41
2.2954574 3.5727985 -0.10719736 39
1.7087666 3.7687035 -0.12881278 21
1.9428662 3.5708799 -0.1506985 51
2.2940724 3.5706429 -0.18233226 43
1.7356075 3.8279014 -0.20519306 23
1.9489266 3.5820184 -0.22334896 40
2.2962949 3.5741022 -0.25759828 39
1.7255995 3.8058286 -0.27806559 23
1.9410222 3.5674903 -0.2943275 44
2.2977951 3.576437 -0.33306575 41
1.7233124 3.8007843 -0.35153535 21
1.9420581 3.5693946 -0.36637679 51
2.2964323 3.5743155 -0.40803161 42
1.7270712 3.8090742 -0.42637363 21
1.9481952 3.5806744 -0.43966708 55
1.9442229 3.5733733 -0.51088434 43
1.9434695 3.5719886 -0.58265507 40
1.942083 3.5694401 -0.65487963 66
1.9439428 3.5728586 -0.72745514 19
1.0541801 1.9375243 -0.43382883 13
1.0486342 1.9273311 -0.47042236 18
1.0465485 1.9234977 -0.50832742 2
0.9477886 1.7419826 -0.92441189 20
1.97128 3.5636139 1.0750135 31
1.96375 3.5500014 0.78396243 33
1.9673661 3.5565386 0.56861281 32
1.9771515 3.5742283 0.35462961 35
1.9645656 3.551476 0.20879741 30
1.9795898 3.5786362 0.13802649 34
2.33111 3.5731883 0.11864832 37
1.7237211 3.7321851 0.090133317 22
1.9823986 3.5837138 0.065623805 27
2.3318915 3.5743866 0.043203838 36
1.72412 3.7330487 0.01736779 29
1.9807141 3.5806687 -0.0067847897 30
2.3363159 3.5811682 -0.032239977 36
1.7189487 3.7218518 -0.055098385 16
1.9687315 3.5590069 -0.078663088 44
2.335638 3.5801294 -0.10790394 40
1.7149189 3.7131264 -0.12731931 20
1.9812921 3.5817134 -0.15173575 46
2.3320456 3.5746226 -0.18336239 43
1.7271099 3.7395222 -0.201097 25
1.9796859 3.5788097 -0.22400522 39
2.3320987 3.5747039 -0.25880879 40
1.7220043 3.7284677 -0.27328509 25
1.9793983 3.57829 -0.29635134 42
2.3292437 3.5703278 -0.33400309 40
1.7213933 3.7271447 -0.34582752 22
1.968858 3.5592356 -0.36673599 48
2.3387339 3.5848746 -0.41109091 42
1.7219192 3.7282834 -0.41866565 24
1.9808455 3.5809062 -0.44138286 54
1.9768065 3.5736046 -0.51287806 42
1.9664423 3.5548687 -0.58208776 38
1.9765124 3.5730729 -0.65806174 65
1.9802742 3.5798733 -0.73168045 44
1.0790795 1.9507238 -0.43846047 5
1.0639569 1.9233856 -0.47126091 21
1.0599514 1.9161446 -0.50832742 6
0.9669463 1.7480131 -0.93117177 20
1.9961104 3.5497651 1.0750135 33
1.9923357 3.5430522 0.78548026 33
2.005739 3.5668879 0.57249224 36
2.0098691 3.5742323 0.35601354 34
2.0010595 3.5585661 0.21003047 31
2.0182412 3.5891211 0.13897094 32
2.3648305 3.5701609 0.11909311 40
1.7310117 3.6802542 0.089168854 23
2.0132501 3.5802453 0.06581606 26
2.3656237 3.5713582 0.043365803 35
1.7246023 3.6666274 0.017114369 28
2.021348 3.5946462 -0.0068378476 32
2.3656776 3.5714397 -0.032300297 37
1.7159503 3.6482325 -0.05418456 17
1.9994105 3.5556338 -0.078895137 42
2.3716161 3.580405 -0.10840863 39
1.7203795 3.6576493 -0.12582582 22
2.0121264 3.5782471 -0.15218028 47
2.3657718 3.5715816 -0.18404914 42
1.7344694 3.6876056 -0.19895144 26
2.0144105 3.582309 -0.225099 40
2.368022 3.5749791 -0.26001933 41
1.7310045 3.6802387 -0.27062926 23
2.0101974 3.5748165 -0.29721871 41
2.3695276 3.5772517 -0.33619019 39
1.7287103 3.6753612 -0.34213421 23
2.0014687 3.5592937 -0.36817276 50
2.3746979 3.5850573 -0.41300294 39
1.7292745 3.6765609 -0.41420311 24
2.0057964 3.5669901 -0.44138286 48
2.0114331 3.5770137 -0.51537019 39
2.0047972 3.5652132 -0.58605909 40
2.0110867 3.5763979 -0.66124386 53
2.005218 3.5659614 -0.73168045 46
1.1157564 1.9841952 -0.44772372 1
1.0754416 1.9125019 -0.47042236 19
1.0713928 1.9053018 -0.50742292 15
1.1271933 2.0045342 -0.79113954 0
0.97379506 1.7317396 -0.92610186 18
2.0266011 3.5458167 1.0780762 35
2.0306637 3.5529249 0.79079264 30
2.0423856 3.5734341 0.57581747 30
2.0486145 3.5843322 0.35843539 34
2.0318007 3.5549142 0.21064699 34
2.0432487 3.5749438 0.13897094 38
2.4053161 3.5767906 0.1198715 38
1.7307529 3.6139786 0.087853678 27
2.0441494 3.57652 0.066008314 27
2.4038906 3.5746708 0.043608747 33
1.7242426 3.6003842 0.016860947 32
2.0503635 3.5873926 -0.006851112 31
2.4017136 3.5714333 -0.032451089 35
1.7223747 3.5964839 -0.053593259 36
2.0400608 3.5693662 -0.079513922 40
2.4121737 3.5869882 -0.10911521 39
1.72515 3.6022792 -0.12433234 42
2.0469756 3.5814645 -0.15292118 47
2.3995683 3.5682433 -0.18473589 44
1.7308351 3.61415 -0.19563559 25
2.047298 3.5820289 -0.22597401 40
2.4062905 3.5782394 -0.26147196 37
1.7290727 3.6104701 -0.26637992 28
2.0489626 3.5849411 -0.29924259 44
2.4144714 3.5904045 -0.33900219 42
1.7285026 3.6092796 -0.33709788 25
2.0381293 3.5659869 -0.37032792 47
2.4085557 3.5816081 -0.4145326 39
1.7273986 3.6069746 -0.40771216 43
2.0405166 3.570164 -0.44352755 50
2.0462029 3.5801129 -0.51786226 40
2.0433917 3.5751944 -0.59003043 38
2.0438437 3.575985 -0.66378957 59
2.043741 3.5758054 -0.73660994 42
1.1957983 2.0922132 -0.47396958 0
1.0926486 1.9117388 -0.47209945 18
1.0904685 1.9079242 -0.51013643 18
0.99125808 1.7343421 -0.93117177 19
2.0571334 3.5416148 1.081139 35
2.0652812 3.5556419 0.79458725 33
2.0772314 3.5762157 0.57858849 30
2.0755894 3.5733888 0.35878137 31
2.0706136 3.5648227 0.21208556 29
2.080204 3.5813336 0.13978049 34
2.4437544 3.579725 0.12053869 38
1.7436738 3.5766451 0.087239929 41
2.0750947 3.5725374 0.066200577 27
2.4378083 3.5710149 0.043770712 38
1.7440772 3.5774727 0.016810264 48
2.0854034 3.5902851 -0.0068842731 32
2.4423745 3.5777035 -0.032662202 39
1.7439352 3.5771816 -0.053485751 37
2.0689471 3.5619533 -0.079668619 41
2.4416661 3.5766659 -0.10931708 38
1.7467524 3.5829601 -0.12408342 42
2.0719287 3.5670867 -0.15292118 44
2.4424462 3.5778086 -0.18610939 43
1.7455195 3.5804312 -0.19446528 48
2.0782733 3.5780098 -0.22663029 42
2.4424684 3.577841 -0.26268247 37
1.7489892 3.5875483 -0.26558319 50
2.0839593 3.5877988 -0.30068821 40
2.4484718 3.5866351 -0.34025198 40
1.7571511 3.6042902 -0.33776939 41
2.0649757 3.5551162 -0.3706871 48
2.4447262 3.5811484 -0.41644463 45
1.7490501 3.5876732 -0.40690079 50
2.0773759 3.5764649 -0.44610122 53
2.0791204 3.5794683 -0.51985598 40
2.0782452 3.5779612 -0.59286714 38
2.0727258 3.568459 -0.66506243 54
2.0686548 3.5614502 -0.73660994 45
1.2596577 2.1686597 -0.49326801 1
1.1098973 1.9108281 -0.47377652 16
1.0978905 1.8901571 -0.50742292 15
1.0856888 1.8691502 -0.53994519 0
1.0069838 1.7336495 -0.93455172 19
2.1014667 3.5604737 1.0913479 33
2.104027 3.5648119 0.7998997 33
2.1001339 3.5582156 0.57803428 32
2.1106131 3.5759706 0.36051127 34
2.0974808 3.5537207 0.21229106 34
2.1092193 3.5736091 0.14005034 35
2.480073 3.57901 0.12109468 37
1.7686007 3.5643849 0.087239929 40
2.1121824 3.5786293 0.066585086 28
2.4695137 3.563772 0.043892182 36
1.7725658 3.572376 0.016844053 45
2.1165168 3.5859733 -0.0069041699 32
2.4741263 3.5704286 -0.032752682 35
1.7706438 3.5685024 -0.053539507 34
2.1018946 3.5611989 -0.079978012 44
2.4847968 3.5858269 -0.1101246 38
1.7788316 3.5850039 -0.12458125 40
2.1110034 3.5766318 -0.15395844 48
2.4741929 3.5705245 -0.18662445 41
1.7651455 3.5574214 -0.19388013 43
2.1072619 3.5702927 -0.22706778 40
2.4833055 3.5836747 -0.26437718 39
1.7739922 3.5752506 -0.26558319 44
2.1170671 3.5869055 -0.30184469 42
2.4848077 3.5858428 -0.34181419 39
1.7787275 3.584794 -0.33709788 44
2.1079688 3.5714905 -0.37391984 48
2.4787388 3.5770848 -0.41797429 37
1.7775915 3.5825045 -0.40771216 46
2.112401 3.5789998 -0.44824594 51
2.1141455 3.5819554 -0.52234811 44
2.1132362 3.5804148 -0.59570384 39
2.1096311 3.5743067 -0.66888094 58
2.1074777 3.5706582 -0.74153948 43
2.1166317 3.5861678 -0.81902564 23
1.1271862 1.9097694 -0.47545362 12
1.124923 1.905935 -0.51375443 13
1.1046289 1.8715513 -0.5428533 1
1.0245906 1.7359438 -0.93962163 19
2.1382062 3.5656173 1.0974734 29
2.1329024 3.5567727 0.80141753 32
2.1371474 3.5638516 0.58135951 32
2.1498728 3.585072 0.36293313 33
2.1345658 3.5595467 0.21352412 33
2.1443963 3.5759394 0.14072494 29
2.5118992 3.5714202 0.12142827 36
1.7934415 3.5519509 0.087239929 39
2.141228 3.5706563 0.066713259 27
2.5104403 3.5693462 0.044175621 36
1.8010679 3.5670555 0.016877843 46
2.1497285 3.5848317 -0.0069306991 30
2.5127985 3.5726991 -0.032933634 36
1.8081323 3.5810466 -0.053915787 35
2.1308186 3.553298 -0.080132708 41
2.5166709 3.5782049 -0.11042741 37
1.80742 3.5796359 -0.12483016 38
2.1359215 3.5618072 -0.15395844 45
2.5128534 3.5727773 -0.18765458 45
1.7953401 3.555711 -0.19446528 41
2.140352 3.5691957 -0.22794281 42
2.5174508 3.5793138 -0.2653456 41
1.8043054 3.5734673 -0.26637992 44
2.1564193 3.5959888 -0.30386856 42
2.5189574 3.5814557 -0.34306398 39
1.8126931 3.5900793 -0.33877668 39
2.1410465 3.5703537 -0.37535661 47
2.5219758 3.5857472 -0.42103356 43
1.8097328 3.5842164 -0.4093349 48
2.147562 3.5812185 -0.45039067 50
2.143183 3.5739164 -0.52334493 41
2.1442895 3.5757616 -0.59740585 37
2.1426568 3.5730388 -0.67142665 63
2.1465292 3.5794966 -0.74646896 47
2.1476717 3.5814018 -0.82134145 40
1.1585943 1.9320418 -0.48300049 6
1.1402054 1.901377 -0.51465893 14
1.1336346 1.8904197 -0.55060834 8
1.1477089 1.9138895 -0.76771766 0
1.0422784 1.7380764 -0.94469148 18
2.1610346 3.5473001 1.0964525 22
2.1658542 3.5552115 0.80445319 34
2.1681585 3.5589938 0.58302212 30
2.1789954 3.5767825 0.36362508 32
2.159364 3.5445578 0.21352412 32
2.1755483 3.5711241 0.14112972 33
2.5460629 3.5668144 0.12187307 35
1.8273315 3.5571296 0.087678321 39
2.1765077 3.5726988 0.067033686 26
2.5445931 3.5647552 0.044337582 32
1.8314098 3.5650687 0.016928528 45
2.1788652 3.5765686 -0.0069439635 31
2.5562704 3.5811141 -0.033174906 33
1.8349161 3.5718939 -0.05396954 33
2.1680572 3.5588276 -0.080596797 43
2.5532057 3.5768209 -0.1109321 38
1.8396739 3.5811555 -0.12532799 38
2.1752927 3.5707047 -0.15499569 45
2.5493436 3.5714104 -0.18851303 42
1.827422 3.5573058 -0.19524549 40
2.1818411 3.5814536 -0.22969285 42
2.5539763 3.5779002 -0.26655611 38
1.83468 3.5714343 -0.26717669 42
2.1897738 3.594475 -0.30502504 39
2.5554833 3.5800116 -0.34462619 41
1.8413548 3.5844278 -0.33944818 38
2.172138 3.565526 -0.37643421 46
2.5585139 3.5842569 -0.42294562 35
1.8347111 3.5714948 -0.4093349 45
2.1828563 3.5831201 -0.45253539 53
2.1763403 3.5724244 -0.52533865 39
2.1856806 3.5877562 -0.60194451 36
2.1757672 3.5714834 -0.67397231 62
2.1755633 3.5711489 -0.74787742 51
