# .PCD v0.7 - Point Cloud Data file format
VERSION 0.7
FIELDS x y z intensity
SIZE 4 4 4 4
TYPE F F F F
COUNT 1 1 1 1
WIDTH 1329
HEIGHT 1
VIEWPOINT 0 0 0 1 0 0 0
POINTS 1329
DATA ascii
-0.20092878 -5.3520818 0.46499726 3
-0.51958126 -13.839934 0.71250063 6
-0.65645188 -17.48572 0.59055907 10
-2.0924983 -18.893127 0.52863556 19
0.73945999 -21.069962 0.4622401 27
-0.70685595 -18.828318 0.30190793 19
-2.2534704 -20.34654 0.20723265 5
1.3381261 -38.128181 0.16114201 10
-1.2138578 -32.333179 -0.053648252 28
-3.016144 -27.232706 -0.20658919 67
1.4364958 -40.931103 -0.55044633 41
-1.2188838 -32.467052 -0.62837654 37
-3.0157094 -27.228781 -0.69153398 59
0.55025285 -15.678747 -0.48836845 0
-0.30096966 -8.0168419 -0.29739615 0
-3.0116904 -27.192493 -1.1753736 76
0.25335243 -7.2189522 -0.35265118 21
-0.27135736 -7.2280669 -0.39616549 1
-0.80299973 -7.2502689 -0.44232336 18
0.2508547 -7.1477823 -0.47592506 0
-0.26925716 -7.1721249 -0.52013278 0
-0.79587102 -7.185904 -0.56646174 0
0.24870482 -7.086524 -0.59730792 2
-0.26648134 -7.098186 -0.640441 0
-0.78632563 -7.099719 -0.6860438 3
0.24704252 -7.0391588 -0.71806026 4
-0.26422906 -7.0381927 -0.75965893 40
-0.26175466 -6.9722829 -0.87622899 29
-0.26188642 -6.9757929 -1.0002151 39
-0.26148725 -6.9651599 -1.1232872 47
-0.26116732 -6.9566379 -1.2450539 38
-0.26120743 -6.9577069 -1.369417 31
-0.26117676 -6.9568896 -1.4926057 2
-0.30433869 -8.1065817 -1.8831632 4
-0.28200707 -7.5117407 -1.8776908 5
-0.20235078 -5.3899593 -1.8555346 6
-0.14838919 -3.9526 -1.8437539 9
-0.16850296 -3.8135264 1.0076337 8
-0.12915541 -2.9230204 0.56539398 3
-0.15965371 -3.6132522 0.50598782 4
-0.23941131 -5.4183106 0.47087893 3
-0.61100745 -13.828203 0.7120896 7
-0.68064344 -15.404191 0.52039897 2
-2.2270825 -18.958258 0.53085953 15
0.5995931 -21.070404 0.46215242 66
-0.83136195 -18.815224 0.30177978 19
-3.2040796 -27.275042 0.27801082 21
0.98214477 -34.513718 0.14583537 2
-1.4349833 -32.476265 -0.053900279 22
-3.196686 -27.212103 -0.20658919 100
1.1567023 -40.647873 -0.54652226 44
-1.4273025 -32.302437 -0.62535995 48
-3.1976249 -27.220095 -0.69183683 62
0.44534886 -15.650081 -0.48737282 0
-0.69697326 -15.773765 -0.58530879 0
-3.193831 -27.187799 -1.1760603 87
0.20478861 -7.1965117 -0.35148087 17
-0.31893733 -7.2181282 -0.39572796 3
-0.85432702 -7.2725425 -0.4440181 10
0.20310421 -7.13732 -0.47512832 0
-0.31593823 -7.1502533 -0.51868713 0
-0.84397602 -7.1844282 -0.56677419 0
0.20147447 -7.080049 -0.59663641 1
-0.31372848 -7.1002426 -0.64080018 0
-0.83525217 -7.1101661 -0.68757343 15
0.20125864 -7.0724649 -0.72130573 4
-0.31107804 -7.0402584 -0.76008785 58
-0.30851662 -6.9822888 -0.87772423 30
-0.30832085 -6.9778585 -1.0007824 37
-0.308025 -6.9711623 -1.1245601 46
-0.3071261 -6.950819 -1.2443497 35
-0.30769363 -6.9636631 -1.3709608 26
-0.30765632 -6.9628186 -1.4942827 2
-0.35878506 -8.1199541 -1.8867812 3
-0.33164951 -7.5058279 -1.8767215 4
-0.23776011 -5.3809409 -1.8529321 5
-0.17540087 -3.9696386 -1.8522037 9
-0.19571535 -3.8238447 1.0106964 6
-0.14213105 -2.7769258 0.537314 5
-0.18062274 -3.5289683 0.49434954 4
-0.38152558 -7.454165 0.64802074 3
-0.70712322 -13.815621 0.71167856 6
-2.1864066 -17.55352 0.4919402 21
0.44398087 -20.678263 0.45347229 46
-0.96310556 -18.81695 0.30190793 24
-2.5361724 -20.361607 0.20771854 14
0.77482796 -36.08736 0.15245812 52
-1.6757834 -32.741096 -0.054357905 21
-3.3925171 -27.236752 -0.2069511 68
0.79064828 -36.824184 -0.4950254 51
-1.6668866 -32.567272 -0.63069701 51
-3.3910389 -27.224886 -0.69254339 66
0.33616567 -15.656805 -0.48749727 0
-1.670549 -32.638828 -1.2115151 31
-3.388499 -27.204494 -1.1777772 67
0.15471403 -7.2057552 -0.35187098 16
-0.36993405 -7.2276921 -0.39638424 12
-0.92136359 -7.3971481 -0.4520075 1
0.15335706 -7.1425548 -0.47539389 0
-0.36625656 -7.1558423 -0.51926541 0
-0.89559084 -7.1902323 -0.56771153 0
0.15246931 -7.1012082 -0.59831518 2
-0.36288258 -7.0899224 -0.64008182 0
-0.88683867 -7.1199656 -0.68910307 31
0.15162237 -7.0617623 -0.72008866 1
-0.36062729 -7.0458589 -0.76094574 54
-0.35725465 -6.9799647 -0.87772423 28
-0.35743275 -6.9834447 -1.0019171 40
-0.35668537 -6.9688425 -1.1245601 42
-0.35604703 -6.9563708 -1.2457581 30
-0.35630167 -6.9613452 -1.3709608 26
-0.35525885 -6.9409714 -1.49009 3
-0.41566345 -8.1211433 -1.8876857 3
-0.38483545 -7.5188327 -1.880599 4
-0.27648041 -5.4018154 -1.8607394 5
-0.20218329 -3.9502139 -1.8437539 8
-0.12655962 -2.1621132 0.57170707 8
-0.1583515 -2.7052379 0.52365351 6
-0.20324484 -3.4721844 0.48659068 4
-0.43778527 -7.4790154 0.6504426 39
-0.65944481 -11.265792 0.58056366 4
-0.90008962 -15.376908 0.51985925 7
-2.1512325 -16.296268 0.4571352 2
0.40545648 -28.67824 0.62882894 16
-1.101945 -18.825356 0.30216429 22
-3.2507014 -24.625093 0.25144875 6
0.51807749 -36.644009 0.15478958 39
-1.9846879 -33.905918 -0.056314416 46
-3.5946982 -27.23098 -0.2071019 62
0.51684803 -36.557045 -0.49137011 40
-1.9866564 -33.939548 -0.6575368 52
-3.5941792 -27.227045 -0.69324994 59
0.22178237 -15.686832 -0.48836845 0
-1.9833281 -33.882687 -1.2581916 37
-3.5904417 -27.198734 -1.1786356 76
0.10194562 -7.21069 -0.35206604 17
-0.42383748 -7.2407351 -0.39725927 20
-1.0001214 -7.5762367 -0.46338639 1
0.10088265 -7.1355047 -0.47486272 0
-0.42079803 -7.1888094 -0.52186751 0
-0.9529708 -7.2190557 -0.5705235 3
0.10041086 -7.1021347 -0.59831518 0
-0.41600677 -7.106957 -0.64187777 0
-0.94369656 -7.1488008 -0.69254476 25
0.09990935 -7.0666628 -0.72049433 0
-0.41296175 -7.0549359 -0.7622326 39
-0.40887284 -6.9850821 -0.87872106 31
-0.40838122 -6.9766836 -1.0013498 40
-0.40845051 -6.9778676 -1.1264694 47
-0.40702847 -6.9535737 -1.2457581 31
-0.40777823 -6.9663825 -1.3725047 26
-0.40795583 -6.9694161 -1.4967984 2
-0.47563657 -8.1256571 -1.8894947 4
-0.43971229 -7.5119357 -1.8796296 5
-0.3158479 -5.3958673 -1.8594382 5
-0.23176895 -3.9594834 -1.8488238 8
-0.1383626 -2.111007 0.55843532 9
-0.17312397 -2.6413634 0.51151079 7
-0.22748029 -3.4706812 0.48659068 4
-0.64897341 -9.9014282 0.86149049 7
-0.75244844 -11.480153 0.59186667 40
-1.0095104 -15.402164 0.52093869 9
-2.258889 -16.237289 0.45591202 49
0.1232782 -17.227419 0.37771821 9
-1.233867 -18.825188 0.30229247 23
-3.4219863 -24.597837 0.25140828 7
0.26035237 -36.382744 0.15367453 43
-2.2074816 -33.679688 -0.055962909 38
-3.7874744 -27.225029 -0.20725268 83
0.25246057 -35.279911 -0.47416866 39
-2.2094259 -33.709354 -0.65336001 49
-3.7863758 -27.217133 -0.6936537 57
0.12530798 -17.511068 -0.54512078 5
-2.1889763 -33.39735 -1.2407064 34
-3.7840917 -27.200714 -1.1798375 70
0.05166021 -7.2192168 -0.35245612 18
-0.47359332 -7.2256432 -0.39660299 24
-3.7839386 -27.199615 -1.6651889 59
0.051122092 -7.1440177 -0.47539389 0
-0.55342835 -8.4436913 -0.61323047 0
-1.003346 -7.2122269 -0.5705235 23
0.050683547 -7.0827336 -0.59663641 0
-0.46613365 -7.1118302 -0.64259619 0
-0.99358153 -7.1420383 -0.69254476 22
0.050572302 -7.0671878 -0.72049433 0
-0.46298471 -7.063787 -0.76351941 42
-0.4578875 -6.9860187 -0.87921953 29
-0.4578546 -6.9855165 -1.0030518 45
-0.45689696 -6.9709058 -1.1258329 45
-0.45633617 -6.9623499 -1.2478708 31
-0.4571729 -6.9751158 -1.3748206 12
-0.45634577 -6.9624958 -1.4959599 2
-0.5333721 -8.1376915 -1.8931127 4
-0.49290615 -7.5202999 -1.8825377 4
-0.35351044 -5.3935308 -1.8594382 4
-0.25964281 -3.9613867 -1.8505138 8
-0.15085776 -2.0791304 0.55026805 9
-0.18957047 -2.6126711 0.50619841 6
-0.25256473 -3.4808614 0.4882533 3
-0.70106781 -9.6621561 0.84107763 1
-0.81870049 -11.283377 0.58200222 6
-1.1173025 -15.398727 0.52107358 16
-2.3739233 -16.232994 0.4562456 18
0.0036782986 -21.086933 0.46232778 1
-1.3667088 -18.836058 0.30261287 23
-3.5999892 -24.616886 0.25185367 11
0.0063047213 -36.143677 0.15266085 40
-2.3858206 -32.881516 -0.054662988 11
-3.9820726 -27.229589 -0.20749396 66
0.0061625796 -35.328808 -0.4748137 40
-2.4339995 -33.545521 -0.65049815 62
-3.9838104 -27.241472 -0.6949659 59
0.0030560161 -17.519514 -0.54536968 5
-2.4296019 -33.484913 -1.2445592 44
-3.9790943 -27.209223 -1.1813827 69
0.0012579223 -7.211411 -0.35206604 29
-0.52576053 -7.2460618 -0.39791551 22
-3.9771957 -27.196241 -1.6666416 68
0.0012489832 -7.1601653 -0.47645622 0
-0.52141798 -7.1862125 -0.5221566 0
-1.0536706 -7.2050467 -0.5705235 20
0.0012403751 -7.1108165 -0.59898669 0
-0.51807863 -7.1401896 -0.64546973 0
-1.0462972 -7.1546268 -0.69445682 21
0.0012307139 -7.0554309 -0.71927732 0
-0.51228797 -7.0603824 -0.76351941 44
-0.50722241 -6.9905682 -0.88021636 21
-0.50661159 -6.9821496 -1.0030518 50
-0.50583774 -6.9714847 -1.1264694 53
-0.50493145 -6.9589944 -1.2478708 40
-0.5052892 -6.9639244 -1.3732767 2
-0.52362263 -7.2165971 -1.5513036 12
-0.589607 -8.1259975 -1.8913037 2
-0.54567665 -7.5205464 -1.8835071 5
-0.39142951 -5.3947039 -1.8607394 5
-0.28624272 -3.9450135 -1.8437539 8
-0.15984662 -2.0086305 0.53189176 8
-0.20562483 -2.583879 0.50088596 6
-0.28408742 -3.5698388 0.50099999 2
-0.67588001 -8.4930992 0.73970544 3
-0.91012913 -11.436671 0.5902226 40
-1.2263643 -15.410478 0.52174819 19
-2.4853747 -16.204168 0.45591202 24
-0.11206493 -16.463661 0.36097166 5
-1.4975412 -18.818083 0.30248472 19
-3.7735789 -24.603014 0.25197515 13
-0.2369781 -34.81488 0.1470518 22
-2.4309576 -30.547382 -0.050809652 26
-4.1793509 -27.248569 -0.20785587 66
-0.240988 -35.403984 -0.47583506 36
-2.548209 -32.02076 -0.62126052 18
-4.1781387 -27.240665 -0.69567251 58
-0.11960291 -17.571079 -0.54698759 2
-2.4898584 -31.287527 -1.163505 16
-4.1750121 -27.220282 -1.1830995 69
-0.049112722 -7.215239 -0.3522611 35
-0.57696843 -7.2501774 -0.39835304 20
-0.048682384 -7.1520171 -0.47592506 0
-0.57125795 -7.1784201 -0.52186751 0
-1.1081778 -7.2251072 -0.57271063 20
-0.048400816 -7.1106515 -0.59898669 0
-0.56696582 -7.124485 -0.64439213 0
-1.0980314 -7.1589551 -0.69560403 22
-0.048050914 -7.0592465 -0.71968299 0
-0.56188172 -7.0605979 -0.76394832 34
-0.55727273 -7.0026817 -0.88221008 40
-0.55471557 -6.9705482 -1.0019171 49
-0.55480874 -6.9717193 -1.1271057 46
-0.55256498 -6.9435244 -1.2457581 5
-0.57475477 -7.2223611 -1.4249965 5
-0.55475473 -6.9710407 -1.4993141 2
-0.64817733 -8.1449881 -1.8967307 3
-0.60032159 -7.5436335 -1.8902928 5
-0.42998224 -5.403151 -1.8646431 5
-0.31435233 -3.9501472 -1.8471339 8
-0.17050548 -1.9767004 0.5237245 9
-0.22039416 -2.555069 0.49557352 7
-0.51882845 -6.0148711 0.84460616 9
-0.68938357 -7.992147 0.69645798 4
-0.97222573 -11.271187 0.58200222 17
-1.3295711 -15.413955 0.52215296 22
-2.5972173 -16.214966 0.4566904 25
-0.20765746 -15.450891 0.33878905 0
-2.1210339 -24.589523 0.39547312 7
-4.3611445 -27.227528 0.27914456 62
-0.39546826 -29.425079 0.12429458 1
-2.4736505 -28.677473 -0.047725655 13
-4.3625093 -27.236048 -0.20797651 72
-0.47745803 -35.525581 -0.47750142 29
-2.5711432 -29.807722 -0.57864165 29
-4.3644061 -27.24789 -0.69658095 62
-0.23796338 -17.705824 -0.55121917 1
-2.5193615 -29.207407 -1.086748 22
-4.358613 -27.211723 -1.1839579 67
-0.096965127 -7.2147551 -0.3522611 38
-0.62572575 -7.2541504 -0.39879054 24
-3.0001261 -18.73041 -1.1502345 0
-0.096276402 -7.1635094 -0.47672182 0
-0.61919588 -7.1784487 -0.5221566 1
-1.1573336 -7.2254739 -0.57333553 31
-0.095345326 -7.0942321 -0.59764367 0
-0.61351854 -7.1126304 -0.64367372 2
-1.1480063 -7.1672411 -0.69713366 21
-0.094761804 -7.0508151 -0.71887159 0
-0.6090374 -7.060679 -0.7643773 38
-0.6037026 -6.9988322 -0.88221008 36
-0.60161293 -6.9746065 -1.0030518 50
-0.60103333 -6.9678869 -1.1271057 42
-0.60570872 -7.0220895 -1.2605467 4
-0.60409009 -7.0033245 -1.38254 1
-0.60030258 -6.959415 -1.4976369 3
-0.59871227 -6.9409781 -1.617241 2
-0.6506716 -7.5433526 -1.8912622 5
-0.46645686 -5.4077177 -1.8672454 5
-0.34116611 -3.9551997 -1.8505138 8
-0.1814272 -1.9446555 0.51555729 9
-0.23859134 -2.5573785 0.49633244 6
-0.55970359 -5.99927 0.84294355 13
-0.73442727 -7.8720732 0.68642455 4
-1.0527451 -11.284012 0.58302975 15
-1.437891 -15.412258 0.52242285 24
-2.7129955 -16.212212 0.4571352 25
-0.42077494 -20.602751 0.4518064 37
-2.0381582 -21.846313 0.35157439 5
-4.5577235 -27.235867 0.27954948 81
-0.64654082 -31.657116 0.13373874 1
-2.5392892 -27.217768 -0.045324784 54
-4.5617886 -27.260157 -0.20839873 62
-0.73109686 -35.797302 -0.4812105 11
-2.6183188 -28.064856 -0.54514992 20
-4.5617857 -27.260139 -0.69769126 58
-0.36728209 -17.983538 -0.5599311 31
-4.5550761 -27.220045 -1.1856748 66
-0.14765756 -7.2298794 -0.35304129 20
-0.67820907 -7.2694893 -0.39988431 15
-3.1156595 -18.618435 -1.1446661 0
-0.14644776 -7.1706433 -0.47725299 0
-0.66892517 -7.1699786 -0.52186751 0
-1.2156469 -7.2644143 -0.57708484 6
-0.14560257 -7.1292591 -0.60066545 0
-0.66389918 -7.116107 -0.64439213 1
-1.2019582 -7.1826143 -0.69942814 19
-0.14422722 -7.0619173 -0.72008866 0
-0.6583153 -7.0562553 -0.7643773 31
-0.65218025 -6.9904957 -0.8817116 33
-0.65102577 -6.9781208 -1.0041864 51
-0.64819634 -6.947793 -1.1245601 255
-0.67483437 -7.2333169 -1.2992785 6
-0.65005112 -6.9676738 -1.3763645 3
-0.65069032 -6.9745255 -1.5018296 6
-0.64824063 -6.9482679 -1.6199545 2
-0.64780265 -6.9435735 -1.7419775 3
-0.50314438 -5.3930316 -1.8633418 5
-0.36843348 -3.9491117 -1.8488238 8
-0.19451487 -1.9317291 0.51249456 10
-0.25890529 -2.5711908 0.4993681 4
-0.60644346 -6.0225959 0.84682298 18
-0.78532535 -7.7990737 0.68054289 5
-1.1358327 -11.279965 0.58323526 14
-1.5504291 -15.397326 0.52228791 22
-2.9833016 -17.058397 0.48159876 23
-0.58532643 -21.086807 0.46250314 27
-2.0559957 -20.418114 0.32882395 4
-4.7641339 -27.241127 0.27995437 75
-0.8795802 -31.687511 0.13389079 3
-2.7407408 -27.218323 -0.045357943 69
-4.7656212 -27.249628 -0.20857969 68
-0.90669841 -32.664467 -0.43917444 19
-2.7366259 -27.177458 -0.52828801 69
-4.7656164 -27.249601 -0.6982969 61
-0.9043445 -32.579662 -1.0145718 29
-2.7368608 -27.17979 -1.0126584 68
-4.7579222 -27.205606 -1.1865332 5
-0.20087288 -7.2365904 -0.35343137 19
-0.73668069 -7.3159828 -0.40272814 7
-3.0869722 -17.651182 -1.0865612 0
-0.19834271 -7.1454396 -0.47565949 0
-0.72346419 -7.1847296 -0.52331311 0
-1.3066474 -7.4713573 -0.59426928 2
-0.19774804 -7.1240158 -0.6003297 0
-0.71883887 -7.1387954 -0.6469065 0
-1.257319 -7.1892991 -0.70095778 20
-0.19598968 -7.0606699 -0.72008866 0
-0.71121776 -7.0631104 -0.7656641 25
-0.70420074 -6.9934244 -0.88270849 35
-0.70255703 -6.9771008 -1.0047538 35
-0.70148259 -6.9664302 -1.1283786 7
-0.7077198 -7.0283723 -1.2633635 2
-0.70425487 -6.9939618 -1.38254 3
-0.70179856 -6.9695683 -1.5018296 9
-0.6983757 -6.9355755 -1.6181455 12
-0.6994617 -6.9463606 -1.7439163 3
-0.54455847 -5.4080153 -1.8698479 6
-0.39882487 -3.9607337 -1.8555837 8
-0.2059245 -1.9110978 0.50739002 11
-0.28189823 -2.6161778 0.50847512 3
-0.64847434 -6.0182152 0.84682298 17
-0.83036184 -7.7062354 0.67293131 6
-1.2154101 -11.279705 0.5836463 22
-2.1140068 -19.6192 0.66598117 13
-3.1073329 -17.064692 0.48237714 28
-0.63253689 -18.204636 0.39937475 2
-2.0399563 -18.931967 0.30511224 3
-4.4834261 -24.621849 0.25335184 4
-1.1313294 -32.560059 0.13760763 26
-2.9324079 -27.214432 -0.045384474 55
-4.9643416 -27.262917 -0.20894159 64
-1.1280429 -32.465473 -0.43659425 30
-2.9288645 -27.181547 -0.52875209 102
-4.9650507 -27.266809 -0.6996091 60
-1.1252385 -32.384762 -1.0087223 29
-2.9316838 -27.207712 -1.0144365 81
-3.2273767 -17.72394 -0.77396786 0
-0.25152591 -7.2390046 -0.35362643 19
-0.80057454 -7.4297924 -0.40929079 1
-3.218709 -17.67634 -1.0894665 2
-0.24946809 -7.17978 -0.47804973 0
-0.77574253 -7.199337 -0.52475876 0
-1.3930664 -7.6503701 -0.60926664 0
-0.2470613 -7.1105118 -0.59932244 0
-0.77122033 -7.1573682 -0.64906162 0
-1.3096191 -7.1920986 -0.70210499 19
-0.24527599 -7.0591302 -0.72008866 0
-0.76093632 -7.0619268 -0.76609308 25
-0.75343215 -6.9922838 -0.8832069 33
-0.75167352 -6.9759626 -1.0053211 42
-0.74756193 -6.9378047 -1.1245601 4
-0.75128609 -6.9723673 -1.2542087 3
-0.75054199 -6.9654617 -1.3779083 84
-0.75420934 -6.9994965 -1.5093765 2
-0.77641559 -7.2055831 -1.6823648 1
-0.74918664 -6.9528828 -1.7468244 7
-0.58230031 -5.4040818 -1.8698479 5
-0.42530113 -3.9470391 -1.8505138 9
-0.21926145 -1.9096136 0.50739002 10
-0.31090757 -2.707787 0.52668917 1
-0.69182926 -6.0253487 0.84848559 18
-0.88141382 -7.676497 0.6708554 7
-1.2941276 -11.270946 0.5836463 17
-2.0370488 -17.741268 0.60270214 1
-3.2330854 -17.077942 0.48337793 31
-0.75611186 -18.115871 0.39753351 6
-2.1177862 -18.444433 0.29748604 24
-4.6589303 -24.6096 0.25355428 5
-1.3481053 -32.299587 0.13654327 24
-3.1273479 -27.237009 -0.045457426 58
-5.15976 -27.255106 -0.2091527 76
-1.3501639 -32.348911 -0.43514287 29
-3.1212931 -27.184277 -0.52921617 123
-5.1590075 -27.251129 -0.70011383 56
-1.3526331 -32.408073 -1.0097179 25
-3.1242936 -27.210409 -1.0153255 79
-3.2908227 -17.382925 -0.76006114 0
-0.30255738 -7.2490473 -0.3542116 18
-0.87064868 -7.5827403 -0.41804099 1
-3.1831021 -16.813919 -1.0376563 1
-0.29925343 -7.1698875 -0.47751856 0
-0.82689458 -7.2016726 -0.52533698 1
-3.1131885 -16.444618 -1.3113292 2
-0.29702845 -7.1165781 -0.59999394 0
-0.82298714 -7.1676412 -0.65049839 0
-1.3635007 -7.2023416 -0.70401704 21
-0.29504988 -7.0691733 -0.72130573 0
-0.81021929 -7.0564423 -0.76609308 28
-0.80403996 -7.002625 -0.88520056 33
-0.80080825 -6.9744792 -1.0058885 34
-0.79868156 -6.9559569 -1.1283786 3
-0.80129153 -6.9786878 -1.2563213 4
-0.80318111 -6.9951448 -1.3848557 54
-0.80974877 -7.0523443 -1.5219547 2
-0.83025676 -7.2309546 -1.6896008 3
-0.79903668 -6.9590497 -1.7497325 8
-0.61915076 -5.3923693 -1.8672454 5
-0.45367339 -3.9511774 -1.8538938 9
-0.23305525 -1.9118755 0.50841093 9
-0.90339482 -7.4110255 1.4427034 19
-0.73435515 -6.0243039 0.84903979 21
-0.93353593 -7.658289 0.66981751 8
-1.3747129 -11.277497 0.58446836 16
-2.1294096 -17.468672 0.59393215 3
-3.3560884 -17.07457 0.48393393 32
-0.88217664 -18.102161 0.39735815 3
-2.2426248 -18.397438 0.29697335 7
-4.8383379 -24.615721 0.25395921 9
-1.5844692 -32.513123 0.13748938 29
-3.3212874 -27.246277 -0.045510486 47
-5.3607106 -27.273365 -0.20957494 61
-1.5880393 -32.58638 -0.43847564 25
-3.3138962 -27.185644 -0.52968031 72
-5.3583846 -27.261532 -0.70132512 65
-1.5916952 -32.6614 -1.0179321 25
-3.3170774 -27.21174 -1.0162146 80
-3.3573754 -17.081116 -0.74787134 1
-0.35296342 -7.2427683 -0.35401654 26
-3.3148718 -27.193647 -1.5004412 64
-3.2503548 -16.536634 -1.0219195 2
-0.35007849 -7.1835694 -0.47858089 0
-0.87811536 -7.2036448 -0.52591521 17
-3.1817715 -16.187708 -1.2925825 2
-0.34651026 -7.1103501 -0.59965819 0
-0.87204081 -7.1538119 -0.64978004 0
-1.4175888 -7.2121816 -0.7059291 21
-0.34362 -7.0510421 -0.71968299 0
-0.86042356 -7.0585098 -0.76695096 33
-0.85338652 -7.0007811 -0.88569903 30
-0.84995729 -6.9726491 -1.0064558 28
-0.87445939 -7.1736526 -1.1646547 3
-0.84951431 -6.9690151 -1.2556171 3
-0.85389483 -7.004951 -1.3879435 15
-0.85233635 -6.992166 -1.510215 25
-0.84912747 -6.9658418 -1.6289995 2
-0.85464263 -7.0110855 -1.7642733 8
-0.65723789 -5.3916698 -1.8685467 5
-0.48124579 -3.9479139 -1.8538938 9
-0.24590221 -1.9063661 0.50739002 9
-0.952097 -7.3811679 1.4381498 26
-0.75004202 -5.8147292 0.82022119 3
-0.98799771 -7.6594896 0.67050946 10
-1.4574995 -11.29932 0.58611244 21
-2.1270347 -16.489916 0.56114578 5
-3.4791985 -17.070314 0.48448992 34
-1.0071968 -18.071604 0.39683208 7
-2.3597524 -18.294069 0.29556346 16
-5.0156555 -24.608778 0.25424263 11
-1.8267735 -32.77684 0.13865511 25
-3.512445 -27.230364 -0.045523752 59
-5.5310073 -27.137295 -0.20882095 37
-1.892728 -33.960224 -0.45712847 26
-3.5082116 -27.197542 -0.53037643 74
-5.5565548 -27.262642 -0.70233446 58
-1.8873101 -33.863018 -1.0557669 30
-3.5115731 -27.223602 -1.0175482 75
-3.4813266 -17.080755 -0.74890143 1
-0.40440816 -7.256084 -0.35479674 25
-3.5107698 -27.217377 -1.5030663 61
-3.3298376 -16.337492 -1.0110248 2
-0.39999864 -7.1769657 -0.47831532 0
-0.93093687 -7.217123 -0.52736086 22
-3.2843482 -16.114304 -1.2885208 7
-0.39636323 -7.1117377 -0.59999394 0
-0.9224723 -7.1515012 -0.65013921 0
-1.4734694 -7.2294197 -0.708606 18
-0.39460871 -7.0802574 -0.72292846 0
-0.90968031 -7.052331 -0.76695096 33
-0.90427136 -7.0103979 -0.88769269 32
-0.89962792 -6.9743991 -1.0075904 30
-0.94270694 -7.3083715 -1.1875659 10
-0.89562786 -6.9433889 -1.2520961 3
-0.90177363 -6.991034 -1.3863996 2
-0.90062982 -6.9821663 -1.5093765 6
-0.89973146 -6.9752021 -1.6326175 4
-0.8986038 -6.9664598 -1.7545794 12
-0.69679844 -5.4019561 -1.8737515 5
-0.50833189 -3.9408624 -1.8522037 9
-0.25868359 -1.9007707 0.50636911 8
-0.72185344 -5.3040771 1.0344054 3
-0.72704822 -5.342248 0.75427097 3
-1.0430591 -7.6642513 0.67154741 11
-1.5374255 -11.296786 0.58652341 22
-2.1450667 -15.761647 0.53685963 5
-3.6040678 -17.072994 0.48526829 37
-1.1345836 -18.084089 0.39727047 7
-2.4825573 -18.241482 0.2949867 7
-5.1964231 -24.616211 0.25468802 10
-2.0537934 -32.735344 0.13853684 33
-3.7083964 -27.248774 -0.045596704 54
-5.7525468 -27.25065 -0.20999716 68
-2.1154857 -33.718655 -0.45406446 30
-3.7023151 -27.20409 -0.53099519 74
-5.7566595 -27.270134 -0.70354575 59
-2.1003826 -33.477928 -1.0441926 27
-3.7042389 -27.218225 -1.0182891 81
-3.5996625 -17.052126 -0.74872977 1
-0.45530379 -7.2570715 -0.35499179 18
-3.7050061 -27.223864 -1.5048163 69
-3.4355667 -16.27478 -1.0086038 1
-0.53181314 -8.4765511 -0.56516105 0
-0.98398906 -7.2302132 -0.52880645 22
-3.3745286 -15.985633 -1.2800847 27
-0.44550198 -7.100841 -0.59932244 0
-0.97398835 -7.1567292 -0.6512168 0
-1.5296611 -7.2462273 -0.71128285 14
-0.44427609 -7.0813012 -0.72333413 1
-0.96050155 -7.0576301 -0.76823777 34
-0.95372629 -7.0078464 -0.8881911 30
-0.94936436 -6.9757953 -1.0087252 26
-0.99157584 -7.2859592 -1.1850203 3
-0.94567299 -6.9486718 -1.2542087 3
-0.97807997 -7.1867938 -1.4265404 15
-0.95831865 -7.0415907 -1.5236318 3
-0.95733792 -7.0343843 -1.6479939 3
-0.9477402 -6.9638615 -1.7555488 2
-0.73347402 -5.3894639 -1.8711492 5
-0.53680968 -3.944402 -1.8555837 9
-0.27688169 -1.9333745 0.51555729 6
-1.0572891 -7.3827052 1.4411855 15
-0.7278229 -5.08215 0.71824777 3
-1.0931506 -7.6331139 0.6694715 9
-1.6179534 -11.297641 0.58713996 20
-2.2051783 -15.398041 0.52498639 7
-3.728291 -17.070854 0.48593548 36
-1.2591372 -18.051792 0.3967444 9
-3.0260155 -21.129681 0.34202561 14
-5.3715634 -24.594965 0.25485 13
-2.0473714 -29.352421 0.12427769 2
-3.9042089 -27.261818 -0.045663025 66
-5.9571609 -27.276258 -0.21050987 65
-2.3416507 -33.571396 -0.45229056 43
-3.8961139 -27.205292 -0.53153664 74
-5.9537263 -27.260534 -0.70435327 54
-2.3340516 -33.462448 -1.0441926 30
-3.8975677 -27.215445 -1.0191782 79
-3.7262955 -17.061718 -0.75027496 1
-0.50623459 -7.2577009 -0.35518685 15
-3.8978052 -27.217102 -1.50591 64
-3.5405834 -16.211391 -1.0061828 2
-0.50266421 -7.2065144 -0.48070556 0
-1.0389661 -7.2547612 -0.53111947 17
-3.4851961 -15.957788 -1.2797723 51
-0.49728313 -7.1293674 -0.60200846 0
-1.0250574 -7.1576419 -0.65193516 1
-1.5870087 -7.2664919 -0.71434212 14
-0.49370208 -7.0780272 -0.72333413 4
-1.011441 -7.0625625 -0.76952463 22
-1.0037522 -7.0088744 -0.88918799 29
-0.99916404 -6.9768367 -1.0098598 27
-1.0362591 -7.2358584 -1.1780196 7
-0.99750996 -6.9652867 -1.2584341 3
-1.047147 -7.3118863 -1.4527862 9
-1.0019102 -6.9960122 -1.5152464 1
-0.99592876 -6.9542456 -1.6308085 47
-0.99853462 -6.9724417 -1.7594264 14
-0.77269036 -5.3954444 -1.8750528 6
-0.56433374 -3.9405582 -1.8555837 9
-0.29141882 -1.9429699 0.51862001 4
-1.1009856 -7.3405762 1.4343553 36
-0.76444989 -5.0967994 0.72101879 1
-1.1467052 -7.645401 0.67120141 10
-1.1246127 -7.4981041 0.39005658 0
-3.849339 -17.080858 0.48693627 34
-1.3806623 -18.066969 0.39727047 11
-3.1726077 -21.152655 0.34273055 11
-5.5486355 -24.621229 0.25549784 13
-2.2450478 -29.37808 0.12444664 5
-4.0861115 -27.243237 -0.045676291 52
-6.1432095 -27.25956 -0.21069081 61
-2.4389975 -31.916052 -0.43019745 15
-4.0800142 -27.202583 -0.53200072 74
-6.141428 -27.251654 -0.7051608 54
-2.3856387 -31.217812 -0.97462112 12
-4.0815334 -27.212715 -1.0200673 77
-3.8455215 -17.063917 -0.75147676 1
-0.55648959 -7.2820697 -0.35655218 10
-4.0811868 -27.210402 -1.5070039 54
-3.6620684 -16.249872 -1.0100564 1
-0.54862416 -7.1791449 -0.47911206 0
-1.0894243 -7.2634931 -0.53227592 4
-3.5900795 -15.930433 -1.27946 29
-0.54546732 -7.1378355 -0.60301572 0
-1.0730957 -7.1546264 -0.6522944 22
-1.6482974 -7.3140697 -0.72007829 11
-0.54063469 -7.0745969 -0.72333413 14
-1.0600277 -7.0674982 -0.77081144 22
-1.0513908 -7.0099134 -0.89018482 29
-1.0489366 -6.9935513 -1.0132638 24
-1.0473225 -6.982789 -1.1379249 3
-1.0448502 -6.9663057 -1.2598424 4
-1.0467157 -6.9787436 -1.3879435 5
-1.0453855 -6.9698744 -1.5110537 1
-1.0454954 -6.9706073 -1.6362355 14
-1.0436029 -6.9579902 -1.7574877 27
-0.8095783 -5.3976827 -1.8776553 4
-0.59099305 -3.9403143 -1.8572737 8
-0.31278074 -1.9905567 0.53189176 1
-1.1491574 -7.3133121 1.4305606 36
-0.81354189 -5.177433 0.73321122 1
-1.198815 -7.6293359 0.67050946 9
-1.1713511 -7.4545536 0.38820699 1
-2.2569668 -14.363482 0.49071586 23
-3.9766448 -17.088621 0.48793706 37
-1.5064273 -18.052904 0.39718279 9
-3.3214452 -21.137892 0.34285873 13
-5.7312617 -24.628643 0.25598374 15
-2.3286839 -27.906761 0.11828005 0
-4.2830353 -27.257513 -0.045749247 54
-6.3469601 -27.27445 -0.2111432 72
-2.4818206 -29.741938 -0.40111625 25
-4.2741699 -27.201094 -0.53254217 72
-6.3478379 -27.278223 -0.70697767 56
-2.429976 -29.120638 -0.90965468 25
-4.2782397 -27.226995 -1.0216973 79
-3.9708929 -17.063904 -0.75267857 1
-0.60964 -7.3058767 -0.35791755 3
-4.2791114 -27.23254 -1.5098476 21
-3.1826832 -13.676773 -0.85147852 4
-0.6000582 -7.1910491 -0.48017439 0
-1.17169 -7.4567108 -0.54702121 1
-3.1109996 -13.368731 -1.0754337 13
-0.59462261 -7.1259093 -0.60234421 1
-1.1292022 -7.186316 -0.65588629 25
-3.083679 -13.251328 -1.3066955 8
-0.59100425 -7.0825472 -0.7245512 26
-1.1124289 -7.0795693 -0.77295613 19
-1.1003035 -7.0024028 -0.89018482 27
-1.0989646 -6.9938812 -1.0143985 23
-1.092368 -6.9519 -1.1341064 3
-1.0977372 -6.9860702 -1.2647719 2
-1.0966295 -6.9790211 -1.3894874 3
-1.0988758 -6.9933162 -1.5177619 1
-1.0947387 -6.9669876 -1.6371399 13
-1.0885391 -6.9275331 -1.7516713 4
-0.85076433 -5.414319 -1.8854625 4
-0.61904997 -3.9396739 -1.8589636 9
-0.63076735 -3.8392599 1.0270309 12
-1.2008227 -7.3089867 1.4313196 35
-0.84131837 -5.12081 0.72600663 1
-1.2546327 -7.6365099 0.67189336 6
-1.2233651 -7.4461946 0.38820699 2
-2.3597801 -14.363155 0.49125555 18
-4.0995822 -17.075993 0.48838186 35
-1.9106152 -21.116646 0.46487045 16
-3.4760668 -21.157602 0.34356368 12
-5.9105325 -24.619144 0.25630766 17
-2.5789542 -28.503311 0.12088185 24
-4.4810057 -27.274311 -0.045828834 57
-6.542819 -27.252808 -0.21132416 65
-2.5293682 -27.955273 -0.37724924 15
-4.4678555 -27.194269 -0.53300625 79
-6.5483894 -27.276011 -0.70808804 53
-2.4768531 -27.374863 -0.85564047 17
-4.4753442 -27.239853 -1.0233272 75
-4.1132474 -17.132912 -0.75697076 0
-0.67754877 -7.4884553 -0.36708492 1
-3.2109787 -13.374691 -0.83404708 2
-0.65096414 -7.1946344 -0.48070556 0
-1.2534713 -7.6294403 -0.56032091 1
-3.1418827 -13.086886 -1.0544999 25
-0.64471382 -7.1255541 -0.60267997 1
-1.1793447 -7.1782575 -0.65588629 24
-3.1212749 -13.001048 -1.2841332 21
-0.64294374 -7.1059914 -0.72739094 22
-1.1637608 -7.0834041 -0.774243 19
-1.1523799 -7.014132 -0.89267695 26
-1.1509739 -7.0055747 -1.0172352 22
-1.141515 -6.9480019 -1.1347429 3
-1.1860603 -7.2191334 -1.3084333 3
-1.1478707 -6.9866862 -1.3925751 2
-1.1451352 -6.9700365 -1.5144078 3
-1.1439825 -6.9630203 -1.6380445 12
-1.1400216 -6.9389119 -1.7565182 3
-0.88670295 -5.3970504 -1.8815589 4
-0.64889008 -3.9495664 -1.8657235 8
-0.65820879 -3.8385744 1.0280519 19
-1.2531474 -7.3081665 1.4328374 28
-0.86834443 -5.064054 0.71880198 1
-1.3072417 -7.6236367 0.67154741 5
-1.2793703 -7.4610953 0.38944006 4
-2.4674284 -14.389672 0.49273971 23
-4.2283006 -17.08577 0.48949382 34
-2.0579906 -21.102791 0.46487045 47
-3.6270702 -21.152529 0.34388411 12
-6.0966749 -24.635521 0.25691503 13
-2.6536441 -27.210667 0.11547553 62
-4.6706314 -27.23842 -0.045822199 50
-6.7454114 -27.256943 -0.21171622 60
-2.6534281 -27.208454 -0.36741218 55
-4.667737 -27.22154 -0.53416646 96
-6.7482581 -27.268446 -0.70909739 52
-2.6516068 -27.189777 -0.85041326 60
-4.6667566 -27.215822 -1.0236236 80
-4.2673182 -17.243433 -0.76315153 0
-0.74958855 -7.6863379 -0.37703249 4
-3.0530729 -17.805061 -0.9894293 0
-3.2524793 -13.142658 -0.82097346 1
-0.70195109 -7.1978598 -0.48123673 1
-2.966718 -17.301453 -1.2721424 1
-3.2015567 -12.93689 -1.0441892 4
-0.6994732 -7.172451 -0.60704482 0
-1.2327962 -7.1894817 -0.65768224 25
-3.1746593 -12.828202 -1.2692193 30
-0.69330972 -7.1092505 -0.72820234 21
-1.2152004 -7.0868659 -0.7755298 20
-1.2033319 -7.0176511 -0.89417219 27
-1.2005233 -7.0012708 -1.0178025 23
-1.1960002 -6.9748931 -1.1404706 19
-1.2404233 -7.2339621 -1.3126587 5
-1.2059054 -7.0326591 -1.4033823 2
-1.1937674 -6.9618716 -1.5144078 3
-1.1879561 -6.9279814 -1.6317129 3
-1.2081127 -7.0455317 -1.7855996 7
-0.9230814 -5.3832722 -1.8789564 4
-0.67399657 -3.9306464 -1.8589636 9
-0.59247905 -3.316102 0.88920867 11
-0.73910224 -4.1367517 0.81204236 8
-0.89461815 -5.0071731 0.71159732 1
-1.3506185 -7.5594049 0.66670364 4
-1.3321283 -7.455915 0.38964555 5
-2.5678236 -14.372097 0.49273971 21
-4.3543921 -17.082956 0.49027222 35
-2.2073455 -21.107798 0.46530885 6
-3.7781663 -21.146378 0.34420455 12
-6.2754307 -24.61949 0.25719848 9
-2.8443778 -27.199436 0.11550932 59
-4.8733344 -27.27603 -0.04594158 52
-6.945416 -27.247946 -0.2120178 65
-2.8462262 -27.217112 -0.36778846 58
-4.8604722 -27.204041 -0.53447586 80
-5.1023631 -20.017365 -0.52145153 3
-2.8451052 -27.206392 -0.85153335 60
-4.8664808 -27.237669 -1.0256981 76
-3.5278447 -13.840282 -0.61361158 0
-0.80821747 -7.7286005 -0.3793731 0
-3.1576276 -17.673225 -0.98330414 0
-3.2948437 -12.926184 -0.80886829 0
-0.75384498 -7.2086616 -0.48229906 4
-3.0235744 -16.922932 -1.2458322 1
-3.2592909 -12.786705 -1.0338786 6
-0.74828565 -7.1555004 -0.60603756 0
-1.2864598 -7.2003088 -0.65947825 22
-3.2405365 -12.713127 -1.2600414 33
-0.74002755 -7.0765324 -0.72536254 43
-1.2674426 -7.0938697 -0.77724558 21
-1.2550856 -7.0247078 -0.89616591 26
-1.252156 -7.0083108 -1.0200719 24
-1.2467469 -6.9780364 -1.1423799 22
-1.2382609 -6.9305401 -1.2591382 2
-1.2915576 -7.2288413 -1.4442949 2
-1.2877407 -7.2074785 -1.5697516 3
-1.4549046 -8.1430931 -1.9202476 1
-1.2736499 -7.1286125 -1.8088648 2
-0.95997471 -5.3729734 -1.8776553 4
-0.7020579 -3.9294145 -1.8606535 9
-0.71661603 -3.8477726 1.0331564 18
-0.70972335 -3.8107634 0.74905217 4
-0.92114407 -4.9459586 0.70383847 2
-1.392862 -7.4787841 0.66047603 4
-1.386747 -7.44595 0.38964555 6
-2.6753032 -14.364678 0.49314448 20
-4.4927068 -17.100853 0.49171779 38
-2.8627234 -25.562017 0.56394696 4
-3.9389334 -21.149569 0.3447172 14
-5.2188573 -19.864841 0.207921 18
-3.0445731 -27.185802 0.1155431 100
-5.0753436 -27.251369 -0.045961477 67
-5.1742563 -19.695076 -0.15353949 16
-3.0469961 -27.207439 -0.36794972 61
-5.0685439 -27.214859 -0.53540403 105
-5.1229692 -19.499857 -0.50893509 21
-3.0471311 -27.208643 -0.85228014 61
-5.071867 -27.232702 -1.0268835 70
-3.5835085 -13.640119 -0.60588568 2
-3.0445356 -27.185469 -1.3355104 52
-3.1781335 -17.064556 -0.95070964 0
-3.3661745 -12.812867 -0.8032999 0
-0.80577832 -7.1950092 -0.48176789 28
-3.0869164 -16.57478 -1.2218349 3
-3.330642 -12.677618 -1.0270048 3
-0.80870283 -7.2211232 -0.61208111 0
-1.3421236 -7.2063513 -0.66091502 19
-3.318465 -12.631268 -1.2543052 43
-0.79409558 -7.0906911 -0.72739094 42
-1.3223217 -7.1000271 -0.77896136 20
-1.3079988 -7.0231218 -0.89716274 25
-1.3042208 -7.0028367 -1.0206392 21
-1.3036492 -6.9997678 -1.1474713 22
-1.2976822 -6.9677286 -1.2675889 3
-1.3028337 -6.9953885 -1.3995225 2
-1.3097472 -7.0325103 -1.5336943 2
-1.5195509 -8.1590223 -1.926579 4
-1.4068727 -7.5540128 -1.9193742 5
-1.0007197 -5.373229 -1.8802576 4
-0.72752404 -3.9063418 -1.8522037 9
-0.74419576 -3.8464732 1.0341773 26
-0.71318394 -3.6861846 0.72552574 8
-0.95339352 -4.9277391 0.70217586 4
-1.4306575 -7.3945408 0.65390241 5
-1.4402133 -7.4439311 0.39005658 9
-2.7785597 -14.36135 0.49368417 8
-4.6213665 -17.103811 0.49271858 34
-2.1484458 -18.04418 0.39841029 7
-4.0948462 -21.164749 0.34542215 12
-5.256207 -19.453375 0.20399338 50
-3.2409124 -27.219492 0.11577963 84
-5.2745881 -27.2624 -0.046041064 54
-5.2552834 -19.449957 -0.15191092 57
-3.2392302 -27.205364 -0.36821848 56
-5.2637334 -27.206297 -0.53594548 84
-5.2558455 -19.452038 -0.5086323 51
-3.2417357 -27.226408 -0.85352468 57
-5.2702155 -27.239799 -1.0285136 69
-3.5889978 -13.282985 -0.59112054 3
-3.2361412 -27.179422 -1.3362905 58
-3.2372539 -16.732172 -0.93342799 0
-3.4430432 -12.742803 -0.80039465 1
-0.8597644 -7.2209139 -0.48389256 21
-3.1495073 -16.278641 -1.2015963 0
-3.4117835 -12.62711 -1.0248177 25
-0.85438353 -7.1757221 -0.60872358 0
-1.3992115 -7.232008 -0.66414773 16
-3.4044869 -12.600104 -1.2535404 62
-0.84499002 -7.0968289 -0.72860801 35
-1.3748788 -7.1062407 -0.78067714 19
-1.3630286 -7.044992 -0.90115017 24
-1.3575908 -7.0168858 -1.0240432 22
-1.3547355 -7.0021276 -1.1493806 20
-1.3522779 -6.9894257 -1.2732226 23
-1.3508935 -6.9822698 -1.3987507 2
-1.3625261 -7.0423946 -1.537887 2
-1.577955 -8.1558666 -1.928388 4
-1.4588383 -7.5401969 -1.9184048 5
-1.0425184 -5.3883929 -1.888065 4
-0.75959837 -3.9260838 -1.8640335 8
-0.74431133 -3.7080696 0.73083812 23
-0.99245012 -4.9442668 0.70550108 8
-1.4798936 -7.3726516 0.65286446 6
-1.4952914 -7.4493613 0.39087862 10
-3.566381 -17.767281 0.61160707 6
-4.7502899 -17.105804 0.49371937 35
-2.2663531 -17.965261 0.39700744 14
-4.2472267 -21.159172 0.34580669 14
-5.4004512 -19.447037 0.2043173 53
-3.4338589 -27.220016 0.115881 79
-5.4348736 -27.075886 -0.045789041 20
-5.4005742 -19.447479 -0.15218234 55
-3.4315772 -27.201929 -0.36848727 57
-5.4598374 -27.200253 -0.53656429 88
-5.4022174 -19.453398 -0.50964171 47
-3.4342287 -27.222948 -0.85414696 61
-5.4665504 -27.233696 -1.029699 66
-3.630316 -13.072776 -0.58287948 1
-3.4298046 -27.18788 -1.3378509 62
-3.3225465 -16.552526 -0.92467779 2
-3.5415356 -12.753078 -0.80257362 36
-0.91364998 -7.2424545 -0.48575166 19
-3.2481589 -16.181936 -1.196103 12
-3.500921 -12.606824 -1.0251302 57
-0.91044354 -7.2170372 -0.61275262 0
-1.4606427 -7.2767463 -0.66917646 4
-3.4945002 -12.583703 -1.2543052 41
-0.89451301 -7.0907569 -0.72860801 45
-1.4260215 -7.1042671 -0.78153503 19
-1.4160841 -7.0547605 -0.9036423 22
-1.4119995 -7.0344114 -1.0280147 23
-1.4082496 -7.0157304 -1.1531991 23
-1.4064648 -7.0068383 -1.278152 21
-1.4065577 -7.0073009 -1.4056981 2
-1.4155067 -7.0518837 -1.5420797 1
-1.6363888 -8.1522923 -1.930197 4
-1.5137345 -7.5412431 -1.9213129 6
-1.0801111 -5.3809838 -1.888065 4
-0.7855621 -3.9135759 -1.8606535 8
-0.80097908 -3.8508534 1.0382609 19
-0.76618153 -3.6835577 0.72704357 14
-1.02775 -4.9410963 0.70605528 9
-1.5313282 -7.3621402 0.65286446 7
-1.5448208 -7.4270082 0.3902621 11
-3.3972554 -16.332926 0.56303471 0
-4.8794661 -17.106831 0.49472013 32
-2.3948884 -17.972784 0.39753351 15
-4.3989139 -21.148582 0.34612709 14
-5.5492506 -19.455017 0.2048032 61
-3.6280332 -27.227098 0.11601616 75
-5.6693816 -27.256588 -0.046160445 55
-5.5482802 -19.451614 -0.1525141 53
-3.6245685 -27.201096 -0.36880979 56
-5.6601853 -27.212374 -0.53756982 128
-5.5554457 -19.476734 -0.51125669 30
-3.6289494 -27.233974 -0.85526711 59
-5.6622419 -27.222261 -1.0307362 72
-3.6688764 -12.862646 -0.57463849 16
-3.6221666 -27.183071 -1.3388262 70
-3.4648645 -16.657969 -0.93189669 0
-3.631578 -12.731882 -0.80281574 51
-0.96682537 -7.2556806 -0.48707956 15
-3.3358655 -16.037783 -1.1871401 11
-3.5943172 -12.601251 -1.0266924 46
-0.95869982 -7.1947012 -0.6114096 0
-1.5527834 -7.4652896 -0.68749529 1
-3.5877266 -12.578145 -1.2562174 42
-0.94714767 -7.108006 -0.73104215 32
-1.4804429 -7.1174998 -0.7841087 17
-1.4659125 -7.0476422 -1.0314187 20
-1.4612153 -7.0250592 -1.1563812 21
-1.4553474 -6.9968481 -1.278152 19
-1.4626368 -7.0318933 -1.4126455 2
-1.4766505 -7.099267 -1.5546578 0
-1.6972299 -8.1597424 -1.9347196 4
-1.5687162 -7.5418897 -1.9242212 5
-1.1191916 -5.3807182 -1.8906673 4
-0.81212652 -3.9044466 -1.8589636 9
-0.83056396 -3.8643625 1.0433654 25
-0.80132252 -3.7283108 0.73690951 14
-1.0629942 -4.9457903 0.7077179 13
-1.5776085 -7.3401341 0.6518265 8
-1.5990795 -7.4400325 0.39149514 17
-3.5189424 -16.372574 0.56519347 1
-5.0062823 -17.120146 0.4960545 29
-2.5151451 -17.964426 0.39770886 13
-4.5466394 -21.154135 0.34670389 16
-5.6905084 -19.460014 0.20524859 57
-3.8135226 -27.238089 0.11616822 72
-5.863472 -27.28096 -0.046266563 55
-5.6906381 -19.460457 -0.152876 56
-3.8132124 -27.235872 -0.36961609 57
-5.8480978 -27.209427 -0.53826594 75
-5.6889877 -19.454813 -0.51166046 50
-3.8122647 -27.229105 -0.85588938 57
-5.8569355 -27.250547 -1.0332552 74
-3.7574692 -12.849538 -0.57515359 26
-3.8056962 -27.18219 -1.3399965 67
-3.5609968 -16.568239 -0.92817789 0
-3.7215421 -12.726677 -0.80402625 46
-1.0204598 -7.2886348 -0.48973539 3
-3.4346106 -15.980203 -1.184538 76
-3.6834092 -12.596272 -1.0282546 45
-1.0063961 -7.1881847 -0.6114096 1
-1.6231875 -7.5521998 -0.69647509 1
-3.6733043 -12.561716 -1.2569821 12
-0.99647611 -7.117332 -0.73266488 30
-1.5309566 -7.1230774 -0.78582448 21
-1.5303369 -7.120194 -0.91460758 3
-1.5142846 -7.0455074 -1.0325533 34
-1.5119226 -7.0345178 -1.1595633 24
-1.5124749 -7.0370874 -1.2873069 19
-1.5092404 -7.0220385 -1.4126455 1
-1.9198301 -8.9323883 -1.9588354 4
-1.7537645 -8.1597347 -1.937433 4
-1.6203307 -7.538908 -1.9261599 5
-1.1548522 -5.3731775 -1.8906673 3
-0.84028858 -3.9096084 -1.8640335 9
-0.85836112 -3.8622451 1.0443863 32
-0.82988763 -3.734127 0.73918623 24
-1.098356 -4.9421158 0.7082721 14
-2.1406279 -9.6318779 0.85664678 2
-1.6509818 -7.4286871 0.39149514 15
-3.6383624 -16.371021 0.56600302 2
-5.1302738 -17.1001 0.4964993 27
-3.7616632 -25.56654 0.56657732 1
-4.7020216 -21.157017 0.34728065 11
-5.8388648 -19.461956 0.20569399 56
-4.0064988 -27.230589 0.11625269 86
-6.0650678 -27.290121 -0.046352781 56
-5.8389978 -19.462399 -0.15320775 40
-4.0067549 -27.23233 -0.36993864 52
-6.0474567 -27.210878 -0.53911674 76
-8.1825676 -27.273926 -0.71878755 52
-4.0069227 -27.233471 -0.85688502 59
-6.0522413 -27.232407 -1.0341443 70
-3.852823 -12.842133 -0.57601202 21
-4.0000238 -27.186581 -1.3415569 70
-3.6982412 -16.640448 -0.93364674 0
-3.8183286 -12.727157 -0.80572093 44
-1.1044347 -7.5064063 -0.50487363 1
-3.5478208 -15.963623 -1.1851163 46
-3.7792766 -12.596989 -1.0304416 49
-1.0600357 -7.2046442 -0.61342412 21
-1.6931583 -7.618463 -0.70365894 1
-3.7803602 -12.6006 -1.263483 1
-1.0467194 -7.1141386 -0.73307055 18
-1.5935899 -7.1704493 -0.79225862 21
-1.5998119 -7.1984453 -0.92607135 0
-1.5763202 -7.0927429 -1.0410633 16
-1.5652798 -7.0430665 -1.1627455 18
-1.567546 -7.0532632 -1.2922363 19
-1.5667417 -7.049644 -1.4203649 2
-1.9838402 -8.926403 -1.9605124 4
-1.811533 -8.1510963 -1.9383376 3
-1.6737647 -7.5312004 -1.9271293 5
-1.1586913 -5.2135978 -1.8373175 5
-0.86677587 -3.9001076 -1.8623435 8
-0.88876534 -3.8712363 1.0484699 25
-0.85505772 -3.7244146 0.73842734 33
-1.1328317 -4.9343271 0.7082721 12
-1.5640203 -6.8124762 0.60684913 0
-1.7063789 -7.4325538 0.39231718 14
-3.7552485 -16.356911 0.5664078 4
-5.2624631 -17.105906 0.49772248 24
-4.2010169 -27.231236 0.60410362 60
-4.8630347 -21.182146 0.34824193 9
-6.5155993 -21.179289 0.22431983 10
-4.2025986 -27.241488 0.11642163 79
-6.2599158 -27.266607 -0.046385944 63
-8.3940239 -27.285202 -0.21524483 61
-4.2028661 -27.243223 -0.37047619 58
-6.2489104 -27.21867 -0.54012227 74
-8.383359 -27.250536 -0.71969599 55
-4.2018204 -27.236444 -0.85788065 49
-6.2529445 -27.23624 -1.0359225 76
-3.9459095 -12.826381 -0.57652706 18
-4.1958094 -27.197479 -1.3435074 66
-3.8152168 -16.618116 -0.93386549 0
-3.9141321 -12.723086 -0.80717355 41
-1.1805432 -7.6523495 -0.51523137 0
-3.1065993 -13.531559 -1.0061489 10
-3.8765087 -12.60079 -1.0329412 43
-1.1090906 -7.1891899 -0.61275262 23
-1.7578924 -7.6569333 -0.70832849 1
-3.8658953 -12.566291 -1.2627183 2
-1.0993919 -7.1263227 -0.73509896 16
-1.6711965 -7.2793078 -0.80555588 3
-1.6606842 -7.2335196 -0.93205243 0
-1.6346582 -7.1201568 -1.0467367 15
-1.6258988 -7.0820031 -1.171019 18
-1.6229162 -7.0690112 -1.2971659 18
-1.6282142 -7.0920882 -1.431172 1
-2.0469849 -8.9161472 -1.9613509 6
-1.8727534 -8.157239 -1.94286 3
-1.7236965 -7.5079851 -1.9242212 5
-1.1730554 -5.1095319 -1.8034859 8
-0.89398259 -3.8939614 -1.8623435 8
-0.91755247 -3.8724642 1.0505117 24
-0.88465929 -3.7336407 0.74146301 30
-1.1681643 -4.9301529 0.7088263 9
-1.6133784 -6.8091469 0.60754108 20
-1.7582246 -7.4204602 0.39231718 13
-3.8748765 -16.353636 0.56721735 5
-5.3889709 -17.091629 0.49838966 17
-4.3948479 -27.22493 0.6046297 62
-5.0172458 -21.174923 0.34869054 8
-6.6873546 -21.209576 0.22512965 10
-4.3952279 -27.227282 0.11648922 73
-6.4648695 -27.284515 -0.046492059 46
-8.6023474 -27.283159 -0.21569721 73
-4.3974195 -27.24086 -0.37085247 63
-6.4452291 -27.201624 -0.54066372 75
-8.5974474 -27.267616 -0.72171479 55
-4.394413 -27.222235 -0.85837853 56
-6.4475389 -27.211372 -1.0366634 72
-4.0401654 -12.813766 -0.57721382 19
-4.3887649 -27.187244 -1.3444827 64
-3.2856157 -13.866704 -0.78051817 0
-4.0100646 -12.718298 -0.80862617 38
-2.9315569 -18.160225 -1.2240729 1
-3.1228037 -13.179568 -0.98157346 20
-3.9691808 -12.588633 -1.034191 47
-1.1624297 -7.2009468 -0.61443144 30
-3.1605954 -13.339066 -1.2359829 11
-3.9643059 -12.573171 -1.26616 1
-1.1535555 -7.1459732 -0.73793876 15
-3.1266925 -13.19598 -1.4626973 0
-3.0837152 -13.014598 -1.6796881 2
-1.7381867 -7.3358917 -1.0802096 2
-1.6853147 -7.1127486 -1.1780196 18
-1.6840279 -7.1073184 -1.3063207 15
-1.7066418 -7.2027588 -1.455874 2
-2.1100812 -8.9054461 -1.9621896 6
-1.9305525 -8.1477575 -1.9437644 4
-1.7850158 -7.5335307 -1.9339149 5
-1.1851509 -5.0018439 -1.768353 2
-0.91863722 -3.8770421 -1.8572737 9
-0.94364703 -3.8622072 1.0494908 28
-0.90883917 -3.7197435 0.73994517 10
-1.2025547 -4.9218779 0.7088263 6
-2.4468596 -10.014632 0.89505053 2
-1.8118825 -7.4157662 0.39272821 12
-3.9993894 -16.368906 0.56870151 9
-5.5204506 -17.091639 0.49950165 13
-3.9857767 -23.640594 0.52563155 2
-5.1734953 -21.174349 0.3492673 5
-6.8045282 -21.067219 0.22411737 1
-4.5938473 -27.247208 0.11670884 76
-6.658042 -27.250378 -0.046511956 50
-8.8085918 -27.271919 -0.21608928 62
-4.5908141 -27.229216 -0.37112123 57
-6.6492124 -27.214239 -0.54182392 83
-8.8060369 -27.264009 -0.72322887 53
-4.5929937 -27.242144 -0.85999644 54
-6.6506348 -27.22006 -1.0387379 54
-4.1442633 -12.830882 -0.57927406 9
-3.2951305 -13.48648 -0.76039273 0
-2.9885955 -17.726074 -1.1961867 2
-3.1702337 -12.975295 -0.96798468 8
-4.0594206 -12.568205 -1.0348159 42
-1.213336 -7.1965861 -0.61476719 43
-3.1950185 -13.076735 -1.2137129 19
-4.0581055 -12.564134 -1.268072 1
-1.206062 -7.1534419 -0.7395615 16
-3.1554992 -12.914989 -1.4339581 26
-3.1500072 -12.892512 -1.6667291 1
-3.3813612 -13.839409 -2.0412784 3
-3.0218334 -12.367916 -2.0518289 3
-1.7756603 -7.2675138 -1.3380104 1
-1.8025304 -7.3774891 -1.493699 0
-2.1814842 -8.9284916 -1.970575 4
-1.9901619 -8.1454372 -1.946478 3
-1.8338819 -7.505806 -1.9300374 4
-1.2155526 -4.9750762 -1.7618469 6
-0.95084459 -3.8916657 -1.8674134 9
-0.94376242 -3.7434468 0.7460165 6
-1.2434436 -4.9321365 0.71159732 4
-2.1198165 -8.4082823 0.75285274 0
-1.8730299 -7.4293995 0.39416677 16
-4.128067 -16.374035 0.56991583 11
-5.6581578 -17.088671 0.50061363 8
-3.3916886 -19.254866 0.42865932 6
-5.3393264 -21.178513 0.34997225 4
-9.0218925 -27.247763 0.29056302 57
-4.7962313 -27.228558 0.11677642 104
-6.8742414 -27.266773 -0.046624701 56
-9.0283842 -27.26737 -0.21657182 61
-4.796535 -27.230282 -0.37160501 54
-6.8602557 -27.2113 -0.54275215 72
-9.0207386 -27.24428 -0.72444016 49
-4.8001943 -27.251057 -0.86136544 50
-6.8597608 -27.209337 -1.0402197 34
-4.2469997 -12.826715 -0.58047587 8
-3.3275087 -13.19861 -0.74551737 0
-4.2142591 -12.727832 -0.81298405 0
-3.0436771 -17.279179 -1.1675037 1
-3.2321024 -12.820179 -0.9581545 13
-4.1577082 -12.557038 -1.0363781 63
-1.2750459 -7.2385292 -0.61913198 19
-3.2450166 -12.871404 -1.1968309 40
-4.1576052 -12.556727 -1.2703664 37
-1.2598474 -7.1522465 -0.74037284 14
-3.2189755 -12.768111 -1.4202319 29
-3.2017395 -12.699744 -1.6447984 0
-3.4827182 -13.81425 -2.0412784 3
-3.1153097 -12.35692 -2.0537381 3
-2.7760565 -11.011267 -2.0309589 3
-2.4869289 -9.864439 -2.0008619 3
-2.2430503 -8.8970909 -1.9672208 3
-2.0498173 -8.1306295 -1.946478 3
-1.8907502 -7.4996872 -1.9319762 4
-1.254763 -4.977035 -1.7657506 5
-0.9802326 -3.8881063 -1.8691034 9
-0.75786233 -2.9199214 0.79630631 1
-0.97184694 -3.74437 0.74753433 4
-1.2788415 -4.9271703 0.71215153 3
-3.0234222 -11.64876 1.0448599 28
-1.9268585 -7.4238758 0.39457777 15
-4.251318 -16.379644 0.5711301 11
-5.8016996 -17.120707 0.50272638 4
-4.3186479 -23.553596 0.5250178 5
-5.1765766 -19.944517 0.33016977 7
-9.2324305 -27.244728 0.29121086 76
-4.9955835 -27.245558 0.11699606 76
-5.1521115 -19.850256 -0.034003533 14
-9.2390594 -27.264292 -0.21705437 61
-4.9966197 -27.251209 -0.37235758 48
-7.064126 -27.21694 -0.54383498 65
-9.2350969 -27.252596 -0.726358 49
-4.9939303 -27.236542 -0.86198777 51
-3.4725566 -13.379201 -0.5124045 5
-4.3454185 -12.823248 -0.58167768 5
-3.2323074 -17.628775 -0.87499624 0
-3.3683984 -12.977897 -0.73436087 0
-4.3171053 -12.739697 -0.81564718 0
-3.0994525 -16.904194 -1.1436012 2
-3.2964685 -12.700762 -0.95092642 9
-4.2580671 -12.565475 -1.0395026 65
-1.3327377 -7.2686567 -0.62248951 4
-3.3047719 -12.732754 -1.1860551 36
-4.2566643 -12.561337 -1.2738081 41
-1.3133372 -7.1628475 -0.7424013 14
-3.296046 -12.699135 -1.4150846 24
-3.2833428 -12.650191 -1.6413094 2
-3.6686018 -14.134531 -2.0923388 6
-3.2084463 -12.361627 -2.0581932 3
-2.8548405 -10.999241 -2.0323675 3
-2.5567214 -9.8506365 -2.0016336 3
-2.3139524 -8.9152861 -1.9747677 3
-2.1045723 -8.1085787 -1.944669 6
-1.9479367 -7.5050864 -1.936823 5
-1.3854532 -5.3379283 -1.8971734 5
-1.0091745 -3.8881867 -1.8724834 9
-0.75328553 -2.8211441 0.77078366 2
-0.99796391 -3.7374938 0.74753433 2
-1.3142303 -4.9219489 0.71270573 2
-3.1139247 -11.662019 1.0479738 26
-1.9786401 -7.4102426 0.39457777 17
-4.3717542 -16.37274 0.57193965 11
-5.9669228 -17.212011 0.50661832 3
-4.496448 -23.593586 0.52659601 8
-5.2001314 -19.475111 0.32299215 30
-9.4473028 -27.251413 0.29198021 57
-5.1931539 -27.249311 0.117165 71
-5.1966639 -19.462126 -0.033399999 44
-9.4514484 -27.263372 -0.21756707 61
-5.18749 -27.219593 -0.37241134 58
-5.2431579 -19.636251 -0.39308342 18
-9.4552565 -27.274357 -0.7286796 53
-5.1906857 -27.236361 -0.86310786 61
-3.5019422 -13.115191 -0.5032174 8
-4.4400721 -12.807702 -0.58236444 3
-3.3126638 -17.382078 -0.86387837 0
-3.4372814 -12.873029 -0.72976702 0
-4.4255576 -12.765835 -0.81927878 0
-3.1576116 -16.568495 -1.1223545 1
-3.378881 -12.654312 -0.94919169 5
-4.3587489 -12.57312 -1.042627 69
-1.4207582 -7.4549465 -0.63927728 1
-3.3709729 -12.624695 -1.1781528 62
-4.3559933 -12.565172 -1.2772498 42
-1.3662895 -7.1691403 -0.74402398 14
-3.3671813 -12.610496 -1.4077926 54
-3.3695302 -12.619292 -1.6403126 2
-3.765147 -14.100924 -2.0912042 2
-3.2967062 -12.346558 -2.0594659 4
-2.9356234 -10.994259 -2.0351841 3
-2.634542 -9.8666744 -2.0085812 3
-2.3771453 -8.9026928 -1.9756062 3
-2.1681657 -8.120039 -1.9510005 6
-2.0002847 -7.4913044 -1.936823 5
-1.4246368 -5.3354344 -1.8997759 5
-1.0306829 -3.8600302 -1.8623435 8
-0.75658107 -2.7561436 0.75444919 2
-1.021952 -3.7228615 0.7460165 1
-1.3506562 -4.9202948 0.71381414 1
-2.1794031 -7.9393311 0.71479487 4
-2.0356104 -7.4155097 0.39560533 20
-4.4922957 -16.36495 0.5727492 14
-4.8110337 -13.570882 0.40042418 5
-4.6563959 -23.53808 0.52606994 11
-5.3391376 -19.449903 0.3231844 40
-7.1207395 -20.086061 0.21573575 8
-5.3879204 -27.235937 0.11726637 102
-5.3461685 -19.475517 -0.033486221 49
-9.658927 -27.245737 -0.21795914 50
-5.3890347 -27.241568 -0.37321764 58
-5.3303552 -19.41791 -0.38944805 62
-9.6227226 -27.143612 -0.72696364 38
-5.3915668 -27.254368 -0.86485028 54
-3.6071706 -13.140534 -0.5051437 2
-4.5480723 -12.829125 -0.58476806 2
-3.3246109 -16.805908 -0.83637625 2
-3.5090916 -12.783243 -0.72604817 0
-4.4998965 -12.693232 -0.81661564 0
-3.2251828 -16.303297 -1.1058884 1
