# .PCD v0.7 - Point Cloud Data file format
VERSION 0.7
FIELDS x y z intensity
SIZE 4 4 4 4
TYPE F F F F
COUNT 1 1 1 1
WIDTH 1386
HEIGHT 1
VIEWPOINT 0 0 0 1 0 0 0
POINTS 1386
DATA ascii
2.0216231 -3.8005197 -0.36261526 45
7.8963399 -17.861164 -1.7607638 1
6.3518243 -17.759493 -1.8114768 1
2.0257969 -3.8083665 -0.43976119 50
6.543148 -14.800305 -1.745371 3
5.6873031 -12.864422 -1.7664138 2
4.9983959 -11.306146 -1.771226 2
4.4549932 -10.076993 -1.7756212 2
4.0168986 -9.0860434 -1.776737 3
3.6563811 -8.2705688 -1.7785438 4
3.3447371 -7.5656443 -1.7735175 3
3.0942469 -6.9990468 -1.7764325 4
2.8809793 -6.516645 -1.7797834 5
2.1090493 -4.7705741 -1.7943773 4
1.5509589 -3.5081987 -1.787985 7
1.6622027 -3.8319454 1.1025779 24
2.1849089 -5.0369616 1.0609676 26
3.3483634 -7.7191219 1.1771283 20
4.3007684 -9.9147415 0.93829805 2
7.6623173 -17.664261 0.99055463 5
11.675532 -26.916094 0.99020171 37
7.619041 -21.780943 0.64172399 1
1.9905055 -3.8058686 0.094166517 42
19.63386 -45.262756 0.79056174 2
9.4916668 -27.134315 0.29100841 33
1.9872586 -3.7996602 0.018111158 44
25.256971 -58.225952 -0.10523388 19
9.4852791 -27.116056 -0.21660198 32
1.9945114 -3.8135278 -0.057839867 37
8.6354628 -19.907694 -0.41969118 3
9.4680052 -27.066673 -0.72383451 47
1.9974315 -3.8191113 -0.13416442 43
9.8448553 -22.695757 -0.91708255 40
9.4926424 -27.137104 -1.2351208 36
1.9904671 -3.8057952 -0.20967922 42
9.8209791 -22.640715 -1.3516878 33
9.4852972 -27.116106 -1.7419357 36
1.99029 -3.8054566 -0.2857675 48
9.7750444 -22.534819 -1.7801319 1
7.7567034 -22.174486 -1.84061 1
2.0005829 -3.8251367 -0.36362252 33
7.7968192 -17.974333 -1.7665108 1
6.2552934 -17.882328 -1.8195075 1
2.0028484 -3.8294685 -0.44057256 26
6.472898 -14.922243 -1.7543788 2
5.6084094 -12.929301 -1.7699027 2
4.9272208 -11.358928 -1.7740628 2
4.3955345 -10.13321 -1.7800761 3
3.9659038 -9.1427641 -1.7823707 3
3.6016765 -8.3030958 -1.7800877 3
3.3042886 -7.6175146 -1.7802258 4
3.0468595 -7.0240526 -1.777337 4
2.8415916 -6.5508404 -1.7836609 4
2.0726826 -4.7782416 -1.791775 4
1.5307574 -3.5289192 -1.7930549 6
1.635236 -3.8393271 1.101557 25
2.1837721 -5.1272206 1.0769048 29
3.2784667 -7.6974244 1.1704779 17
4.2255468 -9.9210491 0.9362222 3
7.5293407 -17.677938 0.98849952 5
11.473263 -26.937769 0.9881779 23
9.2902489 -27.13459 0.79762363 34
1.9633913 -3.8154302 0.094078839 43
18.996279 -44.600857 0.77678329 3
9.2855902 -27.120985 0.29019859 39
1.9656757 -3.8198693 0.018144948 28
24.464283 -57.439037 -0.10351612 29
9.2793245 -27.102682 -0.2159988 39
1.985647 -3.8586791 -0.058323659 19
9.2688608 -27.072121 -0.72232044 36
1.9848647 -3.8571591 -0.13503562 22
9.6690512 -22.70171 -0.91471171 51
9.2826862 -27.112503 -1.231172 49
1.9670112 -3.8224647 -0.20987427 24
9.654953 -22.668606 -1.3495002 2
9.2755079 -27.091536 -1.7363673 42
1.9814442 -3.8505123 -0.28815776 27
9.6660175 -22.694586 -1.7876492 1
7.6340132 -22.297123 -1.8465465 1
1.9952321 -3.877306 -0.36731583 23
7.702414 -18.084293 -1.7722579 1
6.153327 -17.972393 -1.8244787 1
2.0065403 -3.899281 -0.44706351 24
6.3940463 -15.012411 -1.7599552 2
5.5318666 -12.988122 -1.7728933 2
4.8579831 -11.40593 -1.776332 2
4.3328738 -10.173039 -1.7819854 3
3.9144368 -9.1906023 -1.7865961 3
3.5557566 -8.3484659 -1.7847193 3
3.2521617 -7.635664 -1.7793872 4
3.0032606 -7.0512757 -1.779146 4
2.7950408 -6.5624018 -1.7817221 4
2.0439107 -4.7988434 -1.7943773 5
1.5101603 -3.5456653 -1.7964349 6
1.6039207 -3.8399432 1.0984943 27
2.1766844 -5.2111955 1.0913242 28
3.2170148 -7.701848 1.1677068 17
4.1085691 -9.8363161 0.92549682 4
7.3888063 -17.689526 0.98623896 4
10.622373 -25.431 0.93016088 3
9.0790176 -27.134327 0.79573327 27
1.9619761 -3.8790038 0.095306337 26
18.971161 -45.418819 0.78870326 5
9.0782547 -27.132046 0.28963172 41
1.9768729 -3.9084566 0.018499738 22
24.135147 -57.781902 -0.10382784 28
9.0733852 -27.117493 -0.21560673 37
1.9875432 -3.9295526 -0.059183732 19
9.868063 -23.625109 -0.49518299 0
9.0770979 -27.128588 -0.72211856 25
1.9903696 -3.9351404 -0.13727584 21
9.4687319 -22.669071 -0.91071087 77
9.0779629 -27.131172 -1.2291118 48
1.9709322 -3.8967113 -0.21319012 21
9.4564371 -22.639637 -1.3438126 55
9.0646095 -27.091263 -1.7322516 17
1.9851379 -3.9247971 -0.29267266 25
9.4381504 -22.595856 -1.7746387 3
7.5199199 -22.474672 -1.8568572 1
2.002296 -3.9587202 -0.37369516 24
7.6005421 -18.196442 -1.778005 1
6.0630808 -18.12064 -1.8351862 1
2.0080066 -3.9700105 -0.45355445 24
6.309011 -15.104389 -1.7655314 2
5.4624729 -13.077695 -1.7798712 2
4.7873931 -11.461488 -1.779736 2
4.2693577 -10.22126 -1.7851675 2
3.853214 -9.2249718 -1.7880044 3
3.5019248 -8.3839502 -1.7870351 3
3.2032981 -7.6690092 -1.7819029 4
2.9599674 -7.0864515 -1.782764 4
2.7521501 -6.5889163 -1.7836609 8
2.0089006 -4.809505 -1.7930762 4
1.4811782 -3.5460856 -1.7913649 6
1.5770745 -3.8510466 1.0984943 25
2.1774604 -5.3171244 1.1102972 27
3.1556623 -7.7057886 1.1649358 17
4.0564127 -9.905324 0.92930257 3
7.2424254 -17.685225 0.98315632 3
10.411247 -25.423147 0.92719257 3
7.5601821 -23.130411 0.67675138 1
1.9615475 -3.9463224 0.096621506 26
14.004997 -34.1987 0.5921523 1
8.9358368 -27.339233 0.29117039 19
1.9726838 -3.9687269 0.01871937 23
23.903988 -58.370968 -0.10458392 28
9.0081158 -27.560371 -0.21862264 13
1.9885455 -4.000638 -0.060043804 18
9.9469051 -24.289274 -0.50763607 1
9.4664001 -28.962494 -0.76915622 32
1.9913214 -4.0062227 -0.13926715 22
9.2890377 -22.682833 -0.90863633 57
8.9677896 -27.436995 -1.2400998 23
1.972133 -3.9676189 -0.21631093 23
9.2966433 -22.701405 -1.3435938 3
9.0216265 -27.601707 -1.7608199 10
1.9843367 -3.9921708 -0.29665643 26
9.2650566 -22.624273 -1.7717474 2
7.3702669 -22.549366 -1.8587319 1
2.0029964 -4.0297112 -0.37906724 24
7.4929519 -18.296984 -1.7826746 1
5.9487967 -18.200371 -1.8390104 1
2.0085814 -4.040947 -0.46004537 25
6.2199898 -15.188547 -1.7702497 2
5.3710432 -13.11551 -1.7798712 2
4.7132649 -11.509287 -1.7820054 2
4.208374 -10.276398 -1.7896224 2
3.7946889 -9.266223 -1.7908213 3
3.441823 -8.404562 -1.7862632 3
3.1556108 -7.7056623 -1.785257 4
2.910424 -7.1069427 -1.782764 4
2.7134385 -6.6259255 -1.7885078 9
1.9781431 -4.8304129 -1.7956786 5
1.4605083 -3.5664046 -1.7964349 6
1.541507 -3.8404281 1.0923688 31
2.1651568 -5.3941565 1.1231987 31
3.0973623 -7.7166033 1.1632732 19
3.9767709 -9.9075146 0.92688072 3
7.108367 -17.709406 0.98171777 3
10.217126 -25.454401 0.92570841 4
7.5662842 -23.708292 0.69209671 1
1.9655383 -4.0246015 0.098199718 25
13.570739 -33.809414 0.58375704 1
8.7666512 -27.469538 0.2918992 6
1.9747698 -4.0435038 0.01900658 25
23.571892 -58.72575 -0.10492216 27
19.327448 -60.560875 -0.47931707 1
1.9939163 -4.0827079 -0.061065137 20
12.604599 -31.402424 -0.65444291 0
9.2664108 -29.035492 -0.76935804 31
1.9948853 -4.084692 -0.14150737 22
9.1155663 -22.710035 -0.90715456 73
9.343442 -29.276861 -1.3202779 6
1.9759448 -4.0459099 -0.21982184 22
9.087347 -22.63973 -1.3361561 4
9.4550905 -29.626703 -1.8857453 1
1.9879447 -4.0704808 -0.30143693 25
9.2748146 -23.106779 -1.8044183 1
7.2672276 -22.771225 -1.8727919 1
1.9993033 -4.0937386 -0.38376781 21
7.3843246 -18.396912 -1.7873441 1
5.8385415 -18.294561 -1.844364 1
2.0135014 -4.1228099 -0.46775338 26
6.1123214 -15.227911 -1.7698208 2
5.2911763 -13.182154 -1.7838587 2
4.6372252 -11.552936 -1.7837075 2
4.1409421 -10.316522 -1.7915317 2
3.7343063 -9.3034515 -1.7929339 3
3.3991463 -8.4684515 -1.7947545 4
3.1061089 -7.7383938 -1.7877727 4
2.8607373 -7.1270885 -1.782764 4
2.6685605 -6.6483088 -1.7894771 10
1.9429634 -4.8405952 -1.7943773 5
1.4301726 -3.5630558 -1.789675 7
1.5104114 -3.8402984 1.0893061 29
2.1648197 -5.5041656 1.1429306 29
2.6243834 -6.6726298 1.0031084 16
3.9147992 -9.953578 0.92861062 6
6.956778 -17.687965 0.97781307 3
10.004054 -25.435822 0.92247027 5
7.5658617 -24.29118 0.70755321 1
1.9616116 -4.0887027 0.099427216 21
13.113329 -33.341312 0.57408011 15
12.062099 -38.726933 0.41061866 3
1.9707166 -4.1076808 0.019243106 23
14.696173 -37.365772 -0.066574506 6
9.0958452 -29.203392 -0.23062591 17
1.9861269 -4.1398015 -0.061710194 18
12.389452 -31.50082 -0.65467495 0
9.0575342 -29.080389 -0.76885337 32
1.9939916 -4.1561942 -0.14349869 20
8.9728918 -22.814039 -0.90878451 5
9.0639534 -29.101 -1.3094616 26
1.970118 -4.1064334 -0.2223575 24
8.9042187 -22.639433 -1.3324373 23
9.2575254 -29.722488 -1.8876822 1
1.9905553 -4.1490316 -0.3062174 24
9.1614609 -23.293484 -1.8139594 1
7.1211219 -22.863285 -1.8762287 1
2.0068827 -4.1830635 -0.39081866 23
7.2732077 -18.492504 -1.7916543 1
5.7319927 -18.403305 -1.8512474 1
2.0139329 -4.1977592 -0.47465 24
6.0204177 -15.307221 -1.7741102 3
5.2237134 -13.28156 -1.7923318 2
4.5695009 -11.618191 -1.7888135 2
4.0731544 -10.356204 -1.7934411 2
3.672147 -9.3366222 -1.7943424 3
3.3428156 -8.49928 -1.7962984 4
3.0520089 -7.7598896 -1.7877727 3
2.8151896 -7.1577644 -1.7854775 7
2.620661 -6.6631656 -1.7885078 8
1.9132756 -4.8646016 -1.7982811 5
1.4052629 -3.5729532 -1.789675 6
1.4766122 -3.8327048 1.0842017 35
2.1559908 -5.5961051 1.158868 28
2.5563734 -6.6353402 0.99479532 17
3.8194275 -9.9137325 0.92238295 4
6.8201985 -17.702555 0.97596347 2
9.7989283 -25.434166 0.91990674 4
8.1911469 -26.960238 0.78361267 2
1.9671113 -4.1746488 0.10118078 24
14.290772 -37.093227 0.63694823 19
9.9833641 -32.859119 0.34765524 1
1.9743865 -4.1900878 0.019564105 23
14.271017 -37.04195 -0.065818429 33
9.9661503 -32.802464 -0.25849283 18
1.984455 -4.2114558 -0.062570266 16
8.8670807 -29.184998 -0.76996368 30
1.9921943 -4.22788 -0.14548999 21
8.8536386 -22.980566 -0.91293353 10
8.860569 -29.163568 -1.3094616 29
1.9720553 -4.1851406 -0.2258684 23
8.7545643 -22.723408 -1.3337498 25
9.0416737 -29.759651 -1.8859874 1
1.9887611 -4.2205944 -0.31046674 23
9.050252 -23.490898 -1.8243678 1
6.9914727 -23.011646 -1.8843523 1
2.0014162 -4.2474513 -0.39551923 22
7.1697092 -18.609747 -1.7981199 1
5.6091609 -18.461922 -1.8531595 1
2.0117176 -4.2693129 -0.48114094 25
5.933423 -15.400834 -1.7801155 3
5.1322904 -13.321408 -1.7928302 2
4.4996672 -11.679367 -1.7933521 2
4.0092735 -10.406498 -1.7972596 2
3.6097069 -9.369381 -1.7957509 3
3.2833979 -8.5224104 -1.7962984 3
3.0033848 -7.7956066 -1.7911268 4
2.7721543 -7.1954231 -1.79 4
2.5712893 -6.6740565 -1.786569 7
1.8765479 -4.8707809 -1.7956786 5
1.3802848 -3.5826766 -1.789675 6
1.4525502 -3.850157 1.0862434 19
2.1487563 -5.6955342 1.1763231 28
2.5015993 -6.6307864 0.9914701 16
3.7388725 -9.910326 0.91961515 4
6.6527367 -17.633871 0.96959269 1
7.5989718 -20.141979 0.72656173 0
7.9822879 -26.947756 0.78161108 4
1.9647877 -4.2463493 0.10258363 23
14.042768 -37.222027 0.63746089 33
9.6560249 -32.598202 0.34417301 24
1.9753206 -4.2691135 0.019868212 22
14.055847 -37.256695 -0.066024028 32
9.6187572 -32.472385 -0.25535631 35
1.9869167 -4.2941751 -0.063591599 16
8.7233076 -29.449396 -0.7753135 7
1.9945284 -4.310626 -0.14785467 21
8.8044605 -23.337269 -0.9246397 6
8.6635637 -29.247705 -1.3104917 24
1.9696327 -4.2568212 -0.22898921 22
8.6690283 -22.978291 -1.3451251 255
8.8654432 -29.929239 -1.8927664 1
1.9910914 -4.3031979 -0.31551284 24
8.8804064 -23.538574 -1.8232113 1
6.8431096 -23.101955 -1.8877891 1
2.0051904 -4.3336687 -0.40223435 19
7.0621176 -18.718983 -1.803867 1
5.4835281 -18.512083 -1.8543068 1
2.0119419 -4.3482604 -0.48844326 17
5.8412056 -15.48281 -1.7848338 2
5.0517759 -13.390333 -1.7973161 2
4.4306016 -11.743837 -1.7984582 2
3.9351332 -10.430538 -1.7966231 2
3.5553296 -9.4238243 -1.8013846 3
3.2224367 -8.5414515 -1.7955265 3
2.94889 -7.8163834 -1.7911268 4
2.7232304 -7.218246 -1.7909045 6
2.5246344 -6.691844 -1.786569 6
1.843834 -4.8873014 -1.7969798 5
1.3590794 -3.6024015 -1.7947448 6
1.2246531 -3.3160024 0.93310761 6
2.1470387 -5.8135524 1.1975728 25
2.4319155 -6.5849156 0.98204863 20
3.6613104 -9.9137573 0.91753924 5
6.5308504 -17.683632 0.96979821 1
7.5911279 -20.554554 0.73951435 8
7.7817655 -26.960571 0.78038794 4
1.9648654 -4.325501 0.10416184 18
13.824135 -37.431713 0.63938349 35
9.4137917 -32.614861 0.34364665 36
1.9785545 -4.3556361 0.020206105 22
13.832819 -37.455227 -0.066203102 21
9.4295359 -32.669407 -0.25638172 38
1.9800478 -4.3589234 -0.064344168 1
11.854502 -32.098522 -0.66179097 0
9.4367809 -32.694508 -0.85899204 31
8.8116274 -19.398123 -0.66323024 21
8.7978058 -23.821884 -0.94138402 2
8.4924116 -29.422665 -1.3156424 10
1.9679568 -4.3323064 -0.23230506 17
8.5416059 -23.128172 -1.3503752 30
8.6607094 -30.005745 -1.8937348 1
8.8046961 -19.382864 -1.4166207 9
8.7255344 -23.626196 -1.8252351 1
6.7015662 -23.218132 -1.8934132 1
6.9367828 -18.782778 -1.8053037 1
5.3817601 -18.645554 -1.863867 1
5.730217 -15.515751 -1.783976 4
4.97192 -13.462505 -1.8023003 2
4.3526216 -11.785626 -1.8001602 2
3.8731632 -10.487393 -1.8017145 2
3.4908164 -9.4521093 -1.8020887 4
3.1749651 -8.5968761 -1.8024739 3
2.8996692 -7.8514557 -1.794481 4
2.6754708 -7.2443924 -1.7927134 6
2.4872661 -6.7347889 -1.7933547 4
1.8136004 -4.9106994 -1.8008834 5
1.3414328 -3.6322076 -1.8048847 8
1.3749754 -3.8087091 1.0688881 18
2.1470397 -5.9473424 1.2218581 26
2.3728194 -6.5727568 0.977615 18
3.5790689 -9.9140921 0.91511738 5
6.3874841 -17.693459 0.9677431 1
7.5773559 -20.989426 0.75314158 2
7.5709648 -26.970692 0.77905357 8
8.8242674 -19.810328 0.47547954 29
14.531254 -40.251862 0.68571746 4
9.2133837 -32.821621 0.34510431 44
8.8637438 -19.898951 0.09200874 11
9.2341347 -32.895542 -0.25761822 32
8.7035332 -19.539282 -0.28747919 22
10.377695 -28.74642 -0.59109473 17
9.2325363 -32.889851 -0.86232299 23
8.7651768 -19.67767 -0.67057317 3
8.7206726 -24.156437 -0.95205289 1
9.2161655 -32.831532 -1.4650105 36
8.6809597 -19.488605 -1.0415694 64
8.4518557 -23.411808 -1.3632817 7
8.4998808 -30.279848 -1.9070505 1
8.72896 -19.596365 -1.4275097 2
8.5913982 -23.798342 -1.8336197 1
6.5646052 -23.385653 -1.9030989 1
8.5016861 -19.08614 -1.7600271 4
6.8232617 -18.90057 -1.8117691 1
2.1662018 -7.716845 -0.7697916 0
6.9479504 -15.598029 -1.7407891 3
5.6379337 -15.617188 -1.7908391 2
4.8757973 -13.506054 -1.8032972 2
4.2782125 -11.850734 -1.8052663 2
3.7948422 -10.511787 -1.8010781 2
3.4254467 -9.488555 -1.8042014 2
2.5987711 -7.1986475 -1.505278 0
2.8473499 -7.8872151 -1.7978351 4
2.6222951 -7.2638092 -1.7927134 5
2.4417844 -6.7637911 -1.7962629 4
1.7775546 -4.9238615 -1.8008834 6
1.3110783 -3.6317129 -1.7998148 11
1.3547913 -3.8364496 1.0739926 22
2.1486225 -6.0843925 1.2469025 23
2.3176413 -6.5630145 0.97373557 20
3.5018067 -9.9162922 0.91304153 6
6.8583941 -19.421356 1.0596057 28
7.575736 -21.4527 0.76784819 1
6.2707958 -22.95364 0.66173959 3
18.646425 -42.659672 1.020751 11
9.5753927 -27.115257 0.46077651 28
25.861441 -59.166332 0.27273175 22
9.5672846 -27.092297 -0.047639437 36
15.534501 -56.862537 -0.44445327 29
8.6918631 -19.885422 -0.29167205 2
9.5841532 -27.140064 -0.55667478 19
15.478359 -56.657032 -1.482594 31
9.9262142 -22.709396 -0.77150768 26
9.5753727 -27.1152 -1.0660028 41
8.9941072 -32.922058 -1.4662124 4
9.898407 -22.645779 -1.206582 10
9.5702696 -27.100748 -1.5741616 32
8.2409315 -30.165131 -1.8961558 0
10.62204 -24.301319 -1.7648003 1
8.4423151 -23.906647 -1.8373784 1
6.4179978 -23.49246 -1.9080981 1
8.436882 -19.302071 -1.7744645 2
6.7163486 -19.019117 -1.8185939 1
2.1049302 -7.7048926 -0.76711476 0
6.8691726 -15.715433 -1.748497 1
5.5499558 -15.716167 -1.7977022 1
4.7919607 -13.569703 -1.8072846 2
2.5696998 -7.2767844 -1.1057397 3
2.5352609 -7.1792622 -1.2270242 6
2.5357294 -7.1805882 -1.3619537 1
2.5040171 -7.0907865 -1.4790322 9
2.796124 -7.9179649 -1.8003508 6
2.5831971 -7.3150058 -1.800854 3
2.3996735 -6.79531 -1.8001404 5
1.7431362 -4.936151 -1.8008834 5
1.2856922 -3.6407776 -1.7998148 11
1.3317617 -3.8567815 1.0770553 25
2.1573675 -6.2477355 1.2772592 22
2.2704735 -6.5752902 0.97318137 18
3.4207866 -9.9065971 0.90992767 6
6.7030826 -19.412125 1.0565231 27
6.9325576 -20.076685 0.71684724 10
6.1042352 -22.973673 0.66107243 5
15.065278 -35.132988 0.83811706 3
9.3610563 -27.109615 0.45955887 31
11.632236 -43.778652 0.45855993 0
25.004784 -58.312412 0.26798433 22
9.360939 -27.109278 -0.047553219 40
14.958423 -56.296963 -0.43920562 39
9.3696442 -27.134487 -0.55520517 42
14.901714 -56.083538 -1.4648287 38
9.7437963 -22.723022 -0.7696408 26
9.3688784 -27.132267 -1.0640765 55
12.240932 -46.069519 -2.0478902 3
9.7211742 -22.670267 -1.2042414 36
9.358676 -27.102722 -1.5704428 37
8.0814028 -30.414869 -1.9082609 0
10.521336 -24.536283 -1.7764859 1
8.3051586 -24.051737 -1.8440282 1
6.2743139 -23.613775 -1.9143469 1
8.331768 -19.430101 -1.7808439 2
6.6016111 -19.118263 -1.8236226 1
2.0439312 -7.6924634 -0.76443785 1
6.782815 -15.817865 -1.7545823 1
5.4543796 -15.795881 -1.8024205 1
2.5726583 -7.450418 -0.98986959 0
2.4632638 -7.1336107 -1.0813442 7
2.4476993 -7.0885363 -1.208568 9
2.4495525 -7.0939031 -1.3422357 2
2.4198651 -7.0079288 -1.4581898 16
2.7356718 -7.9225044 -1.7969966 6
2.5282505 -7.3218126 -1.7981404 3
2.3559749 -6.8229022 -1.8030485 4
1.7086329 -4.9482002 -1.8008834 5
1.2626102 -3.6565185 -1.8031946 12
1.2998577 -3.8513269 1.0729717 22
2.1564 -6.3891621 1.3030624 27
2.2511184 -6.6698017 0.98481965 18
3.3438983 -9.9075813 0.90785182 6
6.5507946 -19.409243 1.0538515 27
6.8497605 -20.295042 0.72291875 23
5.9387012 -22.996374 0.66051644 8
14.836688 -35.277851 0.83908153 6
9.1562271 -27.128834 0.45878986 34
9.307085 -36.039734 0.37680873 13
24.214054 -57.574833 0.26381132 31
9.1433182 -27.090588 -0.047407307 34
14.394007 -55.73777 -0.43404841 35
10.212027 -24.281588 -0.3540273 0
9.158247 -27.134819 -0.55389029 60
14.340839 -55.531887 -1.44777 28
9.5740719 -22.764696 -0.76876962 29
9.1536722 -27.121265 -1.061113 49
11.453359 -44.350731 -1.9678837 0
9.619976 -22.873844 -1.2114582 2
9.1513605 -27.114416 -1.5673803 32
7.8868399 -30.540131 -1.9126189 0
9.5157967 -22.626131 -1.6333365 4
8.153635 -24.15827 -1.8477868 1
6.1232648 -23.711058 -1.9187212 1
8.2067337 -19.513515 -1.7831941 2
6.4998341 -19.258251 -1.8326024 1
1.9662836 -7.6140203 -0.75526005 1
6.6814761 -15.886842 -1.7570163 1
5.3655949 -15.897633 -1.8097125 1
2.4533174 -7.2688942 -0.96345311 1
2.3678198 -7.015574 -1.0609201 10
2.3665829 -7.0119095 -1.1926574 14
2.3458257 -6.9504085 -1.3119544 18
2.3432713 -6.9428396 -1.4412072 17
2.6940558 -7.9821734 -1.8062205 5
2.4770749 -7.3392844 -1.7981404 3
2.3070452 -6.835506 -1.8020791 4
1.6740475 -4.9600077 -1.8008834 4
1.2382123 -3.668679 -1.8048847 11
1.2668828 -3.8419428 1.0678672 21
2.1609387 -6.5532527 1.3334191 28
2.2330327 -6.7718844 0.99756634 19
3.2671611 -9.9079781 0.9057759 6
6.401372 -19.412771 1.0515909 26
8.3942747 -25.456436 0.9046604 7
5.7750983 -23.025635 0.66018283 11
14.602239 -35.410152 0.83978295 11
8.974123 -27.214884 0.45917436 17
9.0640202 -36.138744 0.37717316 5
23.878613 -57.905182 0.26455468 36
9.0429058 -27.423475 -0.047878198 12
13.843016 -55.192863 -0.42904201 33
13.070491 -31.695692 -0.46078378 0
8.946044 -27.12973 -0.55249798 78
13.790359 -54.982925 -1.4309131 27
9.4042425 -22.805109 -0.76789844 29
8.9641066 -27.184507 -1.061113 22
13.876346 -55.325752 -2.4504976 1
9.3442955 -22.65974 -1.1966344 4
9.0406427 -27.416609 -1.5811619 15
9.340867 -22.651426 -1.6304152 4
8.0360041 -24.369947 -1.8596408 1
5.9769897 -23.830587 -1.92497 1
8.0824604 -19.599813 -1.7858802 1
6.3764558 -19.33721 -1.8358351 1
1.8917713 -7.5425963 -0.74684697 1
6.5931582 -15.988283 -1.7631016 1
5.269423 -15.980027 -1.8148599 1
2.3652244 -7.1727686 -0.94850039 1
2.3039041 -6.9868083 -1.0541121 3
2.2977855 -6.9682536 -1.1824746 16
2.2836816 -6.9254818 -1.304208 19
2.2836821 -6.9254832 -1.4342598 17
2.3492062 -7.1241913 -1.6083245 5
2.4318776 -7.3749008 -1.802663 3
2.2665601 -6.8735595 -1.8078954 4
1.6417484 -4.9787583 -1.8034859 4
1.2114346 -3.6737907 -1.8031946 11
2.1608815 -6.7102342 1.362258 23
2.2221301 -6.9004316 1.0141925 19
3.1930246 -9.9153719 0.904392 8
6.2460971 -19.396147 1.0483028 28
7.7788796 -24.155933 0.85649282 39
5.6094809 -23.045967 0.65962684 15
14.366671 -35.540886 0.84048438 16
8.8010721 -27.33017 0.46007156 10
8.6478539 -35.528805 0.37016821 23
23.63419 -58.467274 0.26636243 23
9.389493 -29.157406 -0.050789755 19
13.386412 -54.996677 -0.4267801 47
12.761965 -31.571095 -0.45766601 1
8.8863668 -27.595037 -0.5606969 21
13.40239 -55.062321 -1.4305093 23
9.2732782 -22.940632 -0.77026308 13
9.3328247 -28.981432 -1.1286829 28
13.370675 -54.932026 -2.428865 1
9.1634197 -22.668859 -1.1937087 5
9.3399496 -29.003559 -1.6688826 4
7.5720358 -31.108919 -1.9414291 0
9.1555853 -22.649479 -1.6256347 4
7.8901315 -24.501406 -1.8654233 1
2.8076262 -11.53484 -0.93014705 5
7.9424481 -19.648369 -1.7852087 1
6.2632818 -19.449511 -1.8423005 1
1.8258848 -7.5014577 -0.74149328 1
6.4992781 -16.078194 -1.7679698 1
2.4587915 -7.6353412 -0.865179 0
2.2858942 -7.0984392 -0.93653822 1
2.2453611 -6.9725714 -1.0495734 10
2.234556 -6.9390178 -1.1748375 18
2.2268283 -6.9150205 -1.2992785 16
2.2244499 -6.9076347 -1.4273123 1
2.5847414 -8.0264559 -1.8078977 2
2.380332 -7.3916988 -1.802663 2
2.2161391 -6.8818274 -1.8059566 3
1.609269 -4.9972997 -1.8060883 4
1.1857572 -3.6821587 -1.8031946 11
0.83387297 -2.6527779 0.73403102 3
2.151669 -6.8450475 1.3865434 35
2.205976 -7.0178127 1.029156 19
3.1201396 -9.9260168 0.90335405 7
6.0973573 -19.397362 1.0460421 27
7.5788813 -24.110493 0.85298479 11
5.4429421 -23.061218 0.65895969 18
11.265398 -28.438641 0.6706515 22
11.78231 -37.48275 0.62957835 2
2.738003 -11.600654 0.12066301 9
23.30204 -58.824223 0.26724094 25
18.882399 -60.070068 -0.10440484 17
2.7334716 -11.581454 -0.089723043 38
12.544191 -31.666857 -0.45777351 1
9.1444263 -29.090919 -0.58977979 20
2.7317603 -11.574203 -0.30019298 50
9.230691 -23.302176 -0.78021961 3
9.1374607 -29.06876 -1.1295719 39
2.7374561 -11.598336 -0.51197255 15
9.0108232 -22.747137 -1.1944889 3
9.2749748 -29.506231 -1.6940395 0
2.7312891 -11.572206 -0.7209847 35
8.9928284 -22.701712 -1.624838 2
7.7344403 -24.60537 -1.8691819 0
2.7242813 -11.542516 -0.92920971 23
7.8359103 -19.781158 -1.7922595 1
6.1416817 -19.538368 -1.8466109 1
1.7707264 -7.5023961 -0.74034601 1
6.4088559 -16.178669 -1.7740551 1
2.3708422 -7.5422969 -0.85273963 2
2.2208102 -7.0650043 -0.93005872 2
2.1823804 -6.9427485 -1.0427654 17
2.1777687 -6.9280777 -1.1703825 20
2.173775 -6.9153724 -1.2964617 1
2.2197182 -7.0615306 -1.455874 2
2.1568527 -6.8615384 -1.5420797 0
2.339186 -7.4415903 -1.8108034 3
2.1645498 -6.886025 -1.8030485 3
1.5754763 -5.0120206 -1.8073895 4
1.160022 -3.690347 -1.8031946 11
0.81533343 -2.6585345 0.73403102 4
2.1441343 -6.9913177 1.4131055 31
2.1917758 -7.1466608 1.045782 16
3.0402534 -9.9132681 0.90024024 7
4.039731 -13.172236 0.70880145 1
7.3810754 -24.067263 0.8496117 31
2.647145 -11.576613 0.33025822 49
11.312541 -29.150381 0.68555677 2
11.373769 -37.086128 0.62156761 3
2.6507075 -11.592193 0.12037957 57
14.526354 -37.431797 0.16958937 8
18.269068 -59.569431 -0.10331053 45
2.6480932 -11.580759 -0.089572251 53
12.36622 -31.86552 -0.45938617 0
8.8801422 -28.955229 -0.58575773 9
2.6464336 -11.573503 -0.29968828 49
9.1835012 -23.664228 -0.79017615 1
8.9343071 -29.131842 -1.1295719 90
2.6466188 -11.574312 -0.51008397 56
8.8012085 -22.679131 -1.1876621 53
9.9283285 -32.37302 -1.8546057 25
2.6468732 -11.575425 -0.72001624 58
8.8283463 -22.749058 -1.6237756 0
8.9556608 -29.201469 -2.2135277 0
2.6436329 -11.561254 -0.92920971 56
7.7293453 -19.917131 -1.7996461 1
6.0319996 -19.668369 -1.8548723 1
1.6987804 -7.4291825 -0.731933 1
6.3231058 -16.293505 -1.7817631 1
2.2831492 -7.4446001 -0.83987135 2
2.1597979 -7.0423923 -0.92507452 3
2.1234107 -6.9237447 -1.0376593 18
2.1142979 -6.894031 -1.162109 5
2.1762435 -7.0960159 -1.3274472 3
2.1162806 -6.900496 -1.419593 2
2.1100461 -6.8801675 -1.5429182 2
2.2871788 -7.4577389 -1.8108034 3
2.1221147 -6.9195189 -1.8078954 4
1.5404485 -5.0228972 -1.8073895 4
1.1384832 -3.7122197 -1.8099545 12
0.80561858 -2.6938047 0.74219829 4
2.1436605 -7.1679115 1.445739 38
2.1872311 -7.3136015 1.0679501 20
2.9652627 -9.9151621 0.89851034 8
3.9934561 -13.353207 0.71702182 4
7.1922565 -24.049265 0.84718311 57
2.5645323 -11.587003 0.33003581 51
13.705867 -36.061996 0.84583277 4
9.7749643 -32.685249 0.54665142 18
2.5662565 -11.594793 0.12021761 50
14.106937 -37.117268 0.16771406 34
9.7349463 -32.551437 -0.056334313 23
2.5654507 -11.591153 -0.089511931 50
12.188926 -32.070717 -0.4611063 0
8.7396584 -29.223423 -0.58993453 19
2.5612502 -11.572174 -0.29918358 50
9.1998806 -24.206133 -0.80610663 3
8.7364378 -29.212654 -1.1303128 37
2.5631595 -11.5808 -0.50956887 60
8.6497612 -22.758694 -1.1886374 38
9.7329788 -32.544861 -1.8605121 19
2.5590947 -11.562434 -0.71807945 54
8.7246122 -22.955637 -1.6341333 0
7.4473 -24.902073 -1.8836381 0
2.5619941 -11.575535 -0.92889726 54
7.6000218 -19.996689 -1.8019964 1
5.8956833 -19.71382 -1.8552315 1
1.6382691 -7.4019852 -0.72810888 1
6.2346492 -16.404207 -1.7890654 1
2.1741459 -7.2698483 -0.81842417 3
2.0889742 -6.9850531 -0.91560441 7
2.0659459 -6.908052 -1.0331206 22
2.0593278 -6.8859229 -1.1582905 2
2.0623438 -6.8960075 -1.2873069 4
2.0658052 -6.9075818 -1.4180491 3
2.0608413 -6.8909836 -1.5420797 7
2.0620141 -6.8949051 -1.6706064 2
2.0793152 -6.9527555 -1.8127424 4
1.5042609 -5.0299058 -1.8060883 4
1.1104616 -3.7131305 -1.8065746 11
0.79545063 -2.7290676 0.75036556 4
2.1298332 -7.3071275 1.4707832 46
2.1704831 -7.4465909 1.0851305 18
2.8870487 -9.9050159 0.89574248 8
4.0029769 -13.733593 0.73592865 1
7.0197105 -24.083538 0.84664339 52
2.480233 -11.588984 0.32959104 49
13.456562 -36.164299 0.84600812 88
9.4905815 -32.560711 0.54344714 30
2.4793906 -11.585049 0.11993418 48
13.892103 -37.334808 0.16825469 41
9.5029793 -32.603249 -0.056307785 32
2.4819584 -11.597047 -0.089421451 51
12.007972 -32.271236 -0.4627727 0
8.5354271 -29.283726 -0.58993453 3
2.4745438 -11.562401 -0.29847702 47
10.63686 -28.586393 -0.94948089 23
8.5882092 -29.464813 -1.1377218 10
2.4763963 -11.571057 -0.50836706 62
8.5394287 -22.949581 -1.1954641 36
9.4999466 -32.592846 -1.8594183 37
2.4749718 -11.564401 -0.71711099 57
9.0679932 -24.370089 -1.7302744 1
7.3168082 -25.102833 -1.8949139 0
2.4761147 -11.569741 -0.92702258 55
7.4977636 -20.150122 -1.8110617 1
5.7757473 -19.815693 -1.8609786 1
1.673216 -7.8181663 -0.76787955 1
6.1241374 -16.458523 -1.7902824 1
2.0966313 -7.1932163 -0.80812955 8
2.0290523 -6.9613638 -0.91062021 17
2.0143442 -6.9109025 -1.0314187 19
2.0830336 -7.1465654 -1.199658 4
2.0108449 -6.8988967 -1.2851942 3
2.021924 -6.9369078 -1.4211369 3
2.0159664 -6.9164681 -1.5445954 15
2.0029252 -6.8717251 -1.6615614 2
2.0274673 -6.9559255 -1.8098341 3
1.4691089 -5.0402846 -1.8060883 5
1.0865411 -3.7277539 -1.8099545 12
0.79433578 -2.7978027 0.76772094 3
2.1055837 -7.4162688 1.4897562 39
2.1638846 -7.6216164 1.108407 16
2.8189163 -9.9287634 0.89608848 9
4.2113996 -14.833356 0.79326576 4
6.8470373 -24.116577 0.84610367 66
2.3968377 -11.59427 0.32925743 50
13.191453 -36.223537 0.84521902 9
9.3023567 -32.764683 0.54575419 28
2.3976417 -11.598159 0.11989368 54
13.673559 -37.547398 0.16877842 29
9.3122787 -32.799629 -0.056533281 32
2.3976963 -11.598423 -0.089300819 49
10.460311 -28.723862 -0.41084582 15
9.2887039 -32.716595 -0.65776885 34
2.3905246 -11.563731 -0.29807326 51
10.442511 -28.674982 -0.94997871 12
9.2982569 -32.75024 -1.2620443 38
2.3947458 -11.58415 -0.5081954 70
8.4364271 -23.166307 -1.2036562 31
9.3114452 -32.796692 -1.8672935 37
2.3909435 -11.565758 -0.71614259 55
9.4015932 -25.816639 -1.8282746 2
7.1697092 -25.253088 -1.9024311 0
2.3904386 -11.563314 -0.92514795 55
7.3814616 -20.269386 -1.8171054 1
5.6448832 -19.882359 -1.863493 1
1.5549145 -7.5216179 -0.73766917 0
6.0172601 -16.52331 -1.7927165 3
2.0365863 -7.1732464 -0.80426902 17
1.9728156 -6.9486341 -0.90713125 17
1.9584777 -6.8981338 -1.0274472 20
2.0492687 -7.217917 -1.2092043 3
1.961557 -6.9089794 -1.28449 4
2.0763524 -7.3133106 -1.4952428 6
1.9654946 -6.9228482 -1.5429182 16
1.9591593 -6.9005342 -1.6651794 17
1.980976 -6.9773769 -1.8117729 4
1.4338852 -5.0504184 -1.8060883 4
1.06148 -3.7387359 -1.8116446 11
0.93757194 -3.3922668 0.92902398 16
2.054805 -7.4345727 1.4905151 35
2.1306758 -7.7090836 1.1189369 20
2.7442262 -9.9289951 0.89435858 10
4.2588587 -15.409146 0.82244807 3
6.7424102 -24.394983 0.85419911 22
2.3127077 -11.595037 0.32881263 48
12.950323 -36.348656 0.84600812 23
9.1064272 -32.94833 0.54774088 20
2.311136 -11.587156 0.11961025 55
10.535563 -29.570965 0.13258989 5
15.769642 -57.05677 -0.098150641 28
2.3127537 -11.595266 -0.089150019 52
9.660841 -27.115816 -0.38687131 23
9.0931082 -32.900139 -0.66016668 40
2.308954 -11.576217 -0.29797232 53
9.6463003 -27.075005 -0.8947199 37
9.1056042 -32.945351 -1.2670825 22
2.310688 -11.58491 -0.50750864 58
8.4005318 -23.578411 -1.2219909 16
2.3085792 -11.574337 -0.71565837 60
9.2171106 -25.870365 -1.8274779 2
6.9889894 -25.287142 -1.9012746 0
2.3065329 -11.564078 -0.92389816 56
7.2544899 -20.361729 -1.8207986 1
5.5271711 -19.998079 -1.8706769 1
1.482895 -7.4346709 -0.72810888 1
5.9231272 -16.624891 -1.7992074 2
1.9695086 -7.125958 -0.79740596 19
1.9179149 -6.9392843 -0.90414071 18
1.9060545 -6.8963718 -1.025178 18
1.9230849 -6.9579902 -1.1633819 2
1.9111792 -6.9149137 -1.2830815 8
1.9154634 -6.9304152 -1.4141893 8
1.9160759 -6.932631 -1.5420797 191
1.9119765 -6.9177985 -1.6660838 3
1.9063725 -6.8975229 -1.7875384 2
1.4046388 -5.0821795 -1.8138956 5
1.0324564 -3.7355716 -1.8065746 11
0.9520281 -3.5406547 0.96781838 4
2.007951 -7.4677005 1.4943098 24
2.0737185 -7.7122946 1.1172743 17
2.666564 -9.9171257 0.89159071 10
4.2268996 -15.720115 0.83745021 1
7.3193369 -27.221092 0.95134383 28
2.2301931 -11.603045 0.32859024 53
9.4606705 -27.152088 0.63040715 37
9.4670963 -35.208752 0.58420563 2
2.2271664 -11.587297 0.11944828 53
9.4510145 -27.124374 0.12132111 36
15.174621 -56.435406 -0.09689714 37
2.227972 -11.59149 -0.088999227 52
9.4410334 -27.09573 -0.38563496 42
15.28915 -56.861347 -1.1387972 54
2.2265711 -11.584201 -0.29777044 53
9.437315 -27.085056 -0.89285302 33
12.400207 -46.117176 -1.7702998 23
2.2267365 -11.585061 -0.50682187 60
9.4503727 -27.122532 -1.4022175 40
9.1492376 -34.026611 -1.9298575 0
2.2254579 -11.578409 -0.71493208 53
9.0979986 -26.111221 -1.8399603 32
6.8433595 -25.450901 -1.9099483 0
2.2227335 -11.564235 -0.92264837 57
7.131834 -20.468336 -1.825835 1
5.4019055 -20.09004 -1.8757055 1
1.3678247 -7.1163936 -0.69598645 0
5.8317976 -16.737236 -1.8069154 1
1.9145488 -7.1203318 -0.7952612 17
1.8673617 -6.94484 -0.90314382 18
1.8537496 -6.8942161 -1.0229086 13
1.8611315 -6.92167 -1.1551083 4
1.9548756 -7.2703099 -1.3464611 5
1.8639759 -6.9322481 -1.4118736 7
1.8645837 -6.9345088 -1.539564 19
1.880834 -6.9949446 -1.6814603 2
1.8480954 -6.8731875 -1.7778445 2
1.3691242 -5.0918622 -1.8138956 6
1.0054107 -3.7391877 -1.8048847 11
0.88816047 -3.3975432 0.92698216 6
1.9517946 -7.4663377 1.4912741 24
2.0158186 -7.7112532 1.1150575 20
2.5962567 -9.9316444 0.89124477 10
5.0768523 -19.420843 1.0326841 32
7.1088986 -27.194172 0.94864535 30
2.1476824 -11.610469 0.32836786 51
9.2463837 -27.145552 0.62874126 45
9.0966454 -34.798042 0.57632309 3
2.1447649 -11.594696 0.1193673 55
9.2407846 -27.129114 0.12105079 40
14.611312 -55.893684 -0.095789559 32
2.1419039 -11.579229 -0.088788114 56
9.2361641 -27.115549 -0.38498989 35
14.713793 -56.285713 -1.1251838 33
2.1420097 -11.579802 -0.29726574 51
9.2273693 -27.089729 -0.89086175 35
14.657917 -56.071968 -2.1484537 4
2.1436253 -11.588535 -0.50630683 60
9.2427568 -27.134903 -1.3994869 42
8.9417686 -34.205578 -1.9364201 0
2.142395 -11.581884 -0.71420574 56
9.004281 -26.434786 -1.8582855 28
6.6907377 -25.594551 -1.9171764 1
2.1397724 -11.567707 -0.92171103 55
7.0144672 -20.593088 -1.83255 1
5.2776403 -20.188931 -1.8814526 1
1.3057992 -7.0592098 -0.68948549 9
5.7199392 -16.792608 -1.8085382 1
1.8567463 -7.1027427 -0.79182965 18
1.8158208 -6.9461875 -0.90164858 19
1.8025695 -6.8954968 -1.0212066 14
1.8067714 -6.9115705 -1.1512898 5
1.8931173 -7.2418756 -1.3387146 9
1.8125564 -6.9337001 -1.4095577 7
1.820083 -6.962492 -1.5429182 12
1.8043617 -6.9023523 -1.6561344 3
1.7971221 -6.8746581 -1.7749364 2
1.3316296 -5.093977 -1.8112931 5
0.97928172 -3.7461154 -1.8048847 10
0.84368134 -3.3171506 0.90350139 7
1.8993286 -7.4677 1.4889973 25
1.9617016 -7.7129354 1.1133949 17
2.5224719 -9.9177485 0.88847691 12
4.9380898 -19.415373 1.0306289 30
6.9234557 -27.22135 0.94797075 26
2.0671253 -11.604774 0.32781187 48
9.0509787 -27.160748 0.62768912 40
8.7917175 -34.566902 0.57151669 5
2.0664158 -11.60079 0.11928632 46
9.0505438 -27.159443 0.12091564 43
14.072675 -55.330349 -0.094662078 34
2.0692687 -11.616807 -0.088969067 26
9.0358982 -27.115494 -0.38412982 37
14.177512 -55.742546 -1.1124214 36
2.0946145 -11.759097 -0.30150518 11
9.0487709 -27.154121 -0.8909862 16
14.115255 -55.497765 -2.1228187 9
2.0639164 -11.58676 -0.50562006 50
9.0310163 -27.100843 -1.3946106 34
8.7304621 -34.326061 -1.9399202 0
2.0760365 -11.6548 -0.71783733 22
9.0117264 -27.042957 -1.8967952 7
6.5395241 -25.711824 -1.9226698 0
2.1049645 -11.817202 -0.9404577 13
6.9004211 -20.70722 -1.8385937 1
5.1593375 -20.285265 -1.8871996 1
1.2568572 -7.0559545 -0.68833828 16
5.6285729 -16.890577 -1.8150291 1
1.8037163 -7.0917754 -0.78925604 12
1.7648203 -6.9388461 -0.89915645 18
1.7558211 -6.9034629 -1.0206392 24
1.7618656 -6.9272289 -1.1519263 4
1.7557535 -6.9031973 -1.2739267 8
1.7597584 -6.9189434 -1.4041542 15
1.7632611 -6.9327154 -1.5336943 3
1.7508603 -6.8839588 -1.6488984 4
1.7524445 -6.8901873 -1.7759058 2
1.2996804 -5.1100283 -1.8138956 5
0.95798945 -3.7665825 -1.8116446 11
0.81957632 -3.3192048 0.90248048 7
1.8471497 -7.4807773 1.4889973 25
1.903061 -7.7072129 1.1106238 18
2.4522185 -9.9312477 0.88813096 11
4.7899804 -19.398956 1.0279573 26
5.7701273 -23.368456 0.81237286 3
2.0123327 -11.772634 0.33214858 13
8.8660917 -27.238487 0.62803984 22
7.7093596 -31.22216 0.51531345 0
2.0365946 -11.914573 0.12236363 15
8.9374733 -27.457787 0.12196311 18
13.5547 -54.895222 -0.093753457 32
2.0635989 -12.072553 -0.092346877 8
8.9813128 -27.59247 -0.38998908 8
13.62888 -55.195644 -1.0995816 36
8.0869331 -47.31052 -1.2115724 39
9.4269733 -28.961632 -0.94811183 255
13.568411 -54.950752 -2.0982208 14
2.0489621 -11.986926 -0.52244544 11
8.9479437 -27.489952 -1.4113849 17
8.5356159 -34.568417 -1.9502016 0
2.0679467 -12.097989 -0.74422663 5
8.6361771 -26.532141 -1.8566921 1
6.3646507 -25.776218 -1.9241153 0
6.7717276 -20.804161 -1.8429585 1
1.9835465 -8.0331707 -0.74604374 0
1.19482 -6.9899874 -0.68107247 14
5.5228348 -16.967302 -1.819086 1
1.7436774 -7.0617242 -0.78453761 17
1.7125311 -6.935585 -0.89716274 19
1.7066355 -6.9117084 -1.0200719 28
1.7115698 -6.9316916 -1.1506534 4
1.7150701 -6.9458675 -1.2795604 2
1.7274083 -6.9958363 -1.4172771 3
1.7091949 -6.9220738 -1.528663 8
1.7083645 -6.9187107 -1.6543254 10
1.7043009 -6.9022536 -1.7759058 2
1.2657886 -5.1263213 -1.816498 5
0.93080223 -3.7696588 -1.8099545 11
0.78917682 -3.2947564 0.89431322 7
1.8445942 -7.7010489 1.1078528 17
2.3772559 -9.9248734 0.88605505 11
4.6497808 -19.4125 1.0269297 22
4.0805831 -17.03614 0.59123367 7
4.1800418 -25.526011 0.71934021 8
11.754546 -36.987823 0.85091811 14
2.7697222 -11.563392 0.19052692 0
5.24862 -32.051434 0.32878646 9
19.814718 -62.350624 0.27633032 30
2.7756643 -11.588199 -0.019757466 15
7.7108636 -47.087467 -0.35976678 33
19.229227 -60.50827 -0.85329932 5
13.187315 -55.056091 -1.0949408 34
7.6801944 -46.900181 -1.1996616 36
9.2221317 -29.019119 -0.94786292 70
2.7774873 -11.59581 -0.44201928 0
7.7188306 -47.13612 -2.0520105 37
9.2192526 -29.010061 -1.4860892 3
2.7724445 -11.574757 -0.65189016 16
8.5450239 -26.888477 -1.8774076 1
2.7628319 -11.534625 -0.85956347 4
1.2044581 -7.3551922 -0.58395863 0
6.6323581 -20.869925 -1.8446373 1
1.9199921 -8.0158291 -0.7431702 0
1.1305487 -6.9038539 -0.67189461 25
5.4162979 -17.043369 -1.8231428 1
1.68785 -7.0466528 -0.78153503 19
1.6622208 -6.9396529 -0.89616591 20
1.6574186 -6.9196038 -1.0195045 30
1.6732543 -6.9857163 -1.157654 2
1.6555308 -6.9117222 -1.2711099 2
1.7379509 -7.2558203 -1.467453 5
1.6580949 -6.9224272 -1.5261474 7
1.6636515 -6.9456253 -1.6579434 1
1.6515526 -6.8951135 -1.7710589 2
1.2282071 -5.1276765 -1.8138956 5
0.90699583 -3.7866426 -1.8150245 10
0.76965433 -3.3152549 0.89839685 6
0.84461635 -3.6381509 0.72173113 4
1.7898902 -7.7098799 1.1072986 22
2.3079095 -9.941227 0.88605505 12
2.6911409 -11.591981 0.61221206 19
2.687742 -11.57734 0.40112683 36
3.9906061 -25.483463 0.71733862 9
11.498405 -37.076622 0.85109347 11
2.6862137 -11.570758 0.19033466 27
4.9678082 -31.723742 0.32506129 18
18.660942 -60.172237 0.26609212 40
2.6838412 -11.560538 -0.019677879 75
7.3101711 -46.681751 -0.35626835 39
9.0406389 -29.151556 -0.41020077 2
2.6887693 -11.581766 -0.22995612 45
7.2833056 -46.510189 -1.1883564 36
9.0169458 -29.075155 -0.94761401 49
2.6829064 -11.556512 -0.4397966 16
7.3228087 -46.762451 -2.0334682 38
9.0330667 -29.127138 -1.48882 18
2.6825378 -11.554924 -0.64970261 61
5.1930652 -33.162201 -2.0353653 0
8.3701029 -26.989408 -1.880329 1
2.6858466 -11.569177 -0.86071998 47
1.1166815 -7.1309752 -0.5655244 0
6.5160127 -21.010893 -1.8530312 1
1.8558762 -7.994112 -0.73993742 0
1.0798608 -6.895843 -0.67036498 21
2.3869138 -7.6966071 -0.8215096 0
1.6350166 -7.0427685 -0.77981925 13
1.6101425 -6.9356236 -0.89417219 19
1.6072795 -6.9232917 -1.0183699 26
1.6717753 -7.2011051 -1.1913846 4
1.6027853 -6.9039335 -1.2675889 3
1.60116 -6.8969321 -1.3925751 5
1.6114959 -6.9414535 -1.5278245 2
1.6063101 -6.919116 -1.6488984 3
1.6463778 -7.0917063 -1.8185586 4
1.1923794 -5.136126 -1.8138956 5
0.87889826 -3.7858188 -1.8116446 10
0.74363768 -3.3132606 0.89635503 7
0.82996565 -3.6978927 0.73235595 4
1.7307233 -7.7111969 1.105636 24
2.2288659 -9.9306593 0.8836332 13
2.6025958 -11.595805 0.61139005 41
2.5993016 -11.581128 0.40058714 47
3.8019271 -25.500166 0.71700501 11
11.228632 -37.167564 0.85126883 9
2.6004481 -11.586235 0.19027057 42
4.6967893 -31.502159 0.32242939 8
9.9310036 -32.872322 0.14504132 5
2.6007781 -11.587707 -0.019691145 49
6.9017191 -46.290993 -0.35289052 255
8.8567858 -29.316587 -0.41159838 0
2.5994196 -11.581654 -0.22956938 79
2.8876092 -19.367682 -0.49429893 3
8.8082047 -29.155779 -0.94811183 30
2.5972457 -11.571968 -0.43964839 49
6.9155917 -46.384041 -2.0147543 37
8.8239403 -29.207867 -1.4896002 22
2.5951402 -11.562586 -0.64904636 63
2.8844109 -19.346231 -1.1860658 0
8.1801214 -27.07678 -1.8821881 1
2.5974736 -11.572983 -0.85956347 56
1.0584984 -7.0995269 -0.56239998 12
6.375658 -21.10388 -1.8570602 1
1.7989713 -8.015275 -0.74065584 1
1.0251727 -6.8760066 -0.66768813 48
2.3085668 -7.6415195 -0.81380159 1
1.5816048 -7.0468035 -0.77896136 17
1.5583893 -6.9433675 -0.89367378 20
1.5530176 -6.9194341 -1.0161005 33
1.5523525 -6.9164705 -1.1423799 4
1.5538585 -6.9231806 -1.2689972 5
1.548841 -6.9008245 -1.3910313 1
1.5511475 -6.9111013 -1.5186005 2
1.5461611 -6.8888845 -1.6389489 2
1.5994481 -7.1263037 -1.8243749 5
1.153041 -5.1373472 -1.8112931 5
0.85429913 -3.8063097 -1.8184044 9
0.71884745 -3.3108122 0.89431322 8
0.81746203 -3.7650039 0.74449867 4
1.6751658 -7.7153497 1.1045276 23
2.1518729 -9.9109306 0.88051939 11
2.5181882 -11.598078 0.61056799 39
2.5183868 -11.598992 0.40058714 44
2.7549498 -19.405844 0.54509288 5
9.6402779 -32.733753 0.74815911 21
2.5186489 -11.6002 0.19020648 32
2.7525005 -19.388592 0.19824366 42
9.5916586 -32.568665 0.14340253 21
2.5172713 -11.593855 -0.019671248 41
2.7497523 -19.369234 -0.1475077 61
9.5773182 -32.519974 -0.45562333 37
2.5159554 -11.587794 -0.22933733 62
2.7495167 -19.367575 -0.49379423 50
2.5138507 -11.5781 -0.43920386 60
2.7501049 -19.371717 -0.84058267 53
8.6220741 -29.276424 -1.4899902 20
2.5135076 -11.576519 -0.64882761 61
2.7509623 -19.377756 -1.1867921 52
8.0123148 -27.205973 -1.8872341 1
2.5106905 -11.563544 -0.85753959 58
1.0066665 -7.090951 -0.56115019 36
6.2551956 -21.239639 -1.8651183 1
1.7395893 -8.0120668 -0.73921907 1
0.98050207 -6.9066491 -0.66998255 23
2.2158158 -7.5238461 -0.79960269 2
1.5281513 -7.0382414 -0.77681667 20
1.5073514 -6.9424429 -0.89217854 20
1.5055133 -6.9339771 -1.0166678 28
1.4990014 -6.903985 -1.1385614 7
1.5221969 -7.0108171 -1.2830815 3
1.5047903 -6.9306474 -1.3948909 4
1.5012015 -6.9141183 -1.5169234 4
1.4996835 -6.9071269 -1.6407579 4
1.5529518 -7.1524658 -1.8282524 4
1.1227653 -5.1711459 -1.8204017 6
0.82616675 -3.8050954 -1.8150245 10
0.69015747 -3.2892542 0.88716686 9
0.81857866 -3.9013028 0.77030188 3
1.6188231 -7.7152252 1.102865 26
2.0834496 -9.9296103 0.88086534 13
2.4346988 -11.603645 0.6099515 41
2.4348893 -11.604554 0.40018237 46
2.6135263 -19.381016 0.54386967 56
9.3563709 -32.608063 0.74377519 36
2.4334991 -11.597928 0.18988606 31
2.6138685 -19.383553 0.19800071 68
9.3673611 -32.646366 0.14345321 35
2.4346294 -11.603315 -0.019657983 42
2.6144626 -19.387959 -0.1475077 57
9.3809395 -32.693687 -0.45712847 33
2.4317138 -11.589419 -0.22902794 59
2.6131697 -19.37837 -0.49359235 56
9.3893747 -32.723083 -1.0597496 33
2.4337823 -11.599278 -0.43935204 62
2.6131954 -19.378563 -0.84006757 63
8.4714689 -29.524076 -1.4995477 7
2.4318094 -11.589875 -0.64860886 63
1.0314116 -7.6485949 -0.46798635 0
7.801271 -27.188354 -1.8821881 1
2.4282644 -11.572981 -0.85696137 60
0.95607203 -7.0899024 -0.5605253 1
6.1254511 -21.347923 -1.8708261 1
1.6598895 -7.9109459 -0.72880244 2
0.93385708 -6.9251637 -0.67112982 4
2.1445773 -7.4741063 -0.79270607 3
1.4748962 -7.0292773 -0.77467191 25
1.4572188 -6.9450278 -0.89118165 23
1.4627615 -6.9714446 -1.0206392 1
1.4515784 -6.9181461 -1.1391978 51
1.4457253 -6.8902507 -1.2591382 4
1.4781311 -7.0446949 -1.4157332 2
1.5243771 -7.2651014 -1.5915537 3
1.6202542 -7.7220454 -1.8316069 3
1.4989973 -7.1441422 -1.8234055 4
1.0874145 -5.18256 -1.821703 6
0.80330539 -3.8285112 -1.8234743 9
0.67024839 -3.3091545 0.89125049 6
1.5233933 -7.521307 1.482926 16
1.562562 -7.7146912 1.1012024 26
2.012495 -9.9361029 0.88017339 14
2.3496656 -11.600784 0.60892391 41
2.3490534 -11.59776 0.39937282 45
2.4756289 -19.378958 0.54331368 59
9.1672344 -32.811245 0.74693161 46
2.350883 -11.606794 0.18975788 32
2.4779797 -19.39736 0.19796023 60
9.1811953 -32.86121 0.14411211 44
2.3511815 -11.608269 -0.019638086 42
2.4775293 -19.393835 -0.14741722 52
9.1869059 -32.881649 -0.45884863 34
2.3459818 -11.582596 -0.22856385 64
2.4747837 -19.372343 -0.49298671 56
9.1961975 -32.914906 -1.0638567 11
2.3503644 -11.604234 -0.4389075 63
2.4753163 -19.376513 -0.83920914 69
9.174655 -32.837803 -1.6645604 34
2.3460805 -11.583083 -0.64729631 57
0.94459862 -7.394217 -0.4520075 0
7.6413412 -27.349787 -1.8896244 1
2.3450348 -11.577921 -0.856094 62
0.91009074 -7.1240931 -0.56271237 0
5.9987879 -21.470781 -1.877877 1
1.6196463 -7.9965281 -0.73562711 2
2.0720005 -7.4160767 -0.78499806 3
1.4242077 -7.0316072 -0.77381402 24
1.4063344 -6.9433627 -0.88968641 23
1.3983357 -6.9038715 -1.0092925 1
1.4008934 -6.9165001 -1.1372886 31
1.3975871 -6.9001756 -1.2591382 15
1.4008654 -6.9163613 -1.3879435 3
1.4045199 -6.9344044 -1.5169234 6
1.5686251 -7.7446256 -1.8343203 3
1.454478 -7.1810579 -1.8301911 4
1.0504559 -5.1863179 -1.8204017 5
0.77367896 -3.8198125 -1.8167144 9
0.64638853 -3.3099573 0.89022958 6
1.4731058 -7.543323 1.4852028 24
1.1799023 -6.0419178 0.86123228 3
1.9354409 -9.910799 0.87671357 13
2.2663229 -11.605144 0.60830742 40
2.2641971 -11.594259 0.39869821 44
2.3402779 -19.395769 0.54331368 54
6.24681 -22.976221 0.52203673 8
2.2636626 -11.591521 0.18924521 30
2.3396251 -19.39036 0.19771728 58
15.50835 -57.04084 0.24967043 34
2.2639501 -11.592994 -0.019585028 38
2.3387203 -19.382862 -0.14720611 56
15.455671 -56.84708 -0.79175037 34
2.2619967 -11.582992 -0.22825445 58
2.338042 -19.377239 -0.49268392 51
12.534626 -46.103268 -1.4872587 37
2.2631652 -11.588975 -0.43772206 65
2.3385465 -19.38142 -0.8386941 65
2.2628615 -11.58742 -0.64664006 61
0.86664867 -7.1826162 -0.43869182 2
7.4690723 -27.47179 -1.8944049 1
2.2603252 -11.574432 -0.85464835 57
0.85746688 -7.1065192 -0.56083775 0
5.8717589 -21.596756 -1.8852636 1
1.5095675 -7.730032 -0.71012443 0
0.90003604 -7.4593244 -0.72160792 0
1.9836372 -7.2959619 -0.77079916 2
1.3705096 -7.0179596 -0.77124041 26
1.3570654 -6.9491162 -0.88918799 22
1.3493445 -6.9095793 -1.0087252 29
1.352573 -6.9261117 -1.1372886 29
1.35089 -6.9174938 -1.2605467 29
1.352546 -6.9259729 -1.3879435 24
1.3538254 -6.9325247 -1.5144078 3
1.5175064 -7.7706852 -1.8379383 3
1.4028217 -7.1834197 -1.8282524 4
1.0142231 -5.1935253 -1.8204017 5
0.7476877 -3.8286793 -1.8184044 9
0.62040591 -3.2991855 0.88614595 7
1.138068 -6.0520015 1.1899836 5
1.1369609 -6.046114 0.86067808 0
1.8662033 -9.9240694 0.87671357 14
2.1800807 -11.593201 0.60686886 34
2.1802437 -11.594069 0.39815852 43
2.2039104 -19.403688 0.5430913 56
6.0780759 -22.988342 0.5213353 8
2.1804659 -11.59525 0.18905294 28
2.2023923 -19.390326 0.19755532 53
14.931846 -56.474842 0.24673074 35
2.180743 -11.596723 -0.019565132 40
2.2019913 -19.386793 -0.14711563 54
14.866222 -56.226643 -0.78164452 32
2.1781209 -11.582779 -0.22794506 61
2.2022552 -19.389118 -0.49258298 45
14.81029 -56.015099 -1.8036278 24
2.1762941 -11.573065 -0.43653664 62
2.1982205 -19.353594 -0.83680552 135
9.9969368 -37.810158 -1.9093487 0
2.1789587 -11.587234 -0.64576507 55
0.81468105 -7.1726227 -0.4377234 16
7.2791409 -27.530979 -1.8949361 0
2.1779909 -11.582088 -0.85407013 55
0.80558288 -7.0925207 -0.55927551 0
5.7402 -21.710436 -1.8916429 1
1.4504112 -7.7129755 -0.70761007 3
0.79401529 -6.9906774 -0.67571872 0
1.9082409 -7.2172995 -0.76106274 2
1.3185418 -7.0117226 -0.76952463 31
1.3055847 -6.9428186 -0.88719428 18
1.3025372 -6.9266133 -1.0098598 27
1.3027272 -6.9276237 -1.1360157 27
1.3003809 -6.9151464 -1.2584341 29
1.3005339 -6.9159603 -1.3840839 24
1.3025032 -6.9264326 -1.5110537 3
1.4653802 -7.7925773 -1.8406519 3
1.3576583 -7.2197351 -1.8350381 4
0.97933882 -5.2079139 -1.8230041 4
0.72094029 -3.8338056 -1.8184044 8
0.60011172 -3.3186595 0.89022958 7
0.85189342 -4.71103 0.92512119 0
0.88818622 -4.9117317 0.69829643 3
1.7933315 -9.9172487 0.87498367 13
2.0969617 -11.596345 0.60625231 34
2.0956945 -11.589336 0.39748389 42
2.06797 -19.414627 0.54298007 48
5.911468 -23.006975 0.52080923 11
2.098042 -11.602318 0.18892477 28
2.0796781 -19.524546 0.19877005 12
14.368987 -55.922981 0.24387553 35
2.0990202 -11.607728 -0.019558499 33
2.1093814 -19.80341 -0.15016168 2
14.313073 -55.705372 -0.77299005 30
2.0943608 -11.581962 -0.22763567 60
2.8923054 -27.153696 -0.68931335 40
14.252714 -55.470459 -1.7828436 36
2.0961597 -11.591908 -0.43668482 60
2.0952225 -19.670481 -0.84985375 17
9.7784643 -38.057026 -1.918321 0
2.0980139 -11.602163 -0.64576507 45
0.76331818 -7.1662245 -0.43699709 19
7.112586 -27.681633 -1.9018412 0
2.1056013 -11.644121 -0.85753959 16
0.75942707 -7.1296945 -0.56177509 0
5.6053557 -21.815611 -1.8973508 1
0.75025254 -7.0435615 -0.68030763 0
1.8360215 -7.1456537 -0.75213766 4
1.2730987 -7.0403242 -0.77166933 12
1.255672 -6.9439535 -0.88619745 20
1.2527411 -6.9277453 -1.0087252 30
1.2529277 -6.9287772 -1.1347429 28
1.252074 -6.9240561 -1.2584341 28
1.2515229 -6.9210086 -1.3833119 24
1.2527255 -6.927659 -1.5093765 2
1.4130238 -7.8141203 -1.8433653 3
1.3044614 -7.2137623 -1.8311605 4
0.94093889 -5.2034574 -1.8191005 5
0.69415855 -3.8387454 -1.8184044 8
0.57891333 -3.3341999 0.89329231 6
0.70476919 -4.0590553 0.79610509 3
0.86336172 -4.972455 0.70605528 4
1.722689 -9.9216747 0.87429172 15
2.0166364 -11.614638 0.60645783 32
2.0229414 -11.65095 0.39910299 16
2.0942359 -21.055927 0.58846009 8
5.7448959 -23.024405 0.52028316 15
2.0525694 -11.82159 0.19225723 8
2.7014093 -27.160589 0.27631021 40
13.818442 -55.381577 0.2410879 35
2.0767796 -11.961028 -0.020128872 8
2.7018669 -27.16519 -0.20583521 34
13.764062 -55.163635 -0.76412058 31
2.020978 -11.639644 -0.22848651 19
2.6987085 -27.133436 -0.68830395 47
13.705406 -54.928551 -1.7623082 26
2.0555267 -11.838623 -0.44542739 14
2.7002449 -27.148882 -1.1721115 45
13.806963 -55.335571 -2.7843449 0
2.0818734 -11.990365 -0.66654676 12
0.71366507 -7.1753526 -0.4372392 2
6.9326854 -27.78483 -1.9055594 0
2.1000149 -12.094849 -0.88963228 3
0.70805526 -7.1189499 -0.5605253 0
5.463532 -21.896753 -1.9010441 1
1.2349018 -7.1123071 -0.65085763 0
0.69948459 -7.0327787 -0.67877799 0
1.7783839 -7.1274099 -0.74889219 8
