# .PCD v0.7 - Point Cloud Data file format
VERSION 0.7
FIELDS x y z intensity
SIZE 4 4 4 4
TYPE F F F F
COUNT 1 1 1 1
WIDTH 1341
HEIGHT 1
VIEWPOINT 0 0 0 1 0 0 0
POINTS 1341
DATA ascii
-4.360055 -12.576888 -1.0429394 65
-1.4252354 -7.4784393 -0.6412918 1
-3.3699448 -12.620845 -1.1777936 54
-4.3559933 -12.565172 -1.2772498 45
-1.3662895 -7.1691403 -0.74402398 15
-3.3671813 -12.610496 -1.4077926 52
-3.3705542 -12.623128 -1.640811 2
-3.76719 -14.108575 -2.0923388 3
-3.300781 -12.361818 -2.0620117 4
-2.9346075 -10.990455 -2.0344801 3
-2.6325171 -9.8590899 -2.0070374 3
-2.3741183 -8.8913555 -1.9730905 3
-2.1681657 -8.120039 -1.9510005 6
-2.0022869 -7.4988031 -1.9387618 4
-1.4197578 -5.3171625 -1.8932698 6
-1.0325534 -3.8670359 -1.8657235 9
-0.75043839 -2.7337663 0.74832374 2
-1.0250709 -3.7342231 0.74829328 1
-1.3506562 -4.9202948 0.71381414 1
-2.1751833 -7.9239588 0.71341097 4
-2.0377254 -7.4232144 0.39601636 18
-4.4912376 -16.361095 0.57261425 12
-4.8056898 -13.555808 0.39997938 4
-4.6548438 -23.530233 0.52589458 11
-5.3412552 -19.457617 0.32331258 42
-7.1274219 -20.10491 0.21593821 8
-5.389473 -27.243784 0.11730016 97
-5.3408742 -19.45623 -0.033453058 48
-9.6642723 -27.260815 -0.21807978 55
-5.3890347 -27.241568 -0.37321764 58
-5.3314137 -19.421768 -0.38952538 62
-9.6387548 -27.188837 -0.72817492 37
-5.3876877 -27.23476 -0.86422795 56
-3.595531 -13.098133 -0.50351375 2
-4.5547495 -12.84796 -0.58562654 2
-3.3261619 -16.813747 -0.83676636 2
-3.5090916 -12.783243 -0.72604817 0
-4.4998965 -12.693232 -0.81661564 0
-3.2244084 -16.299383 -1.1056228 1
-3.4681957 -12.634263 -0.94948083 3
-4.4650741 -12.595004 -1.0470012 75
-1.5470262 -7.8202167 -0.67150974 3
-3.4569154 -12.59317 -1.1774344 53
-4.4542518 -12.564478 -1.2803092 44
-1.418623 -7.1711383 -0.74524105 17
-3.4540813 -12.582847 -1.4073635 53
-3.4627974 -12.614598 -1.6428047 2
-3.8687356 -14.093388 -2.0940409 5
-3.3859539 -12.334666 -2.0613751 4
-3.013346 -10.977295 -2.0358884 3
-2.7054358 -9.8556118 -2.0101252 3
-2.4495912 -8.9235964 -1.9839916 4
-2.2289252 -8.1197348 -1.9546185 5
-2.0566423 -7.4921269 -1.9407007 5
-1.4588454 -5.3144164 -1.8958722 5
-1.0595244 -3.8597333 -1.8657235 8
-0.76110691 -2.6986821 0.74015647 1
-1.0479176 -3.7156363 0.7460165 1
-1.383898 -4.9069328 0.71325994 0
-2.1785288 -7.7244816 0.69680393 8
-2.0894995 -7.4088078 0.39601636 23
-4.6172872 -16.371668 0.57409841 12
-4.8171091 -13.292614 0.39319631 11
-3.9802165 -19.407295 0.43435839 2
-5.4889064 -19.462198 0.32401752 40
-7.1844788 -19.825274 0.21346825 3
-5.5867715 -27.240759 0.11745221 84
-5.4950323 -19.483919 -0.033565808 43
-9.7630463 -26.940723 -0.21605912 44
-5.5863171 -27.238544 -0.37370145 54
-5.4766436 -19.418716 -0.39022154 67
-9.7275171 -26.842682 -0.72070539 38
-5.5889363 -27.251314 -0.86597037 56
-3.6814606 -13.053476 -0.50277287 3
-4.6497798 -12.830876 -0.58631325 1
-3.6128266 -17.615923 -0.877922 1
-3.6015024 -12.769966 -0.72670442 4
-4.9692955 -13.712566 -0.88440466 0
-3.3052447 -16.116173 -1.094734 3
-3.5617292 -12.628942 -0.95092642 42
-4.5664816 -12.601017 -1.0501257 87
-1.6704519 -8.1450224 -0.70038468 1
-3.5469108 -12.576399 -1.1781528 55
-4.5540695 -12.566767 -1.2837509 41
-1.4750482 -7.192246 -0.74848652 14
-3.5450807 -12.569909 -1.4086504 15
-3.5615525 -12.628314 -1.6477889 1
-3.5521648 -12.595028 -1.8750488 1
-3.4773431 -12.329731 -2.0645573 5
-3.0941834 -10.971149 -2.0387053 3
-2.7752402 -9.8402615 -2.0108969 3
-2.5054598 -8.8836918 -1.9789604 3
-2.2887301 -8.1152267 -1.9573319 4
-2.1141641 -7.4962616 -1.9455475 9
-1.4948846 -5.3004618 -1.8945711 5
-1.0884128 -3.859221 -1.8691034 9
-0.77777719 -2.6858728 0.73811466 1
-1.0738322 -3.7082298 0.7460165 1
-1.4148154 -4.8857365 0.71159732 0
-2.1780891 -7.5215244 0.67985094 9
-2.1489499 -7.4208989 0.39745492 19
-4.741478 -16.373594 0.57531273 11
-6.0636444 -16.374596 0.4856019 3
-4.9887414 -23.490332 0.52650833 9
-5.6357694 -19.461821 0.32465839 36
-7.2588129 -19.602095 0.21160567 3
-5.7876143 -27.251959 0.11767185 114
-5.6398225 -19.475817 -0.033618864 42
-9.8605986 -26.628098 -0.21409878 41
-5.7879744 -27.253654 -0.37445402 58
-5.6243143 -19.422264 -0.39107236 79
-9.8258009 -26.534128 -0.71424532 35
-5.7848639 -27.239008 -0.86684155 54
-3.774725 -13.035136 -0.50306922 4
-4.7447915 -12.813093 -0.58700001 1
-3.557276 -16.750034 -0.83598614 0
-3.7005641 -12.779039 -0.72867322 44
-4.7570992 -12.84633 -0.8306576 0
-3.4077268 -16.045856 -1.0915469 35
-3.6564672 -12.62676 -0.95266116 48
-4.6626477 -12.591268 -1.0520004 71
-1.722306 -8.1097679 -0.69837016 0
-3.6390564 -12.566636 -1.1795896 54
-4.6582804 -12.579474 -1.2883397 39
-1.5301837 -7.2051282 -0.75092065 18
-3.7112885 -12.816072 -1.4391054 5
-3.6374846 -12.561208 -1.6423063 2
-3.6333995 -12.547101 -1.8716447 2
-3.5655332 -12.31274 -2.0658302 5
-3.1696057 -10.945498 -2.0380011 3
-2.8471456 -9.8319559 -2.0132129 3
-2.573946 -8.888525 -1.9839916 4
-2.3377428 -8.0728512 -1.9510005 4
-2.1653669 -7.4775915 -1.9445782 10
-1.538165 -5.3116951 -1.9023783 5
-1.1173455 -3.8584929 -1.8724834 9
-0.80877811 -2.7251475 0.75036556 0
-1.0995198 -3.7047911 0.74677539 1
-1.4483151 -4.8800435 0.71215153 0
-2.1803062 -7.3464603 0.66531974 9
-2.2003932 -7.4141426 0.39786592 20
-4.8533802 -16.353283 0.57571751 8
-4.8322539 -12.788189 0.38018614 9
-5.1427073 -23.448917 0.52633297 10
-5.7783766 -19.470022 0.32542741 39
-7.3236241 -19.381409 0.20974308 2
-5.9742217 -27.240326 0.11779011 78
-5.7779722 -19.46866 -0.033671923 42
-9.9436722 -26.315165 -0.21210828 51
-5.9797335 -27.265455 -0.37515283 54
-5.7643838 -19.422874 -0.39184585 62
-9.9153452 -26.2402 -0.70808804 34
-5.976521 -27.250811 -0.86845952 51
-3.8610947 -13.009814 -0.50306922 1
-4.8452058 -12.822465 -0.58888859 1
-3.6605821 -16.690952 -0.83423072 0
-3.7886462 -12.765701 -0.72932947 47
-4.8492517 -12.833172 -0.83186817 0
-3.5072289 -15.991715 -1.0894222 255
-3.7458067 -12.621355 -0.95410681 47
-4.76015 -12.597371 -1.0551248 85
-3.4948957 -15.935481 -1.3742447 43
-3.7279892 -12.56132 -1.1813855 66
-4.7514606 -12.574375 -1.2910166 47
-1.5864596 -7.2336912 -0.75497746 16
-3.7418942 -12.608172 -1.4185162 1
-3.7636237 -12.681389 -1.6612464 2
-3.7278013 -12.560687 -1.877318 0
-3.6527343 -12.307752 -2.0690124 7
-3.2600546 -10.984632 -2.0492685 3
-2.9223416 -9.8467207 -2.0201602 3
-2.6328406 -8.8712578 -1.9839916 4
-2.3978844 -8.0795813 -1.9564275 4
-2.216017 -7.4667859 -1.9455475 7
-1.5733597 -5.3013768 -1.9023783 4
-1.1408485 -3.8440464 -1.8691034 9
-0.83341402 -2.7379346 0.75547004 1
-1.1173509 -3.6707251 0.74146301 0
-1.4811941 -4.866024 0.71159732 0
-2.1769984 -7.1518822 0.6490587 15
-2.2509351 -7.3947797 0.3976604 19
-4.9720817 -16.334301 0.57625717 9
-6.3248596 -16.391254 0.48860425 7
-4.3525157 -19.204208 0.43172807 4
-8.299386 -27.265173 0.45667502 39
-7.3881965 -19.146955 0.20775904 2
-6.174859 -27.244766 0.11799285 83
-8.3085947 -27.295424 -0.047307823 48
-10.042187 -26.024931 -0.21032891 49
-6.1717043 -27.230846 -0.37526032 57
-5.9079876 -19.408941 -0.39238727 31
-10.014802 -25.953962 -0.70223355 36
-6.1710405 -27.227919 -0.8690818 47
-3.9285426 -12.906062 -0.50010562 3
-4.9475532 -12.821882 -0.59043378 2
-4.0401812 -17.826122 -0.89235574 0
-3.8834875 -12.758046 -0.73042327 63
-4.9142904 -12.735681 -0.82775241 0
-3.6179042 -15.962948 -1.0891566 134
-3.8431201 -12.625432 -0.95641977 46
-4.8652067 -12.608477 -1.0588741 90
-3.1038733 -13.694936 -1.1828644 1
-3.8190701 -12.546423 -1.1824632 70
-4.2041378 -10.895276 -1.121609 1
-1.6474767 -7.2690105 -0.75984567 6
-3.8217149 -12.555111 -1.4155135 2
-3.8254797 -12.56748 -1.6497827 3
-3.8511417 -12.651784 -1.8949054 0
-3.7604158 -12.353731 -2.0811043 6
-3.3412461 -10.976673 -2.0520854 4
-2.9955823 -9.8410978 -2.023248 3
-2.6981242 -8.8638868 -1.9865072 3
-2.4610379 -8.0850105 -1.9618545 4
-2.2703493 -7.458559 -1.9474863 5
-1.6070263 -5.2794085 -1.8984747 5
-1.1697677 -3.8429251 -1.8724834 10
-0.83868366 -2.687746 0.7432192 1
-1.1441201 -3.666584 0.74222189 0
-1.5056891 -4.8253117 0.70716369 0
-2.1366603 -6.8473973 0.62276417 28
-2.308455 -7.3979516 0.39868796 20
-5.2777181 -16.913609 0.59797984 14
-6.4420686 -16.354139 0.48882663 8
-4.4737244 -19.118839 0.43050057 14
-7.3565617 -23.575718 0.39572948 4
-7.4645166 -18.949774 0.20617989 29
-6.3804059 -27.267204 0.11828005 90
-8.5060987 -27.259663 -0.047347616 51
-10.135673 -25.730896 -0.20851937 63
-6.3780642 -27.257196 -0.37622792 55
-8.4926071 -27.216425 -0.55141515 69
-10.109283 -25.663904 -0.69627815 38
-6.3782845 -27.258139 -0.87144649 53
-4.0197392 -12.882137 -0.5002538 6
-5.0559869 -12.835366 -0.59266573 3
-4.1508784 -17.73913 -0.88942999 2
-3.9819784 -12.761125 -0.73217332 43
-5.0060091 -12.708491 -0.82823658 0
-3.1454537 -13.442363 -0.91865224 11
-3.9359221 -12.613527 -0.95757627 41
-4.3056564 -10.930542 -0.92046124 1
-3.1104076 -13.29259 -1.1499604 10
-3.9148743 -12.546075 -1.1849775 74
-4.1823263 -10.61745 -1.0959874 11
-3.0944481 -13.224386 -1.3845986 5
-3.9234889 -12.573682 -1.4206609 2
-3.9213996 -12.566987 -1.6532716 3
-3.9157848 -12.548993 -1.8835588 1
-3.8477459 -12.330947 -2.0817409 5
-3.4201422 -10.960597 -2.053494 5
-3.058368 -9.8012114 -2.0193882 3
-2.7634351 -8.8560343 -1.9890229 3
-2.5255466 -8.0936689 -1.9681859 4
-2.3223646 -7.4425273 -1.9474863 6
-1.6472245 -5.278893 -1.9023783 5
-1.1987278 -3.8415868 -1.8758633 8
-0.85954231 -2.6852095 0.74424011 0
-1.1709666 -3.6580987 0.74222189 0
-1.5410199 -4.8141451 0.70716369 0
-2.1855817 -6.8277555 0.62241822 28
-2.3674939 -7.396049 0.39951 20
-5.3028388 -16.566065 0.58705103 17
-6.5826707 -16.35841 0.49038342 11
-4.6137519 -19.085533 0.43050057 7
-7.5499096 -23.585913 0.39681894 5
-10.259569 -25.495768 0.27821326 38
-6.5885715 -27.254694 0.1184321 60
-8.7325211 -27.280388 -0.047493529 46
-10.232925 -25.429556 -0.20667967 35
-6.5861559 -27.244699 -0.3767117 54
-8.7065153 -27.199146 -0.55234331 68
-10.206073 -25.362825 -0.69012088 35
-6.5854406 -27.241741 -0.87244213 50
-4.1359963 -12.92085 -0.50292104 14
-5.1544113 -12.809083 -0.59318078 6
-4.2948823 -17.766478 -0.89235574 1
-4.0875912 -12.769632 -0.73436087 23
-3.1838863 -13.170661 -0.9016549 9
-4.041657 -12.626133 -0.9607566 35
-4.2591243 -10.58423 -0.89390349 14
-3.1525056 -13.040851 -1.1301509 21
-4.0128088 -12.536012 -1.1867734 60
-4.1946387 -10.42398 -1.0791614 9
-3.1464221 -13.015685 -1.3651259 46
-4.0143404 -12.540795 -1.4202319 2
-4.0497131 -12.6513 -1.6682243 11
-4.0221534 -12.565205 -1.8903668 0
-3.9428484 -12.317455 -2.0842865 4
-3.5063972 -10.953982 -2.0570149 5
-3.134918 -9.7934818 -2.022476 3
-2.8330481 -8.85044 -1.992377 3
-2.5871837 -8.0823593 -1.9699949 4
-2.3756752 -7.4216075 -1.9465169 5
-1.6858764 -5.2666764 -1.9023783 6
-1.2279611 -3.8361492 -1.8775532 9
-0.86381066 -2.6350422 0.73198926 1
-1.1903596 -3.6311753 0.73842734 0
-1.5721235 -4.7957406 0.70605528 0
-2.235678 -6.8199043 0.62311018 20
-2.4277811 -7.4059124 0.40094855 22
-5.3797579 -16.410877 0.58286846 19
-6.7179732 -16.36384 0.4919402 12
-4.7497773 -19.064501 0.4307636 16
-6.3302326 -19.310286 0.32561967 3
-10.358322 -25.231112 0.27610776 44
-6.7854471 -27.235203 0.11855037 66
-8.9377136 -27.264372 -0.047573116 61
-10.332735 -25.168785 -0.20514156 41
-6.787796 -27.244631 -0.37735677 55
-8.9173679 -27.202305 -0.55365825 70
-10.300884 -25.091202 -0.68467015 36
-6.7880216 -27.245539 -0.87406003 49
-4.2410426 -12.937242 -0.50469917 18
-5.2664757 -12.828238 -0.59575611 9
-3.4374936 -13.797298 -0.69418448 0
-5.4299822 -13.226512 -0.86697316 0
-3.2236507 -12.938982 -0.88731343 30
-4.144619 -12.643102 -0.96422607 25
-4.2935362 -10.458323 -0.88577992 5
-3.2068512 -12.871554 -1.1173922 26
-4.110157 -12.537977 -1.189647 62
-4.2053118 -10.243423 -1.0634826 4
-3.2006521 -12.846672 -1.3497099 97
-4.1897511 -12.780778 -1.4506868 4
-4.1206288 -12.569921 -1.6612464 3
-4.111011 -12.540582 -1.8909341 2
-4.0312047 -12.297133 -2.0855594 5
-3.5925977 -10.959168 -2.0626488 4
-3.209326 -9.7900047 -2.0263357 3
-2.8959851 -8.8341627 -1.9932156 4
-2.6435463 -8.0641012 -1.9699949 4
-2.4371011 -7.4343429 -1.9542719 5
-1.7226037 -5.2547784 -1.9023783 4
-1.192598 -3.6380036 -1.784605 23
-0.89079833 -2.6546137 0.73913556 3
-1.2031868 -3.5855434 0.73083812 0
-1.5803608 -4.7095366 0.6949712 0
-2.2883065 -6.8192425 0.62449408 30
-2.4832377 -7.4001446 0.4015651 20
-5.4077139 -16.115198 0.57369363 18
-6.1154881 -14.605223 0.44034427 2
-4.4484472 -17.338123 0.39244816 1
-6.3669176 -18.973661 0.32068506 5
-10.447706 -24.951576 0.27384025 49
-6.9903302 -27.245285 0.11880379 84
-9.1507425 -27.269567 -0.047692496 81
-10.417047 -24.878355 -0.20336218 53
-6.9857855 -27.22757 -0.37778679 55
-9.1286879 -27.203844 -0.55497313 73
-10.386226 -24.804749 -0.67881566 38
-5.1210241 -19.959536 -0.64145029 9
-4.3363447 -12.922477 -0.50529188 19
-5.3744273 -12.835395 -0.59781635 16
-3.4344432 -13.385975 -0.67467946 0
-5.895371 -14.079531 -0.92556226 0
-3.2851381 -12.804048 -0.87961149 30
-4.2391291 -12.63277 -0.96567172 47
-4.3649044 -10.424417 -0.88546747 2
-3.2669163 -12.733027 -1.1073196 27
-4.2089949 -12.542969 -1.1928798 68
-4.2336621 -10.11098 -1.0527751 1
-3.2507026 -12.669833 -1.3334825 41
-4.267489 -12.717283 -1.4468263 3
-4.2158589 -12.563423 -1.6642369 2
-4.7312984 -14.099453 -2.1309178 3
-4.127007 -12.298642 -2.0906508 5
-3.6727774 -10.94502 -2.0647614 4
-3.2875841 -9.7971277 -2.0325112 3
-2.9575887 -8.8137293 -1.9932156 3
-2.7047381 -8.0602255 -1.9736129 4
-2.4889433 -7.4171476 -1.9542719 5
-1.7664669 -5.2641401 -1.9101856 5
-1.199513 -3.5745952 -1.7575656 4
-0.90554082 -2.6373563 0.73607284 2
-1.2294638 -3.580771 0.73159707 0
-1.6029083 -4.6684146 0.69053757 3
-2.3345623 -6.7993321 0.62414813 20
-2.5413244 -7.4015193 0.40259263 21
-5.4746456 -15.944716 0.56897134 24
-6.1372313 -14.374629 0.43467319 8
-4.5407977 -17.198381 0.38999316 0
-6.6524777 -19.375111 0.32824719 1
-10.521131 -24.642601 0.27124885 52
-5.2259846 -19.793543 0.086467266 25
-9.3642721 -27.273119 -0.047811877 56
-10.508806 -24.613735 -0.20179391 36
-5.1826768 -19.629513 -0.27285796 17
-9.3443518 -27.215101 -0.5565201 65
-5.2081304 -12.198488 -0.33481511 13
-5.1438937 -19.48262 -0.62726223 34
-4.4342408 -12.914573 -0.506181 18
-5.4748883 -12.823289 -0.59901816 28
-3.4645779 -13.122172 -0.66258633 0
-4.3878436 -12.779443 -0.74004847 0
-5.2143478 -12.21305 -0.80523676 0
-3.358146 -12.719059 -0.87536216 42
-4.3414674 -12.644374 -0.96885204 86
-4.4078231 -10.324008 -0.87953103 2
-3.3343625 -12.628979 -1.1002687 40
-4.3029246 -12.532119 -1.1946757 53
-4.2775683 -10.018925 -1.0462742 6
-3.3319647 -12.619897 -1.3306427 48
-4.3122554 -12.559294 -1.4322423 2
-4.321506 -12.586237 -1.6712148 1
-4.8360419 -14.084805 -2.1337543 3
-4.214047 -12.273266 -2.0912871 4
-3.747817 -10.915388 -2.0640571 4
-3.3609967 -9.7887869 -2.035599 4
-3.0317471 -8.8298588 -2.001601 3
-2.7647374 -8.0522022 -1.9763263 4
-2.5406623 -7.399591 -1.9542719 5
-1.8007166 -5.244525 -1.9075832 5
-1.2161969 -3.5421314 -1.7457359 8
-0.91880512 -2.616374 0.73198926 5
-1.2414196 -3.5350454 0.72400784 0
-1.6249603 -4.6272097 0.68610394 1
-2.387255 -6.7979074 0.62553203 15
-2.5969055 -7.3949041 0.40320918 15
-5.5937743 -15.928738 0.56978089 22
-5.2959933 -12.168338 0.36906633 20
-5.1521873 -18.976284 0.43111432 12
-6.7624006 -19.256498 0.32702956 13
-5.2690382 -12.106403 0.1336606 21
-5.2781005 -19.440039 0.085081898 63
-9.569025 -27.248594 -0.047884829 96
-5.2404261 -12.040664 -0.099012017 22
-5.279767 -19.446178 -0.27081528 50
-9.5513468 -27.198256 -0.55752563 67
-5.2229486 -12.000505 -0.33037379 20
-5.2818775 -19.453951 -0.62751114 53
-4.5335641 -12.909701 -0.50721824 19
-5.266047 -12.099531 -0.56691259 24
-3.5226047 -12.974284 -0.65634471 0
-4.495481 -12.801257 -0.74311107 0
-5.2341537 -12.026252 -0.7953105 26
-3.4458141 -12.691453 -0.87509662 52
-4.4428544 -12.651398 -0.97174329 77
-4.4606919 -10.249107 -0.87578171 1
-3.4245369 -12.613086 -1.1009402 59
-4.40483 -12.54312 -1.1986269 60
-4.3346958 -9.9596119 -1.0432149 42
-3.423115 -12.607849 -1.3318598 45
-4.4077368 -12.551396 -1.434816 45
-4.4197893 -12.585718 -1.6752023 1
-4.9368777 -14.05817 -2.1348891 3
-4.3009362 -12.247273 -2.0919235 4
-3.8304527 -10.907533 -2.0675781 4
-3.431854 -9.7724905 -2.037143 5
-3.0907254 -8.8010979 -1.9999239 3
-2.8234668 -8.0400562 -1.9781353 3
-2.5948308 -7.3889966 -1.9562107 5
-1.8372864 -5.2318258 -1.9075832 5
-1.2408959 -3.5335543 -1.7457359 8
-0.93966228 -2.6171758 0.73403102 4
-1.2766855 -3.5558631 0.73007923 0
-2.7830131 -7.7513328 1.1521891 38
-2.4306157 -6.769824 0.62449408 11
-2.6552179 -7.3953934 0.4042367 23
-5.6737709 -15.802759 0.56667763 18
-5.3013754 -11.95197 0.36361763 21
-5.3006582 -18.997633 0.43242949 14
-6.8845081 -19.17494 0.32645279 2
-5.2707181 -11.882854 0.13159557 23
-5.4265842 -19.448954 0.085284635 53
-9.7076597 -27.038067 -0.047632806 34
-5.243268 -11.820967 -0.097504064 22
-5.4293675 -19.458927 -0.27151409 45
-9.7531567 -27.164789 -0.55822176 59
-5.2174277 -11.762709 -0.32482213 21
-5.4272289 -19.451263 -0.62863123 45
-4.6357374 -12.911595 -0.50855184 19
-5.2628903 -11.865205 -0.55764145 27
-3.5841031 -12.845474 -0.65107834 0
-4.5658464 -12.716933 -0.74004847 0
-5.2321849 -11.79598 -0.78247899 25
-3.540766 -12.690154 -0.87669009 50
-4.5405068 -12.646358 -0.97376716 72
-4.5062652 -10.15939 -0.87078261 1
-3.5146489 -12.59655 -1.1016117 43
-4.5057526 -12.549559 -1.2022188 65
-4.365375 -9.841754 -1.034037 9
-3.5121176 -12.587478 -1.3322655 46
-4.5100369 -12.561492 -1.4395343 51
-4.5169344 -12.580703 -1.6786911 1
-5.0509582 -14.068082 -2.1416972 3
-4.3956747 -12.242966 -2.0963786 4
-3.9171531 -10.910173 -2.0732119 4
-3.5026479 -9.755681 -2.0386868 6
-3.1626666 -8.8087549 -2.0066323 4
-2.8808451 -8.0238171 -1.9790399 2
-2.6555324 -7.3962688 -1.9629964 5
-1.8763229 -5.2259912 -1.9101856 4
-1.2802359 -3.5657518 -1.7660154 6
-0.95791072 -2.6105521 0.73403102 4
-1.2852443 -3.5026197 0.72097218 1
-2.8466122 -7.7577472 1.1560686 55
-2.4750731 -6.7452083 0.62380213 9
-2.7136631 -7.3954268 0.40526426 20
-5.7867112 -15.770269 0.56694752 25
-5.2957659 -11.717914 0.35761294 20
-5.4386654 -18.979385 0.43286785 15
-7.0099406 -19.103882 0.32606825 7
-5.2777743 -11.678104 0.12973298 40
-5.5754538 -19.456736 0.085487373 52
-9.7955961 -26.695509 -0.047148652 39
-5.271306 -11.663791 -0.096508816 50
-5.5750003 -19.455153 -0.2719979 43
-9.8585281 -26.867014 -0.55350351 42
-5.2714238 -11.664052 -0.32310617 48
-4.0188065 -14.024484 -0.45414284 4
-4.7395339 -12.916443 -0.51003367 17
-5.2682433 -11.657015 -0.54957211 45
-3.6802974 -12.843184 -0.65224862 0
-4.6751537 -12.740992 -0.74332982 0
-5.2634354 -11.646377 -0.77497381 50
-3.6303732 -12.668962 -0.87695569 58
-4.6383047 -12.640568 -0.97579104 71
-4.560658 -10.091345 -0.86765814 0
-3.6123857 -12.606192 -1.1046336 40
-4.6069784 -12.555197 -1.2058107 50
-4.4372568 -9.8182955 -1.0348018 10
-3.5988131 -12.558826 -1.3318598 4
-4.607213 -12.555835 -1.442537 53
-4.6196933 -12.589848 -1.6841738 2
-5.1572332 -14.054781 -2.1451011 3
-4.4851208 -12.223103 -2.0982878 4
-3.9986506 -10.897346 -2.0760288 3
-3.57743 -9.7494135 -2.0425465 3
-3.2213912 -8.7791157 -2.0049551 3
-2.9435027 -8.0217981 -1.9835624 2
-2.7071033 -7.3775496 -1.9629964 5
-1.9114585 -5.2092137 -1.9088844 4
-1.3925211 -3.7949765 -1.8843131 12
-0.97746938 -2.6074226 0.73505193 11
-1.2986363 -3.4641426 0.71490085 2
-2.9048717 -7.7488136 1.1577312 40
-2.5011189 -6.6717935 0.61861241 10
-2.7736385 -7.3987455 0.40649733 23
-5.9177132 -15.785639 0.56897134 26
-5.3557057 -11.633439 0.35616738 45
-5.5879602 -18.998503 0.43418303 15
-7.1627898 -19.106909 0.32696548 4
-5.3625193 -11.648239 0.12981397 50
-5.7201805 -19.448036 0.085622527 58
-9.9002829 -26.409237 -0.046763979 37
-5.3659873 -11.655773 -0.096750088 47
-5.7197156 -19.446455 -0.27242792 41
-9.950388 -26.542892 -0.54824382 46
-5.3677754 -11.659657 -0.3240146 43
-4.1188741 -14.003757 -0.45439175 3
-4.8464265 -12.927957 -0.51181179 17
-5.3511677 -11.623582 -0.54974377 55
-3.7574687 -12.775015 -0.65010309 0
-4.8228698 -12.865118 -0.75251752 0
-5.3563018 -11.634734 -0.77666849 51
-3.7221091 -12.654796 -0.87775242 73
-4.7362394 -12.634029 -0.97781491 44
-4.6009803 -9.9940567 -0.86203414 0
-3.7048042 -12.595961 -1.1059766 45
-4.7043042 -12.548841 -1.208325 53
-4.4940376 -9.7617598 -1.032125 29
-3.7773552 -12.842627 -1.3647201 3
-4.7087135 -12.560604 -1.4468263 53
-4.7186165 -12.587021 -1.6881613 2
-5.2649541 -14.044389 -2.1490724 3
-4.5786591 -12.21368 -2.1021063 4
-4.073246 -10.865479 -2.0753245 2
-3.6550481 -9.7499266 -2.04795 3
-3.2867193 -8.7674007 -2.0074708 3
-2.9953284 -7.990109 -1.9808489 2
-2.7653515 -7.3766398 -1.9678433 5
-1.9530886 -5.2099099 -1.9140893 4
-1.4126172 -3.7681894 -1.8758633 11
-1.0025631 -2.6185942 0.74015647 37
-1.3213848 -3.4513242 0.71414196 3
-2.9716458 -7.7616405 1.162719 35
-2.5590348 -6.6839418 0.62138027 7
-2.8280807 -7.3866625 0.40690833 21
-6.0320616 -15.755139 0.56937611 27
-5.4571609 -11.639209 0.35750175 44
-5.7262344 -18.97817 0.43462142 16
-7.3060174 -19.082584 0.32741407 9
-5.4640846 -11.653976 0.13029985 52
-5.8685241 -19.449755 0.085808374 55
-9.9971704 -26.111607 -0.046359412 39
-5.4710016 -11.668729 -0.09717232 49
-5.8692017 -19.452 -0.27307299 22
-10.048223 -26.244951 -0.54352564 42
-5.4626245 -11.650863 -0.32482213 46
-4.2280874 -14.012937 -0.45563632 7
-4.9437089 -12.912471 -0.51255268 14
-5.4491501 -11.622124 -0.55146068 53
-3.8569505 -12.782897 -0.65185857 37
-4.8897185 -12.771454 -0.74901748 0
-5.4543467 -11.633207 -0.77908957 48
-3.8230476 -12.670534 -0.88067383 50
-4.8500028 -12.66772 -0.98301911 25
-4.6401682 -9.8967009 -0.85641015 1
-3.7961042 -12.581237 -1.1069838 43
-4.8046169 -12.549177 -1.2115577 58
-4.5181308 -9.6364155 -1.0221823 1
-3.8830144 -12.869279 -1.3703997 4
-4.8119302 -12.568278 -1.4515448 51
-4.1394148 -10.811736 -1.4539021 5
-4.1269212 -10.779104 -1.6537873 5
-4.3729444 -11.421692 -1.9710031 3
-4.160265 -10.866195 -2.0809584 2
-3.7174132 -9.7095098 -2.0448623 2
-3.3576365 -8.7698097 -2.0133407 4
-3.0649688 -8.0053911 -1.9898939 3
-2.8195581 -7.3644028 -1.969782 5
-1.9934704 -5.2067447 -1.9179929 4
-1.440186 -3.7616212 -1.8775532 11
-1.02786 -2.6295419 0.74526101 62
-1.3468771 -3.445673 0.71490085 5
-3.0344131 -7.7628431 1.1660442 29
-2.5969305 -6.6436448 0.61930442 8
-2.8883064 -7.3890629 0.4081414 25
-6.1550055 -15.746156 0.57059044 27
-5.5572309 -11.64052 0.35872492 48
-5.3740163 -17.371365 0.39867333 1
-7.4419727 -19.038563 0.32754225 6
-5.5642643 -11.655252 0.13074526 52
-8.4299488 -27.249586 0.12047637 72
-10.088933 -25.810198 -0.045948215 33
-5.5678377 -11.662739 -0.097443745 47
-8.426899 -27.239729 -0.38321599 63
-10.142387 -25.946949 -0.53880739 43
-5.5644999 -11.655746 -0.32603338 43
-4.3293581 -13.994535 -0.45600969 6
-5.0570188 -12.937211 -0.51492357 12
-5.5490913 -11.62347 -0.55334926 56
-3.9496403 -12.767108 -0.65244371 41
-4.9816694 -12.744447 -0.74945498 0
-5.5285454 -11.580434 -0.77812111 44
-3.9208479 -12.674038 -0.88279849 39
-4.9484892 -12.659563 -0.98504299 19
-4.7005548 -9.8460732 -0.85484791 5
-3.8920915 -12.581083 -1.1093341 44
-4.9080639 -12.556145 -1.2155089 56
-4.6281781 -9.6944695 -1.0317426 28
-3.9727645 -12.841856 -1.3703997 3
-4.2711854 -10.926838 -1.2653832 4
-4.1396589 -10.590359 -1.427984 17
-4.1227889 -10.547201 -1.6225837 14
-4.4367614 -11.350427 -1.9640025 2
-4.240325 -10.847889 -2.083071 3
-3.7965388 -9.7125654 -2.0510378 2
-3.4202034 -8.7497978 -2.0141792 4
-3.115108 -7.9692826 -1.9862759 4
-2.8723156 -7.3481541 -1.9707514 5
-2.0228868 -5.175087 -1.9114869 5
-1.4703716 -3.761605 -1.8826232 10
-1.0433264 -2.6151175 0.7432192 71
-1.3738102 -3.4434817 0.71641868 6
-3.0973415 -7.763546 1.1693695 29
-2.6373417 -6.610548 0.61792046 7
-2.9501832 -7.3946905 0.40957996 22
-6.2736726 -15.72508 0.57139999 29
-5.6523442 -11.63021 0.35961449 44
-5.4516492 -17.196192 0.3955169 3
-7.6028643 -19.056725 0.32875988 8
-5.6594849 -11.644902 0.13106918 51
-8.632062 -27.228203 0.12064532 106
-10.17846 -25.512505 -0.045543648 39
-5.6701045 -11.666753 -0.097805656 48
-8.6361942 -27.241238 -0.38407606 57
-10.23733 -25.660065 -0.53432119 46
-5.6667118 -11.659773 -0.32724467 44
-4.4402399 -14.005894 -0.45737872 5
-5.1561012 -12.923866 -0.51581264 10
-5.6510653 -11.627579 -0.55540949 77
-4.0483313 -12.769692 -0.6540041 38
-5.2895622 -13.258389 -0.78183073 0
-5.6424174 -11.609784 -0.7827211 13
-4.0200858 -12.680598 -0.88518876 42
-5.0485754 -12.654351 -0.98735595 14
-4.7691789 -9.8130169 -0.85484791 20
-3.9834394 -12.565004 -1.1103413 45
-4.714891 -9.7013149 -1.0359491 36
-4.0707355 -12.840363 -1.3732395 5
-4.2383122 -10.62341 -1.2336415 15
-4.1517243 -10.406376 -1.4070503 18
-4.131763 -10.356342 -1.597621 11
-4.8510013 -12.159127 -2.1097434 4
-4.3042808 -10.788763 -2.0774372 2
-3.8598897 -9.6748877 -2.048722 3
-3.4913497 -8.7511349 -2.0200489 4
-3.1807752 -7.9726739 -1.9926074 4
-2.9307356 -7.3459449 -1.9755983 5
-2.0617692 -5.1678643 -1.9140893 6
-1.491223 -3.7377791 -1.8758633 10
-1.0577332 -2.6009753 0.74117738 21
-1.3980968 -3.4379327 0.71717763 9
-2.1817486 -5.3649397 0.81024551 5
-2.6886311 -6.6113682 0.61965036 8
-3.0066845 -7.3934646 0.41060752 24
-6.3898716 -15.712751 0.57247937 26
-5.7559285 -11.646235 0.36128247 44
-5.5853195 -17.22052 0.39691976 4
-7.7411356 -19.035522 0.32927257 8
-5.7560863 -11.646554 0.13151458 52
-8.8359041 -27.242645 0.12096632 78
-10.266068 -25.244352 -0.045185506 33
-5.7668514 -11.668335 -0.098137408 50
-8.8376532 -27.248037 -0.38498989 58
-10.313878 -25.361919 -0.52952558 46
-5.7616353 -11.657782 -0.32825404 48
-4.542901 -14.006561 -0.45837438 4
-5.2447109 -12.896792 -0.51610899 3
-5.7457652 -11.62567 -0.55712634 54
-4.1427951 -12.772964 -0.65556449 41
-5.5323482 -13.604094 -0.80436248 0
-5.2328076 -10.58778 -0.71614259 3
-4.1102557 -12.67264 -0.88651669 43
-5.1504235 -12.664938 -0.99082541 7
-4.8500581 -9.8133459 -0.85765994 34
-4.0752945 -12.564849 -1.1126916 40
-4.2846398 -10.535968 -1.0254959 0
-4.7914782 -9.6948175 -1.038626 36
-4.1484408 -12.790371 -1.3708054 2
-4.2382612 -10.421922 -1.2134811 34
-4.163835 -10.238908 -1.3881102 20
-4.1421833 -10.185666 -1.5754948 19
-4.9434357 -12.155952 -2.1148348 4
-4.3520055 -10.70162 -2.0661697 3
-3.929883 -9.6636181 -2.0518098 3
-3.5463643 -8.720542 -2.0183718 3
-3.2365158 -7.9586215 -1.9944164 4
-2.9779277 -7.322751 -1.9746289 5
-2.1016972 -5.1680923 -1.9192941 7
-1.5159793 -3.7278068 -1.8758633 10
-1.084757 -2.6149616 0.74730283 4
-1.4250736 -3.4353437 0.71869546 14
-2.82934 -6.8205285 1.0330354 1
-2.7194524 -6.5556288 0.61619055 6
-3.0643497 -7.387053 0.41142952 22
-6.5101337 -15.693608 0.5734238 27
-5.8568568 -11.645061 0.36250564 45
-5.7016244 -17.169722 0.39665672 7
-7.8799696 -18.995792 0.3295289 6
-5.8570232 -11.645391 0.13195999 47
-9.0473089 -27.244829 0.12125353 82
-10.35316 -24.957773 -0.044800837 35
-5.8679404 -11.667098 -0.098469153 49
-9.0478334 -27.246408 -0.38584998 56
-10.404873 -25.082434 -0.52519411 44
-5.8680353 -11.667286 -0.32966721 45
-4.6506548 -14.00486 -0.45937002 3
-5.3468728 -12.889401 -0.51729441 3
-5.8483348 -11.628116 -0.55918664 56
-5.8291969 -14.052113 -0.83323818 0
-5.259953 -10.45825 -0.70984793 16
-4.2061744 -12.666363 -0.88811016 25
-5.2585883 -12.676579 -0.99458402 1
-4.9256172 -9.7934971 -0.85890973 50
-4.1779885 -12.581485 -1.1167207 39
-4.2924519 -10.347569 -1.0100505 0
-4.8805122 -9.7038164 -1.0432149 33
-4.1799445 -12.587375 -1.352144 0
-4.2423439 -10.226777 -1.1941787 36
-4.1895924 -10.099611 -1.3731575 18
-4.1883841 -10.096699 -1.7616198 0
-4.4552765 -10.740081 -2.0795498 3
-3.9987557 -9.6395731 -2.0525815 4
-3.6131532 -8.710022 -2.0217261 4
-3.2964773 -7.94663 -1.9971298 4
-3.0289774 -7.3017831 -1.9746289 5
-2.1377258 -5.1532941 -1.9192941 9
-1.5419673 -3.7171326 -1.8758633 11
-1.1060002 -2.614449 0.74934465 1
-1.4520824 -3.4325449 0.72021329 20
-3.2889738 -7.7747316 1.1810076 24
-2.7589428 -6.5218029 0.61480665 5
-3.1267409 -7.391233 0.41286811 22
-6.6351132 -15.684595 0.57477301 28
-5.956224 -11.639483 0.36361763 33
-4.7700572 -14.036043 0.32502353 3
-7.3859868 -17.45957 0.30376643 5
-5.9582214 -11.643387 0.13240539 7
-9.2643147 -27.260538 0.12160832 65
-10.442992 -24.685955 -0.044442695 39
-11.384653 -22.247566 -0.18843347 44
-9.2609873 -27.250746 -0.38681754 50
-10.495589 -24.810287 -0.52101731 48
-11.366778 -22.212637 -0.62986016 39
-4.7611747 -14.009906 -0.46061459 2
-10.466986 -24.742672 -0.99591404 42
-5.9621382 -11.651041 -0.56227702 5
-5.3382916 -10.431938 -0.71057421 12
-4.2957807 -12.64047 -0.88837576 5
-4.6723723 -11.044916 -0.86910456 6
-5.0065832 -9.7837219 -0.8610968 35
-4.2772617 -12.585977 -1.1197425 41
-4.3149185 -10.19994 -0.99855638 0
-4.962647 -9.6978636 -1.0462742 31
-4.2638745 -12.546585 -1.3509269 35
-4.2578573 -10.065053 -1.1787367 48
-4.2182498 -9.971426 -1.3597 24
-4.1821785 -9.886158 -1.5380505 0
-4.2264605 -9.9908352 -1.7482549 8
-4.5531592 -10.763111 -2.0901132 4
-4.0797176 -9.6439533 -2.0595291 5
-3.6769202 -8.6917896 -2.0234032 4
-3.3518751 -7.9234223 -1.9971298 4
-3.0859277 -7.294755 -1.9785064 5
-2.1765981 -5.1452112 -1.9218966 8
-1.5707052 -3.712955 -1.8792433 10
-1.1165673 -2.5889072 0.74424011 1
-1.4744554 -3.4187176 0.71945435 25
-3.3353274 -7.7333932 1.1782366 18
-3.2920604 -7.6330729 0.7217145 19
-3.1877575 -7.391233 0.41410115 23
-5.2689042 -12.216643 0.44902459 8
-8.1753302 -15.704663 0.49238497 18
-4.8154039 -13.851307 0.32151639 0
-5.2474689 -12.166944 0.21231607 18
-8.3683033 -16.075361 0.18346447 1
-9.4714794 -27.244312 0.12182795 60
-5.2196212 -12.102375 -0.021853257 19
-11.463968 -22.022078 -0.18719696 43
-9.4772749 -27.260983 -0.38789263 46
-5.2519121 -12.177246 -0.25648654 2
-11.434793 -21.966034 -0.62511605 42
-9.4761677 -27.257797 -0.89832914 29
-5.2461228 -12.163822 -0.49106666 23
-11.472182 -22.037857 -1.067382 44
-5.2181439 -12.098949 -0.72167307 18
-5.3224964 -10.224421 -0.69895321 3
-4.4101348 -12.685568 -0.89368743 0
-4.7477865 -11.008365 -0.86881542 6
-5.0894947 -9.7768288 -0.86359638 37
-4.3768039 -12.589693 -1.1227643 42
-4.3481574 -10.081772 -0.98993576 0
-5.0467768 -9.694768 -1.0497159 32
-4.3683496 -12.565374 -1.3562008 48
-4.2902212 -9.9474392 -1.168442 54
-4.2563252 -9.8688469 -1.3497316 25
-4.2260056 -9.7985468 -1.5289731 0
-4.2429333 -9.8377953 -1.7266165 31
-4.6281886 -10.731062 -2.0901132 3
-4.145391 -9.6116314 -2.0587571 3
-3.749902 -8.6946392 -2.0301116 4
-3.4117386 -7.9105625 -1.9998434 4
-3.1444638 -7.2908511 -1.9833534 5
-2.215461 -5.1368365 -1.924499 8
-1.5965883 -3.7018988 -1.8792433 10
-1.1417447 -2.5948131 0.74832374 0
-1.5105474 -3.432981 0.72476679 11
-3.4206424 -7.7740035 1.1882123 20
-3.4490349 -7.8385305 0.74351126 7
-3.2515037 -7.3896065 0.41533422 24
-5.2794185 -11.998395 0.44241333 21
-8.301465 -15.665511 0.49305215 26
-4.8162479 -13.533071 0.31494054 0
-5.2543631 -11.941452 0.2090477 17
-8.4334755 -15.914626 0.18233073 14
-9.6923933 -27.234446 0.12209827 110
-5.2356982 -11.899034 -0.021554805 19
-11.542682 -21.781942 -0.18586995 69
-9.6768532 -27.190781 -0.38789263 39
-5.2766047 -11.992 -0.25339261 19
-11.526228 -21.750891 -0.62138128 40
-9.642211 -27.093439 -0.89521772 22
-5.2562604 -11.945764 -0.48380587 35
-11.556699 -21.808393 -1.0603428 45
-4.5571594 -12.805064 -0.66356158 0
-5.2198272 -11.862964 -0.70986027 24
-5.3748679 -10.142796 -0.69604802 3
-4.5110354 -12.67546 -0.8952809 0
-4.6323252 -10.527762 -0.83354241 0
-5.19837 -9.8097296 -0.86984527 0
-4.4729824 -12.568537 -1.1237715 74
-4.3818293 -9.9584675 -0.9809559 1
-5.1400795 -9.6997309 -1.0543047 29
-4.4763517 -12.578004 -1.361069 46
-4.3405981 -9.8647633 -1.1624368 74
-4.2981806 -9.7683611 -1.3402615 29
-4.2737956 -9.7129421 -1.5204631 0
-4.2974358 -9.7666693 -1.7196159 33
-4.3848019 -9.9652233 -1.9471573 3
-4.2267995 -9.6061344 -2.0641606 4
-3.8151093 -8.6704979 -2.0309501 4
-3.4774787 -7.9031739 -2.0043659 3
-3.200948 -7.2747102 -1.9852921 5
-2.2484851 -5.1100726 -1.9205954 6
-1.6295214 -3.7033701 -1.8860031 10
-1.1677437 -2.604424 0.75342828 0
-1.5473316 -3.4510207 0.73083812 4
-2.2090466 -4.926847 0.75537938 9
-3.1596651 -7.0470157 0.67050946 9
-3.3128195 -7.3885965 0.41656727 24
-5.2812753 -11.778853 0.43566719 20
-8.4637403 -15.705733 0.49616572 27
-6.2325912 -17.133205 0.39972547 33
-5.2606959 -11.732955 0.20603567 18
-10.648686 -19.760227 0.22723518 7
-9.8098164 -26.96689 0.12120284 74
-5.2417259 -11.690645 -0.02124309 35
-11.628055 -21.577589 -0.18481439 46
-9.7816725 -26.889524 -0.38455987 35
-5.2783856 -11.772408 -0.2495252 26
-11.596227 -21.518528 -0.61704093 39
-9.7368164 -26.766214 -0.88663018 27
-5.2577596 -11.726405 -0.47639692 28
-11.634731 -21.589979 -1.053647 46
-5.2289863 -11.662232 -0.70001632 45
-5.4379711 -10.090966 -0.69507957 4
-4.6116962 -12.677415 -0.89767116 0
-4.6583753 -10.389595 -0.82515782 0
-5.278079 -9.7942629 -0.87171996 0
-4.5715189 -12.566969 -1.1264576 78
-4.4333167 -9.8876467 -0.97700477 11
-5.2171159 -9.6811371 -1.0562168 52
-4.5749364 -12.576363 -1.3643144 45
-4.3898363 -9.7906723 -1.1572895 50
-4.3500342 -9.7019014 -1.3352772 32
-4.3220615 -9.639513 -1.5136551 23
-4.3461275 -9.6931887 -1.7119788 34
-4.7957859 -10.696064 -2.096451 4
-4.2857308 -9.558485 -2.0603011 5
-3.8867483 -8.6686325 -2.0368197 4
-3.5325685 -7.8787041 -2.0043659 4
-3.251657 -7.2521858 -1.9852921 5
-2.2902954 -5.1080565 -1.9258002 6
-1.6538526 -3.6885951 -1.8843131 10
-1.1489387 -2.5152967 0.72994745 0
-1.5550689 -3.4044111 0.72324896 1
-2.2088244 -4.8356357 0.7437411 11
-3.1541469 -6.905169 0.65909213 9
-3.3726199 -7.3834572 0.41759482 23
-5.3218536 -11.650788 0.4322941 39
-8.5847054 -15.667303 0.49683291 33
-6.3576241 -17.104269 0.40007618 24
-5.3308473 -11.670478 0.20558707 33
-10.845957 -19.794144 0.2284904 5
-9.911437 -26.665289 0.12015537 41
-5.3348479 -11.679235 -0.021289516 37
-11.695757 -21.345051 -0.18351755 55
-9.8771868 -26.573143 -0.38101205 37
-5.3122568 -11.629778 -0.2472821 84
-11.673149 -21.303791 -0.61320525 43
-9.8426504 -26.480228 -0.8794117 33
-5.3179069 -11.642148 -0.47447059 59
-11.704515 -21.361032 -1.0464361 52
-4.7480311 -12.773891 -0.665317 0
-5.3185744 -11.643609 -0.70111006 53
-5.4890981 -10.017742 -0.69265854 5
-4.729291 -12.723474 -0.90324843 0
-4.7009578 -10.291501 -0.81995356 0
-5.3712363 -9.8026409 -0.87578171 0
-4.6702514 -12.564636 -1.1291436 75
-4.4774089 -9.8021011 -0.97161692 13
-5.2979665 -9.6689224 -1.0588937 58
-4.6764889 -12.581418 -1.3683714 51
-4.4432101 -9.727231 -1.153429 48
-4.3995214 -9.6315861 -1.3297945 41
-4.385962 -9.601902 -1.5125204 42
-4.4005666 -9.6338749 -1.7068874 34
-4.8785219 -10.680231 -2.099972 5
-4.3099585 -9.4355125 -2.0402305 4
-3.943922 -8.6341724 -2.0351427 4
-3.5939615 -7.8680263 -2.0079837 4
-3.307045 -7.2398987 -1.9882003 5
-2.3259006 -5.0919428 -1.9258002 5
-1.6750445 -3.6670663 -1.8792433 11
-1.575485 -3.3863499 0.72173113 1
-2.2107799 -4.7518539 0.73321122 12
-3.1518478 -6.7745872 0.64871269 8
-3.4426196 -7.3995724 0.41985542 25
-5.4216118 -11.653221 0.43377826 40
-8.7230616 -15.659385 0.49850088 29
-6.4910707 -17.096857 0.40095297 32
-5.4273763 -11.665612 0.20616384 30
-10.012598 -17.974323 0.20828542 17
-9.3562326 -24.643417 0.11133632 1
-5.4331274 -11.677974 -0.021355838 37
-11.772468 -21.133591 -0.18240167 53
-9.9801159 -26.286667 -0.37789431 40
-5.4034405 -11.614164 -0.2477462 96
-11.737918 -21.071568 -0.60886484 47
-9.9449644 -26.19408 -0.87219322 33
-5.4192886 -11.648229 -0.47624871 63
-11.781401 -21.149626 -1.0400836 51
-5.41995 -11.64965 -0.70373517 53
-5.5472436 -9.9582491 -0.69120592 7
-4.815166 -12.682685 -0.90271723 0
-4.7390342 -10.186088 -0.81417114 0
-6.0023184 -10.775187 -0.96639061 0
-4.7748299 -12.576443 -1.1331728 90
-4.5373292 -9.7525425 -0.96982092 25
-5.4021544 -9.6977901 -1.0661595 48
-4.775507 -12.578226 -1.3716167 47
-4.5059781 -9.6851568 -1.1521422 51
-4.4750261 -9.6186295 -1.3322867 45
-4.4662514 -9.5997677 -1.5170591 39
-4.464385 -9.5957565 -1.7056146 39
-4.951304 -10.642342 -2.099268 5
-4.339303 -9.3269053 -2.023248 4
-4.0156527 -8.6312513 -2.0410125 3
-3.6504469 -7.8462768 -2.0088882 4
-3.3640563 -7.2307086 -1.9920778 6
-2.3613925 -5.0755811 -1.9258002 6
-1.6944875 -3.6421342 -1.8724834 11
-1.6058136 -3.3894653 0.72476679 0
-2.213371 -4.671865 0.72323561 18
-3.1564121 -6.6623855 0.64006323 8
-3.5027461 -7.3934088 0.42088297 23
-5.525085 -11.662054 0.43553224 41
-8.8735447 -15.671171 0.50083601 30
-6.6276174 -17.095869 0.40200511 35
-5.5240965 -11.659967 0.20674062 31
-10.078714 -17.799568 0.20707069 26
-10.100599 -26.054388 0.11802664 38
-5.5282235 -11.668678 -0.021408897 39
-11.846799 -20.922104 -0.18128578 51
-10.076645 -25.992599 -0.37466902 35
-5.5032253 -11.615913 -0.24859703 92
-11.811838 -20.860361 -0.60513008 43
-10.030766 -25.874256 -0.86385459 37
-5.5244365 -11.660685 -0.47832325 59
-11.851971 -20.931236 -1.0333879 50
-4.9504685 -12.769681 -0.66863286 0
-5.5182476 -11.647621 -0.70592272 53
-5.6166301 -9.9192801 -0.69120592 12
-4.9180169 -12.685973 -0.9053731 0
-4.784409 -10.098674 -0.80983424 0
-6.083292 -10.74343 -0.96732789 0
-4.8725991 -12.568817 -1.135523 74
-4.6053038 -9.7206287 -0.96982092 43
-5.4834595 -9.6840935 -1.0688363 56
-4.1972275 -10.826704 -1.1837852 5
-4.5751858 -9.6570578 -1.1525712 53
-4.5556617 -9.6158466 -1.3362741 44
-4.5467234 -9.5969801 -1.5215977 40
-4.5363393 -9.5750628 -1.7075238 39
-5.0440249 -10.646658 -2.1070142 5
-4.3925486 -9.2715559 -2.0178444 2
-4.0758123 -8.6030064 -2.0410125 3
-3.7134762 -7.8382068 -2.0134108 4
-3.4227619 -7.2245827 -1.9969246 5
-2.4016273 -5.0692263 -1.9297038 6
-1.7307385 -3.6531503 -1.8843131 11
-1.1845607 -2.4558487 0.71973836 0
-1.6328491 -3.385247 0.72628462 2
-2.2166743 -4.5956421 0.71381414 17
-3.1664894 -6.5648127 0.6327976 8
-3.5664234 -7.3939619 0.42232153 23
-5.6219954 -11.655604 0.43674657 41
-9.0425663 -15.712807 0.50417197 34
-6.7644644 -17.093803 0.40305725 34
-5.6227369 -11.657142 0.20738147 30
-10.220689 -17.75997 0.2074351 3
-9.5448561 -24.119852 0.10956237 3
-5.6338778 -11.680239 -0.021501748 37
-11.910775 -20.696747 -0.18004927 50
-10.159257 -25.672443 -0.37106746 40
-5.6050329 -11.620438 -0.2495252 85
-11.877403 -20.638758 -0.60109252 47
-10.127304 -25.5917 -0.85676056 37
-5.6178622 -11.647036 -0.47936049 60
-11.914091 -20.702509 -1.0261769 49
-5.0453768 -12.749668 -0.66941309 0
-5.6185131 -11.648385 -0.70832902 54
-5.6976919 -9.900589 -0.69265854 20
-5.0211477 -12.688442 -0.9080289 0
-4.8391929 -10.032687 -0.80723214 0
-5.6012087 -9.732935 -0.87984347 0
-4.329565 -10.940812 -0.99114835 5
-4.6868982 -9.7169476 -0.97269446 44
-5.5866818 -9.7076931 -1.0757197 40
-4.184854 -10.575127 -1.1594442 17
-4.6424913 -9.6248817 -1.1525712 48
-4.6313009 -9.6016817 -1.3387662 44
-4.620491 -9.5792704 -1.5238671 40
-4.6099358 -9.5573874 -1.7100695 43
-5.1165171 -10.607638 -2.1063101 4
-4.5714097 -9.4775152 -2.0695643 4
-4.1408687 -8.5849104 -2.0435281 5
-3.7697978 -7.8156009 -2.0143154 3
-3.473114 -7.2005115 -1.9969246 6
-2.4369576 -5.0523367 -1.9297038 5
-1.7609247 -3.6507752 -1.889383 9
-1.2187219 -2.4822359 0.72994745 0
-1.6304797 -3.3208849 0.71490085 2
-2.2207699 -4.52316 0.70494688 27
-3.1683362 -6.4531193 0.62414813 7
-3.6249983 -7.3832273 0.42314357 22
-5.7190866 -11.648369 0.43796086 37
-9.174242 -15.687264 0.50539517 30
-6.9075961 -17.105492 0.4044601 39
-5.7268968 -11.664276 0.20821458 28
-10.435287 -17.843557 0.2092572 13
-9.6216488 -23.826382 0.1085318 4
-5.7311502 -11.672938 -0.021561438 35
-11.97622 -20.478436 -0.17887306 68
-10.249876 -25.382082 -0.36789596 68
-5.7071729 -11.624103 -0.25045338 56
-11.954578 -20.441431 -0.59776151 43
-10.220389 -25.309061 -0.84966654 38
-5.7166538 -11.643413 -0.48084229 56
-11.987716 -20.498093 -1.0201679 51
-5.650383 -13.992216 -0.73670548 0
-5.7208204 -11.651899 -0.71095407 53
-5.7888412 -9.8984842 -0.69532168 25
-5.2037597 -12.88623 -0.92476064 0
-4.8792257 -9.9377785 -0.80231708 0
-5.7273998 -9.7934227 -0.88890439 0
-4.3013668 -10.651606 -0.96764553 1
-4.7686677 -9.7125988 -0.975568 43
-5.6683865 -9.6925154 -1.0783966 45
-4.1855679 -10.364849 -1.1395657 20
-4.7218418 -9.6172266 -1.1555737 46
-4.7052169 -9.5833654 -1.3407599 42
-4.6959796 -9.5645514 -1.5267038 34
-4.6887298 -9.5497847 -1.7145245 35
-4.7600794 -9.6951075 -1.9316645 1
-4.6409235 -9.4524164 -2.0711081 4
-4.1920834 -8.5382395 -2.0393355 6
-3.8191175 -7.7785997 -2.0116017 3
-3.5318501 -7.1935072 -2.0017717 6
-2.4738371 -5.0385957 -1.9310051 6
-1.7879667 -3.6416471 -1.891073 6
-2.2133384 -4.429585 0.69275439 15
-3.1883731 -6.3809352 0.61930442 4
-3.6853821 -7.3756065 0.42417112 20
-5.8288589 -11.665376 0.44011965 36
-9.3182602 -15.681269 0.50728554 26
-7.0496917 -17.112316 0.40577528 37
-5.826066 -11.659787 0.20885544 26
-10.616816 -17.866549 0.21039094 10
-9.710043 -23.570013 0.10767016 2
-5.8303819 -11.668425 -0.021627761 35
-12.047379 -20.273977 -0.17781749 45
-10.338457 -25.095417 -0.36477819 55
-5.8149991 -11.637638 -0.25161362 53
-12.015286 -20.219971 -0.59372395 44
-10.310019 -25.026386 -0.84257251 33
-5.822814 -11.653279 -0.4829168 54
-12.054992 -20.286787 -1.0138155 49
-5.7646661 -13.993064 -0.73885107 0
-5.2486024 -10.504101 -0.64313996 4
-5.8843198 -9.9024496 -0.69846904 28
-4.9199538 -9.8463717 -0.79769111 5
-6.0054555 -10.106304 -0.92108613 0
-4.3088179 -10.459161 -0.95287234 0
-4.8488231 -9.7040167 -0.97808236 42
-5.7643909 -9.7006273 -1.0837504 38
-4.2047715 -10.206599 -1.1253667 33
-4.8030882 -9.6124878 -1.1590053 47
-4.7808766 -9.5680342 -1.3432521 42
-4.8051143 -9.6165419 -1.5403199 2
-4.7570505 -9.5203514 -1.715161 2
-4.781888 -9.5700588 -1.9133549 3
-4.7190809 -9.4443617 -2.0765116 3
-4.2620783 -8.5297565 -2.0443666 5
-3.8785541 -7.7622042 -2.0143154 3
-3.5802493 -7.1652026 -2.0008023 6
-2.5123341 -5.0279694 -1.9336075 5
-1.8133466 -3.6290758 -1.891073 6
-1.1858392 -2.3343859 0.69115305 0
-2.0508428 -4.03719 0.8750326 15
-2.2121677 -4.3547664 0.68333292 15
-3.1927221 -6.2850385 0.61203879 1
-3.7468827 -7.3759327 0.42560968 20
-5.9223933 -11.658539 0.44133395 38
-9.4447765 -15.656785 0.50850868 20
-7.1862459 -17.120493 0.40709046 36
-5.9231939 -11.660114 0.20956038 19
-10.813587 -17.92589 0.2119296 14
-9.7779093 -23.294867 0.10670716 2
-5.8840909 -11.583138 -0.021541541 0
-12.10513 -20.066904 -0.17670162 52
-10.422626 -24.830835 -0.36192921 40
-5.9101677 -11.634471 -0.25238708 51
-12.074768 -20.016573 -0.59009016 45
-10.398405 -24.77313 -0.83634967 33
-5.9144564 -11.642914 -0.48410225 44
-12.114962 -20.083202 -1.0076348 53
-5.3486156 -12.742528 -0.67467946 0
-5.3217707 -10.476181 -0.64357752 16
-5.9704895 -9.8973942 -0.70089006 30
-5.5300803 -13.174849 -0.95078778 0
-4.9959908 -9.8348665 -0.79942584 26
-6.0476332 -10.025276 -0.91733682 0
-4.3179269 -10.287018 -0.93977791 1
-4.9293146 -9.7036114 -0.98131508 42
-5.8532815 -9.7030964 -1.0883392 29
-4.2261672 -10.068409 -1.1131963 30
-4.8901501 -9.6265135 -1.1645815 45
-4.856812 -9.5608854 -1.346741 40
-4.8652015 -9.5774012 -1.5391852 2
-4.8612237 -9.5695705 -1.7297987 7
-4.8506045 -9.548666 -1.9154675 4
-4.7905021 -9.4303513 -2.0803714 3
-4.3132424 -8.4908409 -2.041851 3
-3.9370086 -7.7502055 -2.0179334 3
-3.6276922 -7.1412997 -2.0008023 5
-2.5439126 -5.0078235 -1.9323063 5
-1.8291658 -3.6008077 -1.8826232 6
-2.086189 -4.0367308 0.87806827 19
-2.2206898 -4.2969866 0.67668247 12
-4.0525117 -7.8415222 0.76634592 23
-3.8184576 -7.3886328 0.42787027 20
-6.1284466 -11.858412 0.45050874 11
-8.5092573 -13.885845 0.45290968 3
-7.3229022 -17.110348 0.40805492 34
-8.9626045 -17.342447 0.31280252 9
-10.944739 -17.860189 0.21205108 29
-9.8679037 -23.056877 0.10593 31
-11.422758 -22.102791 -0.041252583 35
-12.186412 -19.886414 -0.17585716 48
-5.2325535 -12.226137 -0.1787338 5
-11.470213 -22.194614 -0.48319402 52
-12.145268 -19.819275 -0.58675915 46
-5.2116151 -12.177214 -0.41232535 21
-11.442461 -22.140913 -0.92389882 54
-12.175527 -19.868652 -1.0011106 48
-5.3399825 -12.477151 -0.66258633 0
-11.407513 -22.07329 -1.3608755 35
-6.0644751 -9.8963232 -0.70379531 31
-5.2199082 -12.196591 -0.88279849 7
-5.0846748 -9.8387356 -0.80260617 35
-6.0591345 -9.8876076 -0.90858835 0
-4.306519 -10.062409 -0.92198288 3
-5.0170555 -9.7078934 -0.98526621 58
-5.9562464 -9.7197094 -1.0948402 21
-4.2634749 -9.961834 -1.1046768 19
-4.9700155 -9.6168728 -1.1675842 45
-4.9507709 -9.5796347 -1.3542173 42
-4.9555764 -9.588933 -1.5465606 4
-4.9623594 -9.6020575 -1.7418907 8
-5.4215145 -10.490514 -2.1119437 2
-4.8688331 -9.4210873 -2.0857749 3
-4.3831863 -8.4813709 -2.0468824 3
-3.9981728 -7.7363777 -2.0215514 3
-3.688148 -7.1364865 -2.0066185 4
-2.5770741 -4.9865823 -1.9310051 5
-1.8625814 -3.6040547 -1.891073 6
-1.2129177 -2.3073316 0.68809032 1
-2.11432 -4.022068 0.87806827 23
-2.2377315 -4.2568336 0.67280304 7
-4.1201367 -7.8377304 0.76876777 20
-3.879241 -7.3794746 0.42889783 36
-6.1348181 -11.670256 0.44497687 8
-8.6482468 -13.893993 0.45513362 5
-5.2977939 -12.143497 0.29047829 24
-8.3874521 -15.955439 0.28883445 2
-11.028996 -17.71883 0.21128175 33
-5.2654309 -12.069315 0.055617474 23
-11.496754 -21.87026 -0.040967394 46
-12.250963 -19.682001 -0.1748016 51
-5.2394133 -12.009678 -0.17609982 19
-11.541142 -21.954699 -0.47971338 48
-12.209374 -19.615185 -0.58322632 46
-5.2117701 -11.946315 -0.40572914 21
-11.520497 -21.915426 -0.91782343 58
-12.244245 -19.671207 -0.99544489 52
-5.2528238 -12.040418 -0.64132583 19
-5.5994701 -10.651864 -0.65910912 0
-6.1608424 -9.89781 -0.70694268 33
-5.2251325 -11.976943 -0.86951935 24
-5.1699452 -9.8347797 -0.80520833 36
-6.1090474 -9.8145981 -0.90577638 0
-4.3384113 -9.9444189 -0.91392475 18
-5.1217813 -9.7431574 -0.99245006 1
-6.053412 -9.7252159 -1.100194 18
-4.3106403 -9.880764 -1.0989972 14
-5.051837 -9.6101027 -1.1710157 48
-5.0304556 -9.5694284 -1.3577063 40
-5.0463505 -9.5996656 -1.553936 2
-5.0439734 -9.5951443 -1.7469821 2
-5.029254 -9.5671425 -1.9330729 5
-4.9326596 -9.3833923 -2.0850029 4
-4.4422908 -8.4505634 -2.0468824 3
-4.0520854 -7.7082767 -2.0215514 4
-3.739686 -7.1139994 -2.0075879 5
-2.6118243 -4.9684696 -1.9310051 6
-1.8978188 -3.610218 -1.9012128 6
-1.2289963 -2.2988076 0.68809032 2
-2.1441994 -4.0106726 0.87882715 41
-2.2580564 -4.2236395 0.67003202 7
-4.1803904 -7.8193188 0.76980573 24
-3.9513819 -7.3909636 0.43115842 21
-4.0165553 -7.5128689 0.28752145 0
-8.7792196 -13.887355 0.45691279 7
-5.2963338 -11.912546 0.28583133 26
-8.4477243 -15.801263 0.28710413 2
-11.105409 -17.567022 0.21039094 19
-5.2666841 -11.845858 0.054755844 26
-11.566178 -21.634254 -0.040675577 38
-12.298304 -19.453995 -0.17353491 44
-5.2435069 -11.793728 -0.17346585 20
-11.614941 -21.725464 -0.47646475 50
-12.275505 -19.417931 -0.57989532 46
-5.2122049 -11.723323 -0.39938185 23
-11.603485 -21.704035 -0.91234082 57
-12.304402 -19.463642 -0.98926413 58
-5.253973 -11.817268 -0.63137823 24
-5.6360364 -10.542068 -0.65473402 1
-6.2617946 -9.9051809 -0.71057421 34
-5.229166 -11.761472 -0.85650575 25
-5.2497649 -9.8195572 -0.80694306 17
-6.1987267 -9.8054171 -0.9089008 0
-4.3915353 -9.8774681 -0.91056722 22
-5.2047024 -9.7352695 -0.99532366 2
-6.1424356 -9.7163734 -1.1040181 16
-4.3665805 -9.8213396 -1.0957519 14
-5.1356797 -9.606164 -1.1748762 54
-5.1214657 -9.5795765 -1.3641858 43
-5.12818 -9.5921354 -1.5584747 4
-5.1201463 -9.5771093 -1.7501643 4
-5.1404772 -9.6151371 -1.9499741 3
-4.9943471 -9.3418045 -2.0834591 4
-4.5103984 -8.4365902 -2.051075 3
-4.1076379 -7.6832361 -2.0224557 4
-3.7984085 -7.1048303 -2.0124347 5
-2.6571469 -4.9701285 -1.9388124 6
-1.9127207 -3.5776973 -1.891073 6
-1.235779 -2.2731822 0.68298578 3
-2.1758986 -4.0025063 0.88034499 36
-2.2950563 -4.221694 0.67224884 7
-4.2482009 -7.8144507 0.77222759 22
-4.0124245 -7.3807459 0.43218598 20
-4.1051855 -7.5513773 0.29008499 0
-8.9321222 -13.913209 0.45980394 10
-5.2985139 -11.696787 0.28153509 25
-8.487155 -15.611892 0.28473297 4
-11.117577 -17.317404 0.20832591 19
-5.2865362 -11.670345 0.054113843 52
-11.638601 -21.408894 -0.040403653 50
-12.360348 -19.253218 -0.17250951 47
-5.2778544 -11.651179 -0.17190696 39
-11.691835 -21.506815 -0.47344816 56
-12.343801 -19.227444 -0.57676619 48
-5.2807245 -11.657516 -0.39838618 51
-11.666903 -21.460953 -0.90552455 60
-12.379534 -19.283104 -0.9844569 56
-5.2704029 -11.63473 -0.62357622 50
-5.7075891 -10.498956 -0.65451527 1
-6.3609915 -9.9082613 -0.71396369 33
