# .PCD v0.7 - Point Cloud Data file format
VERSION 0.7
FIELDS x y z intensity
SIZE 4 4 4 4
TYPE F F F F
COUNT 1 1 1 1
WIDTH 1386
HEIGHT 1
VIEWPOINT 0 0 0 1 0 0 0
POINTS 1386
DATA ascii
6.7559314 -3.3757484 -1.6192256 5
6.2808676 -3.1383724 -1.6299039 5
5.8703284 -2.9332378 -1.6392231 6
4.39186 -2.1944885 -1.6889788 7
3.2885458 -1.6431937 -1.7136265 10
5.657383 -2.876364 1.675306 12
3.9769602 -2.0219924 0.86213094 4
7.6874671 -3.9085126 1.206501 18
13.64418 -6.9370642 1.3289096 23
13.805613 -7.0191407 0.79675943 43
13.837384 -7.0352941 0.52390701 33
13.805053 -8.3343153 0.44846174 34
8.9737616 -3.7703793 0.21340904 21
10.738237 -5.4596057 0.19302626 0
13.843925 -8.3577824 0.16370489 39
8.9315853 -3.7526586 0.040919054 25
10.511403 -5.3442769 -0.019551868 0
13.875058 -8.3765783 -0.12220429 28
8.8902979 -3.7353115 -0.12960215 18
10.067399 -5.1185336 -0.21843123 0
10.156801 -6.1318116 -0.2994864 0
8.8499365 -3.7183533 -0.29882076 27
9.5849066 -4.8732214 -0.39860269 0
9.1311588 -5.5126162 -0.45823428 0
8.9247236 -3.7497756 -0.4726072 22
9.1890659 -4.6719656 -0.5646069 0
8.7673464 -5.2929769 -0.62099588 2
8.8972387 -3.7382276 -0.64218014 17
9.0685215 -4.6106777 -0.73726434 1
8.7395439 -5.2761922 -0.79985774 2
8.8046026 -3.6993062 -0.80446869 11
9.073328 -4.613121 -0.91773796 1
8.6511831 -5.2228479 -0.97055691 2
8.826911 -3.7086792 -0.97607511 39
9.0717802 -4.6123347 -1.0976664 1
9.1381912 -4.6460996 -1.2874286 2
9.2651024 -4.7106247 -1.4892596 1
8.7335901 -4.4403892 -1.5789664 4
7.9359212 -4.0348334 -1.5922323 4
7.284049 -3.7034044 -1.6071737 5
6.7496324 -3.4316926 -1.6234183 4
6.2726984 -3.1892066 -1.6335219 5
5.8531675 -2.9759061 -1.6401925 6
4.3764329 -2.225095 -1.6889788 7
3.2672992 -1.6611819 -1.7085565 11
5.6749516 -2.9353352 1.6865358 20
3.9313521 -2.0334687 0.85530072 1
7.6635118 -3.963906 1.2070552 20
13.747619 -7.1108742 1.3437867 19
13.798851 -7.1373739 0.79922551 36
13.837644 -7.1574392 0.52579588 33
13.821522 -8.4764748 0.45090809 35
8.7965078 -3.7683704 0.20981422 28
10.738937 -5.5546522 0.1937312 0
13.843204 -8.4897728 0.16439323 39
8.8058968 -3.7723925 0.040462896 50
10.466731 -5.4138551 -0.019538602 0
13.870799 -8.5066957 -0.12268683 35
8.7941504 -3.7673607 -0.12858082 38
10.08115 -5.2144156 -0.21951412 0
10.110338 -6.2004771 -0.29938546 0
8.7906866 -3.7658768 -0.29770064 42
9.5293493 -4.9289994 -0.39771363 0
9.1571789 -5.6159225 -0.46149635 0
8.7881556 -3.7647924 -0.46675569 41
9.1030121 -4.7084794 -0.56132555 1
8.7642174 -5.374927 -0.6234169 2
8.7645311 -3.7546718 -0.63447821 3
9.0113077 -4.6610456 -0.73524046 2
8.821476 -5.4100428 -0.81079328 6
8.7932177 -3.7669611 -0.8058117 6
8.9736691 -4.6415772 -0.91091329 0
8.6756077 -5.3205838 -0.9774403 1
8.8044624 -3.7717781 -0.97648078 18
8.9475174 -4.6280503 -1.0865139 1
9.1020069 -4.7079592 -1.2869301 2
9.6751251 -5.0044012 -1.560744 1
8.6988697 -4.4994388 -1.5783299 4
7.9180517 -4.0955653 -1.594345 4
7.2649894 -3.7577727 -1.6087176 4
6.7150884 -3.4733398 -1.6209027 4
6.232976 -3.2239702 -1.6289995 5
5.8288026 -3.0149136 -1.6392231 6
4.3607922 -2.255594 -1.6889788 6
3.2846043 -1.6989422 -1.7237662 9
5.6519351 -2.9711087 1.6855149 20
3.9351604 -2.0686347 0.85909528 1
7.6510787 -4.0220184 1.209272 18
13.805975 -7.2575235 1.3541662 22
13.793641 -7.25104 0.80169165 52
13.828793 -7.2695189 0.52728003 29
13.815918 -8.5996513 0.45257607 34
8.7676563 -3.8250294 0.20972654 44
10.772664 -5.6629734 0.19501293 0
13.84432 -8.6173306 0.16508158 34
8.7916822 -3.835511 0.040513579 52
10.377485 -5.4552355 -0.019439118 0
13.865012 -8.630209 -0.12313922 36
8.790967 -3.8351991 -0.12890334 38
9.9649258 -5.2383618 -0.21773511 0
10.231943 -6.3688235 -0.30423054 9
8.8021622 -3.8400831 -0.29894522 43
9.4964485 -4.9920926 -0.39771363 0
9.1265173 -5.6807566 -0.46183974 0
8.7813015 -3.8309827 -0.46773094 41
9.0079489 -4.7352977 -0.55738801 1
8.7554941 -5.4498153 -0.62535375 2
8.786993 -3.8334656 -0.63793081 47
8.9660702 -4.7132831 -0.73408395 1
8.7481613 -5.4452505 -0.80735636 2
8.8082275 -3.8427291 -0.80950499 50
8.8968458 -4.6768932 -0.9062438 1
8.6671724 -5.3948393 -0.98049963 1
8.8120794 -3.8444097 -0.98013198 49
8.881424 -4.6687865 -1.0822244 4
8.9897823 -4.7257481 -1.2754664 2
9.6627512 -5.079514 -1.5641481 1
8.6618452 -4.5533581 -1.577057 3
7.9046555 -4.1553187 -1.5971619 4
7.2468548 -3.809526 -1.6102614 4
6.7126756 -3.5287189 -1.625934 4
6.2149057 -3.2670512 -1.6299039 5
5.8121133 -3.0553112 -1.6401925 6
4.3423886 -2.2827065 -1.6876776 5
3.2636368 -1.7156284 -1.7186964 9
5.6037693 -2.9959071 1.6773478 18
3.9552574 -2.1145737 0.8666845 1
7.5983586 -4.0622611 1.2053926 35
13.807685 -7.3819132 1.3593558 28
13.784957 -7.3697619 0.80415773 50
13.837638 -7.3979268 0.52957374 32
13.80624 -8.7279434 0.45424405 47
8.7663183 -3.8975174 0.21034029 47
10.849259 -5.8002691 0.19712774 1
13.844679 -8.752243 0.16581042 36
8.786622 -3.9065442 0.040614948 51
10.381478 -5.5501823 -0.019518705 0
13.868662 -8.7674046 -0.12371224 32
8.7895613 -3.9078512 -0.12927963 38
10.030392 -5.362483 -0.2199782 0
13.881538 -8.7755451 -0.41455701 32
8.8007116 -3.9128089 -0.2998164 44
9.4543152 -5.0544991 -0.39741728 0
9.1204157 -5.7656875 -0.46355662 0
8.7725973 -3.9003088 -0.46870619 46
8.9676256 -4.7943039 -0.55695045 1
8.7611074 -5.5385423 -0.62850106 2
8.7891922 -3.9076872 -0.64005548 54
8.9188738 -4.7682395 -0.7329275 6
8.7301579 -5.5189767 -0.80923104 2
8.8030386 -3.9138432 -0.8115195 44
8.839385 -4.7257428 -0.90372944 8
8.6696844 -5.4807472 -0.98508853 1
8.8141165 -3.9187684 -0.9833774 51
8.8345842 -4.7231765 -1.0805086 14
8.9600706 -4.7902646 -1.2759649 1
9.6445122 -5.1561832 -1.5669848 1
8.6437759 -4.6211662 -1.5796027 3
7.8789258 -4.2122588 -1.5978661 4
7.2512331 -3.8766799 -1.617209 4
6.7154703 -3.5902483 -1.6326423 4
6.212563 -3.3213823 -1.6353309 4
5.794064 -3.0976429 -1.6411619 5
4.3330178 -2.3165333 -1.6902801 6
3.2483828 -1.7366618 -1.7170064 10
5.2429299 -2.850234 1.5752572 16
3.9438493 -2.1440096 0.86744338 2
7.580256 -4.120883 1.2070552 23
13.811832 -7.5085788 1.3648915 27
13.785817 -7.4944358 0.80724037 44
13.827803 -7.5172606 0.53119284 29
13.81563 -8.8694792 0.45657921 37
8.7571077 -3.9668732 0.21077868 47
10.920945 -5.9369946 0.19917849 1
13.84719 -8.88974 0.16657974 32
8.7846394 -3.9793446 0.040733211 48
12.32101 -6.6981168 -0.02325266 0
13.871069 -8.9050703 -0.12428527 37
8.8021402 -3.9872723 -0.12987092 39
10.017306 -5.4457464 -0.22051965 0
13.883869 -8.9132881 -0.41647485 36
8.7950315 -3.9840522 -0.30056316 43
9.4468937 -5.1356506 -0.39860269 0
9.1169319 -5.8529682 -0.46544516 0
8.7742672 -3.9746461 -0.47026658 46
8.933938 -4.8567905 -0.55695045 1
8.7692652 -5.6297693 -0.63189054 2
8.7798758 -3.9771867 -0.64138341 53
8.8993883 -4.8380084 -0.73408395 5
8.7820206 -5.637958 -0.81766707 2
8.7972841 -3.9850726 -0.81353408 44
8.8026791 -4.7854333 -0.90337026 90
8.7886896 -5.6422396 -1.0030618 1
8.8227911 -3.9966269 -0.98743427 50
8.8013954 -4.7847362 -1.0805086 4
8.9020033 -4.8394299 -1.2724758 1
9.6117611 -5.2252779 -1.5675521 1
8.6182442 -4.6851687 -1.5808756 3
7.8458681 -4.2652788 -1.5971619 4
7.2102003 -3.9197085 -1.6141212 4
6.6764979 -3.6295698 -1.6292881 4
6.2029176 -3.3721154 -1.6389489 4
5.7859359 -3.1454301 -1.6450394 7
4.3167405 -2.3467259 -1.6902801 7
3.2393649 -1.7610282 -1.7186964 10
5.5850883 -3.086951 1.684494 21
3.9356596 -2.1752901 0.86896122 3
7.5166316 -4.1545401 1.2015132 20
13.807904 -7.6318083 1.3697352 26
13.7891 -7.6214142 0.81052852 57
13.820471 -7.6387534 0.53294683 34
13.817019 -9.0071983 0.45869195 35
8.7618809 -4.0429921 0.21156779 46
10.868731 -6.0072885 0.19898623 1
13.838406 -9.0211411 0.1672276 36
8.7893324 -4.0556588 0.040885266 49
10.372991 -5.7332869 -0.019651351 0
13.878931 -9.0475588 -0.1249186 36
8.8067751 -4.0637078 -0.13035472 38
11.354619 -6.2758455 -0.25091746 1
13.908402 -9.0667715 -0.41909927 33
8.7924156 -4.0570817 -0.30143434 45
9.4283018 -5.2111449 -0.39934361 0
9.1561975 -5.9688487 -0.46956569 0
8.7825823 -4.0525446 -0.47221711 47
8.906805 -4.9229069 -0.55738801 1
8.7932997 -5.7322783 -0.63649052 2
8.7881355 -4.0551066 -0.64403921 51
8.8863459 -4.9115992 -0.73581874 6
8.8092594 -5.7426825 -0.82391596 1
8.8054409 -4.0630922 -0.81689161 44
8.7516222 -4.8371353 -0.90157425 46
8.7724352 -5.718677 -1.0057386 0
8.8271942 -4.0731297 -0.99108541 48
8.8095465 -4.8691506 -1.0856559 2
8.8054771 -4.8669014 -1.2635043 2
9.5681162 -5.2884221 -1.5664173 1
8.5853252 -4.7452211 -1.5808756 3
7.8262382 -4.3256636 -1.5992745 4
7.1860952 -3.9718482 -1.6148931 4
6.6715345 -3.6874437 -1.6343194 4
6.1962757 -3.424762 -1.6434715 4
5.7774215 -3.1932559 -1.648917 7
4.300252 -2.3768051 -1.6902801 7
3.2333379 -1.7871078 -1.7220763 10
5.5701451 -3.1296561 1.6865358 21
3.934073 -2.2104084 0.87199688 5
7.4770832 -4.2010932 1.1998506 21
13.657011 -7.6733637 1.3600478 22
13.791278 -7.7488031 0.81381667 53
13.833026 -7.7722597 0.53551036 31
13.827152 -9.1519909 0.46113834 34
8.7732553 -4.1227698 0.21253225 44
13.860046 -7.7874413 0.25474083 30
13.841796 -9.161684 0.16803741 35
8.7933865 -4.1322298 0.041037317 51
10.329225 -5.8036051 -0.019644719 0
13.875465 -9.1839685 -0.12546146 37
8.7962904 -4.1335945 -0.13062349 38
10.072786 -5.6595221 -0.22345887 0
13.901451 -9.201169 -0.42081523 33
8.7964439 -4.133667 -0.30255446 44
9.4230556 -5.2944622 -0.4006772 0
9.2042809 -6.0921798 -0.47420123 1
8.7866201 -4.1290503 -0.47397256 47
8.875701 -4.9869246 -0.55760676 1
8.8129959 -5.8331943 -0.64084834 2
8.8029594 -4.1367283 -0.64722621 51
8.8414059 -4.9676552 -0.73495132 1
8.7490015 -5.7908373 -0.82204127 1
8.809329 -4.1397219 -0.81991339 46
8.7384777 -4.9098239 -0.90372944 21
8.8252649 -5.8413143 -1.0164461 1
8.8237543 -4.1465006 -0.99392521 50
8.81001 -4.9500151 -1.0899454 2
8.7678251 -4.9263129 -1.2630059 2
9.5620308 -5.3725476 -1.5715234 1
8.576088 -4.818583 -1.5853306 3
7.8061471 -4.385982 -1.6013871 4
7.1650352 -4.0257649 -1.616437 5
6.6353993 -3.7281828 -1.6318038 4
6.1620245 -3.4622111 -1.6407579 4
5.761754 -3.2373142 -1.6508557 7
4.2901487 -2.4104741 -1.6928825 6
3.2271042 -1.8131891 -1.7254562 9
5.5369802 -3.1646454 1.6834731 21
3.9314029 -2.2469823 0.8750326 5
7.4426475 -4.2538242 1.1992964 4
13.462004 -7.6941705 1.3462086 24
13.789598 -7.8814058 0.81710482 54
13.831213 -7.9051909 0.53766912 31
13.819417 -9.2932663 0.46313989 34
8.7716522 -4.2007885 0.21323368 44
13.851202 -7.9166155 0.25563803 28
13.850605 -9.3142395 0.16896871 32
8.7845049 -4.206944 0.041138686 50
10.487826 -5.994288 -0.020029388 0
13.880793 -9.3345404 -0.12612496 33
8.7873974 -4.2083292 -0.13094603 38
9.9963074 -5.7133613 -0.22268538 0
13.909948 -9.354147 -0.42313683 32
8.8019657 -4.2153058 -0.30379903 42
9.4256363 -5.3871961 -0.40245536 0
9.3119211 -6.2620707 -0.48209888 1
8.7849436 -4.2071538 -0.47553295 47
8.856245 -5.0617619 -0.5587005 1
8.799818 -5.9176917 -0.64302731 1
8.8011961 -4.2149372 -0.64935088 50
8.7908993 -5.0244136 -0.73379487 2
8.73279 -5.8726172 -0.82454079 1
8.8039103 -4.2162371 -0.82226366 42
8.7230043 -4.9856091 -0.90588456 9
8.778904 -5.9036279 -1.0160637 1
8.8182459 -4.2231021 -0.99676502 33
8.7009792 -4.9730201 -1.0809376 3
8.7280321 -4.9884825 -1.2625073 1
9.5086412 -5.4346371 -1.569254 2
8.5371065 -4.8793597 -1.5846941 3
7.7737865 -4.4430861 -1.6013871 4
7.1489615 -4.085969 -1.6195247 4
6.6146832 -3.7806036 -1.6334808 4
6.1432447 -3.5111544 -1.6425669 4
5.7446074 -3.2833142 -1.6527945 7
4.2657962 -2.4381039 -1.6902801 6
3.2042832 -1.8313992 -1.7203863 10
3.9292049 -2.2822635 0.87806827 5
8.79667 -5.1095114 1.4231946 21
13.308032 -7.729918 1.3361752 19
13.786056 -8.007576 0.82018745 73
13.830999 -8.0336819 0.53982794 32
13.826853 -9.4391146 0.46558625 34
8.7672739 -4.2741914 0.21384743 47
13.844015 -8.0412426 0.25653523 28
13.848007 -9.4535561 0.16973804 36
8.7836838 -4.2821918 0.041273843 50
10.497607 -6.0974941 -0.020128872 0
13.871448 -9.4695578 -0.12663767 34
8.7865648 -4.2835956 -0.13137606 35
10.01151 -5.8151464 -0.22392295 0
13.91366 -9.4983749 -0.42525655 32
8.7974787 -4.2889166 -0.30467021 26
9.4638424 -5.4970355 -0.40571532 0
13.855758 -9.458847 -0.72074467 40
8.7733135 -4.2771358 -0.4765082 40
8.8414145 -5.1355009 -0.56001306 1
8.8638124 -6.0510182 -0.6507746 1
8.7715549 -4.2762785 -0.64935088 17
8.7797575 -5.0996881 -0.73581874 1
8.7706232 -5.9874015 -0.83203948 0
8.7850094 -4.2828379 -0.82327092 1
8.6845427 -5.044383 -0.90552539 6
8.783514 -5.996201 -1.0214175 1
8.8314705 -4.3054881 -1.0016332 12
8.66605 -5.0336413 -1.0809376 3
8.8886127 -5.1629162 -1.2909175 1
9.4773178 -5.5048628 -1.5703888 2
8.5062504 -4.9408226 -1.5853306 3
7.7357697 -4.4932919 -1.5999788 4
7.1202631 -4.135777 -1.6195247 4
6.5982757 -3.8325827 -1.6359965 5
6.1118455 -3.5500417 -1.6407579 4
5.7215466 -3.323338 -1.6527945 6
4.2552133 -2.4716239 -1.6928825 7
3.1882851 -1.851903 -1.7186964 9
3.014246 -1.7790713 0.9239195 10
3.9368515 -2.3236125 0.88338065 5
8.8153687 -5.2030158 1.4320619 22
13.185106 -7.7821269 1.3292556 34
13.788301 -8.1381445 0.82368112 53
13.836548 -8.1666212 0.54225653 28
13.829635 -9.5832386 0.46792141 33
8.7551327 -4.3441815 0.21428582 22
13.846093 -8.1722546 0.25762469 26
13.853999 -9.6001225 0.17062883 35
10.434114 -6.1584334 -0.020089079 0
13.870753 -9.6117325 -0.12724085 36
10.02233 -5.9153895 -0.22508319 0
13.899596 -9.6317186 -0.4268716 34
9.9026337 -4.9135566 -0.34412304 1
9.4355621 -5.569067 -0.40615985 0
13.855079 -9.6008711 -0.72417843 42
8.757556 -4.3453841 -0.47728842 19
8.8328629 -5.2133417 -0.56176311 1
9.0543566 -6.2742124 -0.66796398 32
8.7915411 -4.362247 -0.65306908 1
8.7576847 -5.1689696 -0.73697519 3
8.7908859 -6.0916405 -0.83797592 0
9.226203 -4.5779204 -0.86759061 1
8.662838 -5.1129889 -0.90696216 3
8.8494377 -6.1322141 -1.034037 1
9.2004423 -4.5651383 -1.0470698 2
8.6341228 -5.0960402 -1.0813665 1
8.7908306 -5.1885328 -1.2819459 1
9.4420662 -5.5729055 -1.5709561 2
8.4749508 -5.0020938 -1.5859669 2
7.7279496 -4.5611982 -1.6049082 4
7.101357 -4.19137 -1.6218406 4
6.5747266 -3.8805418 -1.636835 5
6.1036901 -3.6025262 -1.6452804 4
5.6948638 -3.3612282 -1.6518251 6
4.2411118 -2.5031934 -1.6941837 7
3.1877677 -1.8814875 -1.7254562 9
3.0017521 -1.8000712 0.9239195 13
3.9239018 -2.35306 0.8841396 5
8.8162012 -5.2868423 1.4381582 24
13.089444 -7.8493929 1.3251038 16
13.78939 -8.2691317 0.82717478 49
13.837481 -8.2979708 0.54455024 30
13.824537 -9.7232571 0.47003418 32
13.807986 -6.9718928 0.33913973 25
13.843582 -8.30163 0.25865006 26
13.838987 -9.7334204 0.17127669 36
10.344103 -5.222918 0.048944052 0
13.876214 -8.3211985 -0.026827443 32
13.865477 -9.7520504 -0.12781386 35
10.114759 -5.1071186 -0.15228656 0
10.056245 -6.0304637 -0.22678484 0
13.913787 -9.7860289 -0.42939508 34
9.9037771 -5.0005898 -0.34536761 0
9.4067364 -5.6409707 -0.40660438 0
13.859631 -9.7479391 -0.72795558 36
8.8270807 -5.2933664 -0.56373191 1
13.902499 -9.7780905 -1.0306352 31
9.1385269 -4.6142015 -0.68122089 0
8.7487564 -5.2463975 -0.73928821 3
8.8525238 -6.2262745 -0.84797418 0
9.0872765 -4.5883241 -0.85751796 1
8.6610975 -5.193831 -0.91055411 2
8.9041176 -6.2625623 -1.0455093 2
9.0724363 -4.5808315 -1.0361164 1
8.6085672 -5.1623297 -1.0826534 1
8.8258715 -5.2926416 -1.2924128 0
9.4165115 -5.6468329 -1.5732254 2
8.460144 -5.0733242 -1.5897856 3
7.7026711 -4.6190877 -1.6063167 4
7.0921187 -4.2529554 -1.6264721 4
6.5541835 -3.9303701 -1.6385121 4
6.0650244 -3.6370347 -1.6416625 4
5.6779156 -3.4048955 -1.6537639 7
4.2202888 -2.5307953 -1.6928825 7
3.1683362 -1.8999672 -1.7220763 10
2.9957178 -1.8250079 0.92596126 4
3.9275026 -2.3926563 0.88869309 5
8.8196735 -5.3729939 1.4448086 23
12.935633 -7.8804588 1.3150704 13
13.792731 -8.4026079 0.83087397 35
13.84408 -8.4338903 0.54711378 30
13.827916 -9.8706408 0.47248054 35
13.805221 -7.0918732 0.34027955 33
13.839937 -8.4313669 0.25967544 27
13.852085 -9.8878927 0.17228897 32
10.367875 -5.3260756 0.049231265 0
13.862191 -8.4449234 -0.026913662 27
13.871936 -9.9020634 -0.12850752 31
10.114436 -5.1958818 -0.1528241 0
10.184669 -6.204556 -0.23065226 0
13.903712 -9.9247456 -0.43121198 34
9.8864088 -5.078742 -0.34598988 1
9.3978491 -5.7252216 -0.407938 0
13.866051 -9.8978624 -0.73190439 41
9.1828957 -4.7173405 -0.50401032 0
8.8171978 -5.3714857 -0.5654819 1
13.898892 -9.9213047 -1.0354773 40
9.0634899 -4.6560011 -0.67803389 1
8.8073149 -5.3654652 -0.74738365 3
13.920825 -9.9369602 -1.3400741 27
8.9947519 -4.6206894 -0.8518101 0
8.6314316 -5.2583156 -0.91127247 1
12.703697 -9.0681505 -1.4990478 5
8.9552851 -4.6004148 -1.0263799 1
8.6130733 -5.2471318 -1.0878006 1
8.7988749 -5.3603234 -1.2939081 0
9.3734779 -5.7103748 -1.5726581 2
8.4380083 -5.1404815 -1.5923312 2
7.6635113 -4.6686535 -1.6049082 4
7.0656056 -4.3044062 -1.6272441 4
6.5533056 -3.9923098 -1.6452204 5
6.0561233 -3.6894238 -1.6461849 5
5.6606345 -3.4484899 -1.6557026 6
4.2154388 -2.5680685 -1.6980873 7
3.1611869 -1.9258126 -1.7254562 9
3.019733 -1.8672096 0.93719125 6
3.9215689 -2.4248474 0.89096987 5
8.8006926 -5.4417849 1.4475796 30
12.761066 -7.8906274 1.302615 9
13.804655 -8.5359154 0.83498412 34
13.842246 -8.5591593 0.54927254 30
13.83988 -10.018403 0.47514927 36
11.499761 -6.0042644 0.28442848 1
13.851751 -8.5650368 0.26095715 26
13.854241 -10.028799 0.17313927 35
10.389055 -5.4243422 0.049501579 0
13.877325 -8.5808496 -0.027052939 27
13.890199 -10.054828 -0.12929165 33
10.132936 -5.290617 -0.15363042 0
10.126287 -6.2614484 -0.23026551 1
13.925039 -10.080048 -0.43393734 35
9.8489628 -5.1423488 -0.34586543 1
9.4242687 -5.8273649 -0.4107534 0
13.864844 -10.036474 -0.73533815 45
9.1266155 -4.7651963 -0.50264496 0
8.8119535 -5.4487481 -0.5674507 1
13.907172 -10.067115 -1.0410457 41
9.0253353 -4.7123156 -0.67750269 2
8.7511787 -5.4111686 -0.74564892 2
13.938601 -10.089866 -1.3481977 32
8.914443 -4.6544161 -0.84710956 1
8.6438065 -5.3447766 -0.91630119 1
12.711006 -9.2012348 -1.5070784 4
8.8787193 -4.6357646 -1.021106 4
8.6085272 -5.3229628 -1.0916612 8
8.8711519 -5.4853525 -1.3098576 1
9.3488722 -5.7807446 -1.5749274 2
8.4070902 -5.1984067 -1.5929676 2
7.6725678 -4.744225 -1.6133589 4
7.0469179 -4.3573632 -1.6295599 5
6.500072 -4.0192285 -1.6385121 3
6.0514059 -3.7418022 -1.6516119 5
5.6409407 -3.4879968 -1.656672 6
4.1950974 -2.5939796 -1.6967862 7
3.1575961 -1.9524554 -1.7305261 10
3.0026896 -1.887237 0.93617034 10
3.9302893 -2.4702477 0.8970412 5
8.8041677 -5.5335555 1.4547842 27
12.632029 -7.9394255 1.2953495 6
13.799209 -8.6730156 0.83847779 34
13.833287 -8.6944351 0.5514313 31
13.830503 -10.16695 0.47737324 36
11.32125 -6.0170813 0.2810967 3
13.852932 -8.7067823 0.26217479 29
13.854477 -10.184574 0.17407057 36
10.380802 -5.5172467 0.049653634 0
13.885169 -8.7270441 -0.027192216 29
13.880576 -10.20376 -0.12989484 37
10.1292 -5.3835239 -0.15416798 0
10.2054 -6.4142513 -0.23312739 2
13.9281 -10.238695 -0.43635988 35
9.8463078 -5.2331705 -0.34711 0
9.4252949 -5.9239435 -0.41267973 0
13.871398 -10.197013 -0.73963034 47
9.0702734 -4.8207197 -0.50147468 0
8.7954454 -5.5280738 -0.56898201 1
13.897343 -10.216085 -1.0458878 42
9.0398912 -4.8045716 -0.68122089 132
8.7078991 -5.4730492 -0.74535978 5
13.938164 -10.246094 -1.3553839 28
8.8413687 -4.69906 -0.84341621 1
8.6280041 -5.4228344 -0.91881555 1
12.70417 -9.3389711 -1.5143441 4
8.8585539 -4.7081938 -1.0227288 5
8.616416 -5.4155507 -1.0976664 15
8.871027 -5.5755773 -1.3158387 0
9.333065 -5.8659759 -1.5794661 2
8.3955059 -5.2767053 -1.5980591 3
7.6375842 -4.8003397 -1.6133589 4
7.0181108 -4.4109912 -1.6303319 4
6.4836802 -4.0750933 -1.6418662 3
6.0073195 -3.7756934 -1.6470894 4
5.6283631 -3.5375135 -1.6605495 5
4.1759696 -2.6246614 -1.6967862 7
3.1339905 -1.9697615 -1.7254562 10
2.9927013 -1.9102346 0.93719125 4
3.9295003 -2.5081913 0.90083581 5
8.8087311 -5.6225934 1.4619888 27
12.546063 -8.0081234 1.2922357 4
13.798934 -8.8078289 0.84217697 33
13.836277 -8.831665 0.55399483 29
13.820086 -10.308679 0.47948602 32
11.113617 -6.0066051 0.27697581 0
13.852493 -8.8420153 0.26332831 27
13.853574 -10.333658 0.17496137 35
10.387777 -5.6143084 0.049873263 0
13.874482 -8.8560505 -0.0272917 26
13.885952 -10.35781 -0.13061866 36
10.084332 -5.4503045 -0.15406047 0
13.824711 -8.8242817 -0.31720486 42
13.910771 -10.376324 -0.43807584 34
9.8200846 -5.3074865 -0.34748337 0
9.4510956 -6.0326133 -0.41564333 0
13.876753 -10.350948 -0.74375081 37
9.0223379 -4.8763256 -0.50069445 0
8.7903051 -5.6108317 -0.57116956 0
13.902493 -10.370149 -1.0516982 43
8.932394 -4.827714 -0.67564362 8
8.8779764 -5.6667924 -0.7632854 4
13.949403 -10.40514 -1.3635074 29
8.7978277 -4.7549844 -0.84240896 1
8.6302338 -5.5086589 -0.92312586 1
12.705688 -9.4774275 -1.5223747 4
8.891984 -4.8058734 -1.0304368 48
8.6018648 -5.490551 -1.100669 18
8.9188671 -5.6928926 -1.3287977 0
9.3052368 -5.9395113 -1.5817355 2
8.355135 -5.3330636 -1.5974226 3
7.5939293 -4.847188 -1.6112462 4
6.9871454 -4.4598794 -1.6303319 4
6.4616666 -4.1244674 -1.6435434 4
5.9972363 -3.8280225 -1.6516119 5
5.606801 -3.5788085 -1.6615189 7
4.1671095 -2.6598568 -1.7006898 7
3.1140506 -1.9876915 -1.7220763 10
3.2940977 -2.1351278 1.0362191 6
3.9316678 -2.5483801 0.90538931 5
8.8224497 -5.7184267 1.4708561 25
13.824106 -8.9603386 1.4302818 28
13.810853 -8.9517488 0.84669816 36
13.827957 -8.9628344 0.55615366 31
13.830674 -10.467647 0.48237714 36
10.987301 -6.0378213 0.27487153 0
13.850837 -8.9776649 0.26448187 26
13.854448 -10.485641 0.17589267 36
10.719916 -5.8908863 0.051664107 0
13.882804 -8.9983854 -0.027430978 28
13.88666 -10.510018 -0.13131231 34
11.195758 -6.1523743 -0.17169195 0
13.836599 -8.9684372 -0.31890652 44
13.927271 -10.540755 -0.44090214 36
9.7933054 -5.3816886 -0.34785673 0
9.5731096 -6.2049799 -0.42290413 1
13.877442 -10.503043 -0.74769962 44
8.9915781 -4.9411173 -0.50088954 0
8.8112478 -5.7111659 -0.57510716 0
13.899798 -10.519962 -1.0570246 40
8.9754257 -4.9322414 -0.68148649 164
8.8348503 -5.7264643 -0.76299632 2
13.933657 -10.545588 -1.3691314 27
8.7818842 -4.8258848 -0.84408772 1
8.6417103 -5.6012774 -0.92851377 0
12.655088 -9.5779133 -1.5242869 3
8.9384298 -4.911911 -1.0397675 5
8.5966959 -5.5721002 -1.1049584 26
8.9721565 -5.8154621 -1.3427536 1
9.2834787 -6.017251 -1.5851395 3
8.3508368 -5.4127426 -1.6037868 3
7.5830326 -4.9150767 -1.6161758 4
6.9690132 -4.5170889 -1.6334196 4
6.4359965 -4.1716051 -1.6443819 4
5.9670954 -3.8676782 -1.6507074 5
5.5816793 -3.6178641 -1.6615189 5
4.1420903 -2.6847692 -1.6980873 7
3.1061826 -2.0133271 -1.7254562 9
3.2435741 -2.1346848 1.0249891 7
3.9597096 -2.605993 0.91601413 1
8.8253307 -5.8081913 1.4780607 23
13.824462 -9.0982552 1.4368554 30
13.801414 -9.083087 0.84998631 32
13.838516 -9.1075048 0.55912197 30
13.8302 -10.619959 0.48493472 35
13.800673 -7.7097745 0.3465924 38
13.84796 -9.1137199 0.2656354 25
13.860217 -10.643008 0.17690493 37
10.542341 -5.8895006 0.051005211 0
13.899836 -9.1478615 -0.027590152 30
13.89226 -10.667613 -0.13206628 35
10.122478 -5.6549425 -0.15583436 0
13.837124 -9.1065884 -0.32037613 42
13.913602 -10.684002 -0.44281998 33
9.8427544 -5.4986744 -0.35096815 0
13.873619 -9.1306067 -0.61568558 41
13.879851 -10.658085 -0.75182015 41
8.9673271 -5.0096149 -0.50147468 0
8.8312149 -5.8120632 -0.57904476 1
13.902017 -10.675106 -1.062835 38
8.8606339 -4.9500113 -0.67537802 16
8.8146524 -5.8011632 -0.76473105 1
13.951419 -10.71304 -1.3781923 25
8.765378 -4.8967962 -0.84576654 1
8.6390018 -5.6855626 -0.93246484 0
12.581597 -9.6611795 -1.523522 4
8.7823296 -4.9062657 -1.0255685 3
8.6007729 -5.6604033 -1.1105347 28
9.2263975 -6.072144 -1.3871133 1
9.2511673 -6.0884457 -1.5868415 2
8.3095465 -5.4687395 -1.6031504 3
7.5551128 -4.9722257 -1.6175841 4
6.9340291 -4.5634737 -1.6326476 4
6.4034495 -4.2142849 -1.6435434 3
5.9529676 -3.9178104 -1.6543254 4
5.5595279 -3.6588769 -1.6624882 6
4.1264057 -2.7157001 -1.6993886 7
3.0890226 -2.0329702 -1.7237662 10
3.1932199 -2.133641 1.0137591 8
5.701508 -3.8096254 1.325071 27
8.8208008 -5.8938699 1.484157 23
13.830191 -9.2410374 1.444121 30
13.800776 -9.2213821 0.85389096 34
13.837754 -9.2460909 0.5616855 29
13.840888 -10.7826 0.48793706 37
13.809107 -7.8414774 0.34817061 33
13.853832 -9.2568331 0.26698121 25
13.861304 -10.798506 0.17787671 32
10.549664 -5.9906082 0.051241737 0
13.882197 -9.2757864 -0.027683003 26
13.883709 -10.81596 -0.13269962 33
10.148834 -5.7629981 -0.1568557 0
13.833068 -9.242959 -0.3217684 45
13.926999 -10.849685 -0.44564626 31
9.838892 -5.5869975 -0.35221273 0
13.872688 -9.269433 -0.61850101 42
13.874461 -10.808756 -0.75559729 39
8.9390821 -5.0760422 -0.50186479 0
8.8502016 -5.9135151 -0.5829823 1
13.912195 -10.838151 -1.0693718 37
8.7772713 -4.984158 -0.67165989 3
8.7805729 -5.8669906 -0.76530927 0
13.936059 -10.856742 -1.3841288 26
8.730978 -4.957871 -0.84576654 1
8.6587229 -5.785573 -0.93893033 0
12.545253 -9.7732487 -1.5273461 3
8.7928476 -4.9930034 -1.0308424 2
8.6040344 -5.7490311 -1.1161109 33
9.2002831 -6.1474314 -1.3896054 1
9.2248993 -6.1638799 -1.5896782 2
8.2645998 -5.5222282 -1.6018776 3
7.5267653 -5.0292234 -1.6189926 5
6.9183197 -4.622673 -1.6365074 4
6.3836293 -4.2654042 -1.6460589 3
5.9189925 -3.9549439 -1.6525164 4
5.5306225 -3.6954434 -1.6615189 6
4.113637 -2.7486439 -1.701991 7
3.0747552 -2.0544853 -1.7237662 10
3.15979 -2.1417525 1.0076337 6
5.598094 -3.7944708 1.306857 4
8.8307037 -5.9855809 1.49247 22
13.831271 -9.3750401 1.4506946 30
13.80214 -9.3552942 0.85779566 29
13.848928 -9.3870087 0.56465381 26
13.825556 -10.918763 0.48993862 36
13.81569 -7.9668517 0.34966114 33
13.861657 -9.3956366 0.268327 26
13.861582 -10.947214 0.178808 34
10.565143 -6.0924153 0.051512055 0
13.893217 -9.4170275 -0.027828913 29
13.902704 -10.979692 -0.13357423 35
10.155433 -5.8561549 -0.15755451 0
13.82774 -9.3726463 -0.32308331 61
13.926915 -10.998813 -0.44796786 33
9.8258657 -5.6661096 -0.35308391 0
13.877081 -9.4060907 -0.62146455 41
13.880878 -10.962455 -0.75988948 38
8.9363689 -5.1531792 -0.50362021 0
8.8901339 -6.0258641 -0.58823246 0
13.90581 -10.982144 -1.074456 41
8.78897 -5.068181 -0.67511249 1
8.7910042 -5.9586725 -0.76964611 0
13.948247 -11.015658 -1.3925648 25
8.7255278 -5.0315971 -0.84845257 1
8.6663284 -5.8741655 -0.94395906 0
12.477036 -9.8537664 -1.5269637 5
8.749198 -5.0452466 -1.0296254 1
8.6216793 -5.8439016 -1.123403 3
9.2118721 -6.2439432 -1.3975803 1
9.2002039 -6.2360339 -1.5925149 2
8.2375994 -5.5835667 -1.6037868 3
7.4867253 -5.0746131 -1.6175841 4
6.9005032 -4.6772628 -1.6395952 4
6.3584366 -4.3098421 -1.6468976 3
5.9055333 -4.0028577 -1.6561344 4
5.5188413 -3.7407522 -1.6653965 7
4.0953164 -2.775866 -1.701991 7
3.0730655 -2.0829692 -1.7305261 9
3.1352024 -2.1571832 1.004571 3
5.5261707 -3.8022943 1.2962321 18
8.8180733 -6.0672951 1.4974579 27
13.844275 -9.5255852 1.4589981 29
13.815475 -9.5057688 0.86272788 34
13.84234 -9.5242529 0.56708241 32
13.833244 -11.082518 0.49294096 37
13.79769 -8.0853462 0.3506256 55
13.858328 -9.5352535 0.26954463 29
13.862856 -11.106241 0.17982028 41
10.501647 -6.1538887 0.051410686 1
13.88645 -9.5546036 -0.027948292 29
13.894388 -11.131503 -0.13423774 33
10.166064 -5.9572401 -0.15836082 0
13.834453 -9.5188265 -0.32478496 48
13.924686 -11.155777 -0.4503904 34
9.7412281 -5.7082891 -0.35146597 0
13.880231 -9.5503244 -0.62457633 45
13.888217 -11.126559 -0.76452506 44
8.9070711 -5.2194791 -0.50401032 0
8.9366884 -6.1489091 -0.59413886 0
13.91605 -11.148857 -1.0812349 38
8.7740345 -5.141521 -0.67670596 3
8.9628267 -6.166893 -0.78843915 8
13.967481 -11.190062 -1.4022505 23
8.7314558 -5.11657 -0.8524816 1
8.6940308 -5.9819474 -0.95150208 0
12.435906 -9.9630394 -1.5304054 4
8.7446632 -5.1243091 -1.0332766 1
8.6363688 -5.9422727 -1.130695 2
9.2301807 -6.3508463 -1.4070503 2
9.1499195 -6.2956228 -1.5913802 2
8.2114315 -5.6498938 -1.6063325 3
7.4543595 -5.1289892 -1.6182884 4
6.8709154 -4.7275491 -1.640367 4
6.3281932 -4.3541279 -1.6468976 3
5.8774443 -4.0439887 -1.6561344 5
5.4957886 -3.7813897 -1.6663657 7
4.0758376 -2.8043892 -1.701991 7
3.0375416 -2.0899873 -1.7186964 9
5.2254763 -3.6494129 1.6824522 17
5.4447536 -3.8025537 1.2833306 28
8.8144732 -6.1559277 1.5041083 24
13.836246 -9.6630754 1.4652258 31
13.801176 -9.6385832 0.86601603 35
13.850894 -9.6733055 0.57018566 33
13.848626 -11.254473 0.49627692 39
13.802757 -8.2183018 0.35220382 68
13.860281 -9.6798611 0.27089044 27
13.878102 -11.278428 0.18103501 38
13.843757 -8.242713 0.068052001 32
13.901393 -9.7085743 -0.028114099 28
13.897044 -11.293821 -0.13502187 30
10.326986 -6.1487923 -0.16153234 0
13.843073 -9.6678438 -0.32656398 63
13.936458 -11.325851 -0.45331764 35
9.7732792 -5.819109 -0.35407957 0
13.875485 -9.6904802 -0.62739176 44
13.875327 -11.276173 -0.76813048 36
8.90131 -5.2999301 -0.5057658 0
13.900255 -9.7077789 -0.92861539 31
13.924634 -11.316243 -1.0880138 43
8.7893667 -5.2332778 -0.68068969 4
9.0078669 -6.2909913 -0.79624546 51
13.966387 -11.350175 -1.4100617 24
8.698947 -5.1794415 -0.85281736 1
8.7206469 -6.0903997 -0.95904517 0
12.375318 -10.057148 -1.5315526 3
8.872797 -5.2829533 -1.0527494 3
8.6827059 -6.0639029 -1.1422765 0
10.210581 -7.1309528 -1.5640538 2
9.1122379 -6.3638825 -1.5925149 1
8.1879759 -5.7183886 -1.6095146 3
7.4280553 -5.1876688 -1.620401 4
6.8473964 -4.7821431 -1.6426829 4
6.3072615 -4.4049191 -1.6494131 4
5.8618464 -4.0938463 -1.6597524 4
5.4819818 -3.8285534 -1.6702433 6
4.0654631 -2.8392727 -1.7058947 7
3.0377386 -2.1215217 -1.7271461 10
5.2124934 -3.6947496 1.6865358 24
5.363606 -3.801862 1.2704289 24
8.8229942 -6.2539649 1.5129756 24
13.859481 -9.8239565 1.4749132 29
13.801991 -9.7832069 0.8703317 33
13.851517 -9.8183117 0.57301903 31
13.831424 -11.401748 0.49850088 36
13.810059 -8.3537893 0.35386971 42
13.864151 -9.8272667 0.27230033 27
13.866926 -11.431013 0.18192582 34
13.844056 -8.3743544 0.068339214 37
13.878964 -9.8377676 -0.02820695 30
13.891934 -11.451629 -0.13574569 41
10.239319 -6.1938267 -0.16083354 1
13.847025 -9.8151274 -0.32826564 44
13.872478 -11.43559 -0.45382234 38
9.8008337 -5.9285846 -0.35656872 0
13.885763 -9.8425865 -0.63094807 42
13.89186 -11.451568 -0.77345276 41
8.8914404 -5.3784871 -0.50732619 0
13.916866 -9.8646326 -0.93430305 37
13.909991 -11.466514 -1.093098 54
8.8004274 -5.3234324 -0.68440789 5
13.946835 -9.8858757 -1.2388932 33
13.914502 -11.470232 -1.4128736 34
8.676218 -5.2482972 -0.85416037 1
8.7689209 -6.2156367 -0.96910256 0
12.347818 -10.178757 -1.5369064 3
8.8731518 -5.3674245 -1.0572119 1
8.8380775 -6.264657 -1.168442 0
10.173502 -7.2112398 -1.5660474 1
9.0708189 -6.4296303 -1.5930822 1
8.1478558 -5.7754102 -1.6095146 3
7.4077206 -5.250783 -1.6239221 4
6.8170476 -4.8320985 -1.6434548 4
6.2986927 -4.4646754 -1.655283 5
5.8331242 -4.1346684 -1.6597524 4
5.4582872 -3.8689744 -1.6712127 6
4.0486283 -2.869772 -1.7071959 6
3.0258117 -2.1447732 -1.7288362 11
5.195991 -3.7378249 1.6895986 22
5.2954874 -3.8093996 1.260563 24
8.833786 -6.3547354 1.522397 25
13.832614 -9.9507275 1.4794109 33
13.801455 -9.9283133 0.87464744 33
13.84754 -9.9614649 0.57571751 28
13.791368 -11.53137 0.49994645 43
13.81273 -8.4876833 0.35544792 52
13.866634 -9.9752007 0.27371022 29
13.808267 -11.5455 0.18220925 43
13.839783 -8.5043068 0.068609528 46
13.894371 -9.9951534 -0.028379388 29
13.848474 -11.579119 -0.13610759 42
13.865918 -8.5203667 -0.21872716 34
13.843095 -9.9582672 -0.32981262 41
13.868999 -11.59628 -0.45634583 40
9.8409576 -6.0470982 -0.35955566 0
13.888099 -9.9906416 -0.63420802 46
13.826906 -11.561086 -0.77431124 51
8.8979263 -5.4676218 -0.50986183 0
13.912504 -10.008198 -0.93867815 38
13.863297 -11.591513 -1.0957612 54
8.7494459 -5.3763833 -0.68334556 3
13.94225 -10.029596 -1.2446756 33
13.879977 -11.60546 -1.4175603 36
8.6869106 -5.337956 -0.85886097 1
12.748401 -9.1707802 -1.4159386 50
12.307004 -10.29025 -1.5407305 3
8.8693686 -5.4500737 -1.0612687 1
11.480146 -8.2584391 -1.525323 4
10.142241 -7.2959948 -1.569038 2
9.0224972 -6.4904876 -1.5925149 2
8.1297779 -5.8482947 -1.6139696 3
7.370883 -5.3023705 -1.6239221 4
6.7799606 -4.8772807 -1.6426829 4
6.2641945 -4.5062556 -1.6544443 5
5.8199315 -4.1866674 -1.6642748 5
5.4342937 -3.9092522 -1.6721821 7
4.0284953 -2.8979669 -1.7071959 7
3.0166509 -2.1700795 -1.7322161 10
5.1559601 -3.7666874 1.6855149 22
5.2103386 -3.8064139 1.2469025 29
8.8285503 -6.4496984 1.5296017 24
13.852615 -10.12003 1.4894444 30
13.805722 -10.085773 0.87957966 33
13.838709 -10.109871 0.57841599 31
13.773538 -11.689075 0.50239283 43
13.807803 -8.6247244 0.35693845 44
13.870647 -10.133204 0.27524826 26
13.799503 -11.711111 0.18322152 44
13.834744 -8.641552 0.068896741 38
13.914396 -10.165164 -0.028571725 28
13.836414 -11.742437 -0.1368314 44
13.864149 -8.6599197 -0.21969473 30
13.844 -10.113736 -0.33159161 42
13.875084 -11.775254 -0.45937398 37
9.9591312 -6.2207403 -0.3655296 1
13.885499 -10.144053 -0.63746798 44
13.82101 -11.729363 -0.7787751 65
8.884717 -5.5496321 -0.51142222 0
13.909718 -10.161746 -0.94349074 38
13.854059 -11.757411 -1.1018137 53
8.7301111 -5.4530616 -0.68493903 3
13.926341 -10.173891 -1.2498798 32
13.885745 -11.784302 -1.4269336 32
8.65769 -5.4078255 -0.85986823 1
12.732304 -9.3015862 -1.4216857 202
12.231242 -10.380188 -1.5407305 4
8.8730564 -5.5423489 -1.0665426 1
11.467468 -8.3775606 -1.5317572 3
10.104509 -7.3818512 -1.5715301 2
8.9842691 -6.5634589 -1.5942169 3
8.0898781 -5.9100618 -1.614606 2
7.3381758 -5.3609052 -1.6253306 4
6.7535343 -4.9337955 -1.6449987 4
6.2436266 -4.5612822 -1.6577985 5
5.7765007 -4.2200232 -1.6606569 4
5.4086251 -3.951272 -1.6731515 7
3.9949269 -2.9184945 -1.701991 7
2.9948072 -2.1878569 -1.7288362 10
5.1326451 -3.8048942 1.6865358 23
5.1394687 -3.8099525 1.2362776 29
8.8310432 -6.5465631 1.5379148 23
13.836049 -10.256837 1.495326 28
13.802366 -10.231867 0.88389534 32
13.854504 -10.270517 0.58205891 29
13.78251 -11.863201 0.50572872 43
13.811416 -8.7616081 0.35860434 48
13.867038 -10.279809 0.27659407 25
13.802289 -11.880226 0.18435527 39
13.834878 -8.7764921 0.069200844 41
13.907358 -10.309699 -0.028704369 27
13.826856 -11.901372 -0.13755523 35
13.864149 -8.7950611 -0.22066233 29
13.830884 -10.253008 -0.33298388 39
13.856182 -11.926615 -0.4614937 39
13.895823 -8.8151541 -0.51226413 35
13.888199 -10.295496 -0.64087611 42
13.814507 -11.890743 -0.78306729 58
8.8963614 -5.6436238 -0.51434797 0
13.909025 -10.310935 -0.94830334 37
13.856367 -11.926774 -1.1085926 52
8.6985703 -5.5181503 -0.68547022 3
13.92869 -10.325513 -1.2565297 33
13.88474 -11.951196 -1.4353696 28
8.6668472 -5.4980259 -0.86456877 1
12.734263 -9.4400692 -1.4292287 118
12.176583 -10.480911 -1.5430249 4
8.8307877 -5.6020255 -1.066137 1
11.421483 -8.4668884 -1.533473 2
10.052729 -7.4522142 -1.5715301 2
8.979579 -6.6566749 -1.6015923 3
8.0515938 -5.9687476 -1.6152425 2
7.300571 -5.4120049 -1.6253306 4
6.7157722 -4.9784861 -1.6442267 3
6.2022052 -4.5977726 -1.655283 5
5.7406383 -4.2556071 -1.6588479 5
5.3809085 -3.988935 -1.6731515 5
3.9805319 -2.9508183 -1.7045934 7
2.9881978 -2.2151885 -1.733906 9
5.071959 -3.8150597 1.675306 23
5.0688057 -3.8126874 1.2256527 30
8.8294477 -6.6413922 1.5456736 25
13.859649 -10.425041 1.5057055 28
13.800833 -10.380801 0.88841653 29
13.846363 -10.415049 0.58475739 34
13.786706 -12.035388 0.50895351 42
13.817149 -8.9011316 0.36035791 34
13.868449 -10.431662 0.27806804 24
13.806396 -12.052576 0.1855295 42
13.840521 -8.9161882 0.069538735 38
13.902178 -10.457031 -0.028843647 30
13.845882 -12.087047 -0.13858064 37
13.85957 -8.9284592 -0.22157614 26
13.835674 -10.407009 -0.33484024 36
13.917177 -12.149285 -0.46633878 32
13.884358 -8.9444284 -0.51413101 35
13.883071 -10.442659 -0.64398783 43
13.806421 -12.052599 -0.78735948 56
8.8869734 -5.7250681 -0.51610345 0
13.916501 -10.467805 -0.95377225 37
13.872024 -12.109867 -1.116582 41
8.8041096 -5.6716866 -0.69689029 3
13.935973 -10.482452 -1.2637578 30
13.960187 -12.186831 -1.4519292 27
8.6584091 -5.5778251 -0.86759061 0
12.725359 -9.5718441 -1.4356942 65
12.097117 -10.560427 -1.5422601 3
8.8750954 -5.7174163 -1.076279 3
11.393879 -8.570323 -1.5377624 1
10.029005 -7.5436831 -1.5760159 2
8.9265614 -6.7144394 -1.6004577 3
8.0160408 -6.0295582 -1.6165153 2
7.2846379 -5.4794068 -1.63026 4
6.6965361 -5.0370445 -1.6480864 2
6.1762075 -4.6456604 -1.65696 5
5.7263589 -4.3072906 -1.6633704 4
5.3622346 -4.033401 -1.6760596 5
3.9598351 -2.9785349 -1.7045934 7
2.9639685 -2.2294574 -1.7288362 10
5.0113821 -3.8245654 1.664076 23
5.0170879 -3.8289201 1.2195814 28
8.8269539 -6.7365174 1.5534325 22
13.840384 -10.562645 1.5115871 31
13.813765 -10.542331 0.8939653 31
13.846408 -10.567243 0.58786058 28
13.82509 -12.240015 0.51351261 35
13.811563 -9.0345926 0.36184844 41
13.86841 -10.584034 0.27954203 27
13.850691 -12.262679 0.18727061 40
13.844885 -9.0563898 0.069876634 39
13.898789 -10.607219 -0.028989555 28
13.886944 -12.294776 -0.13984731 34
13.873883 -9.0753574 -0.2228125 29
13.848521 -10.568856 -0.33692864 40
13.927825 -12.330971 -0.46956885 33
13.881802 -9.0805378 -0.51637125 38
13.87338 -10.587828 -0.64695144 40
13.874541 -12.283795 -0.79611558 35
8.8969393 -5.8197775 -0.5190292 0
13.919283 -10.622859 -0.95902234 37
13.918677 -12.322871 -1.1272346 43
8.8143997 -5.7657852 -0.70087403 2
13.929053 -10.630316 -1.2698294 31
13.952395 -12.352723 -1.4600527 23
8.6859694 -5.6817751 -0.87430567 0
12.731065 -9.7160397 -1.4439557 69
12.05589 -10.673656 -1.5464666 3
8.8049927 -5.7596316 -1.0726279 1
11.35906 -8.6689596 -1.541194 1
9.9792509 -7.615922 -1.5765144 2
8.8952065 -6.7886057 -1.6032943 2
7.9925871 -6.0997486 -1.6203338 3
7.2242966 -5.5134082 -1.6253306 4
6.6674476 -5.0884342 -1.6496303 2
6.1467333 -4.6910377 -1.6577985 5
5.7023439 -4.3518906 -1.6651794 5
5.3432002 -4.0778008 -1.6789677 6
3.9690127 -3.0290542 -1.7176056 7
2.9540958 -2.2544944 -1.7322161 9
4.9448056 -3.8286777 1.6508042 22
4.9436555 -3.8277872 1.2081976 17
8.8204288 -6.8295059 1.5606371 25
13.851379 -10.724884 1.5209285 29
13.812476 -10.694762 0.89869201 33
13.857643 -10.729734 0.5915035 33
13.831536 -12.419043 0.51695973 38
13.801454 -9.166194 0.36325127 35
13.870077 -10.739362 0.28108007 25
13.859982 -12.444584 0.18856633 45
13.854628 -9.2015095 0.070248321 39
13.90663 -10.767664 -0.029161993 27
13.884109 -12.466247 -0.14069176 37
13.866827 -9.2096119 -0.22372633 27
13.843967 -10.719145 -0.33863029 37
13.921737 -12.500032 -0.47229421 34
13.89467 -9.2281036 -0.51923376 32
13.88446 -10.750498 -0.65095228 43
13.871708 -12.455112 -0.80092281 41
8.9159994 -5.9215345 -0.52254009 0
13.914258 -10.77357 -0.96383494 36
13.918466 -12.497095 -1.1342556 37
8.8071795 -5.8492618 -0.70352983 1
13.945981 -10.798133 -1.278214 35
13.960772 -12.53508 -1.4700509 20
8.685936 -5.7687383 -0.87833476 0
12.732224 -9.8583403 -1.4518578 22
11.969231 -10.746919 -1.544937 2
8.7612534 -5.8187599 -1.0722221 1
11.326563 -8.7699623 -1.5450544 2
9.9383907 -7.6951246 -1.578508 2
8.8475962 -6.8505411 -1.6032943 2
7.9560533 -6.1602345 -1.6216067 2
7.2136497 -5.5854044 -1.6316684 4
6.6100378 -5.1180382 -1.6442267 2
6.120019 -4.738625 -1.6594757 5
5.671823 -4.3915944 -1.6651794 5
5.3084645 -4.1102524 -1.677029 7
3.9477692 -3.0566895 -1.7176056 7
2.9411511 -2.2772825 -1.733906 10
4.8736701 -3.8255687 1.6354907 24
4.8872666 -3.8362412 1.2006085 3
8.8247976 -6.926991 1.5695044 23
13.852042 -10.873107 1.5288861 31
13.80723 -10.837933 0.90300769 29
13.858502 -10.878179 0.59460676 36
13.834629 -12.588543 0.52018452 36
13.810006 -9.3044491 0.36509252 34
13.870906 -10.887915 0.28255406 25
13.871811 -12.622375 0.18986204 46
13.849691 -9.3311863 0.070535526 36
13.891544 -10.904115 -0.029281374 27
13.898753 -12.646892 -0.14168701 32
13.875101 -9.3483067 -0.22485517 29
13.851217 -10.872459 -0.34056401 36
13.927256 -12.672827 -0.47532237 32
13.889529 -9.3580265 -0.52134949 32
13.88203 -10.896646 -0.65421224 41
13.880427 -12.630217 -0.80624515 41
8.9427986 -6.0251827 -0.5264411 0
13.917901 -10.924803 -0.9690851 38
13.917961 -12.66437 -1.1410345 40
8.7715025 -5.9097724 -0.70379543 1
13.946237 -10.947045 -1.2848638 32
13.971712 -12.713279 -1.4800493 22
8.6970711 -5.8596244 -0.88337106 0
13.092747 -10.277102 -1.5007081 3
11.938921 -10.863582 -1.5502907 1
8.7488718 -5.8945246 -1.0754676 1
11.290048 -8.8620796 -1.5480571 1
9.8965025 -7.7682214 -1.5800033 3
8.8206539 -6.9237385 -1.6066983 2
7.9181275 -6.2153039 -1.6222432 2
7.1888361 -5.6428494 -1.6344854 4
6.603734 -5.1835756 -1.6511742 3
6.0915332 -4.7815256 -1.6603142 5
5.6517668 -4.4363327 -1.6678928 4
5.2932982 -4.154954 -1.6809065 6
3.9184835 -3.0757985 -1.713702 7
2.9316866 -2.3012161 -1.737286 10
4.8135643 -3.8329983 1.6242607 22
4.1260886 -3.2855673 1.019227 5
8.8258076 -7.0279107 1.5783716 31
13.853733 -11.031603 1.5375355 19
13.803108 -10.991291 0.90773439 32
13.854153 -11.031938 0.59771001 29
13.828685 -12.760745 0.52329803 36
13.823933 -9.4548159 0.3671968 41
13.866519 -11.041784 0.28402802 23
13.85096 -12.7813 0.19079332 43
13.846942 -9.4705534 0.070856526 40
13.912087 -11.07807 -0.029486975 30
13.910067 -12.835842 -0.14271241 33
13.875527 -9.4901037 -0.22593026 31
13.853191 -11.031172 -0.34249771 40
13.941298 -12.864661 -0.47885525 30
13.893162 -9.5021648 -0.52396309 35
13.886922 -11.058031 -0.6580649 41
13.885895 -12.813537 -0.81173915 42
8.9664717 -6.1325774 -0.5303421 0
13.928779 -11.091362 -0.97521019 39
13.914302 -12.839749 -1.1480556 39
8.7926235 -6.0136752 -0.7088415 0
13.944377 -11.103783 -1.2918028 33
13.979326 -12.899754 -1.4903599 22
8.7053003 -5.9539509 -0.88840741 0
13.026916 -10.373216 -1.5014265 5
11.924237 -11.00337 -1.5583214 1
8.7666311 -5.9958973 -1.08277 0
11.255905 -8.9629765 -1.5519176 2
9.8575535 -7.8494816 -1.5824955 2
8.7844944 -6.9950137 -1.6089677 1
7.8807235 -6.2753496 -1.623516 3
7.1461873 -5.6904449 -1.6337811 4
6.5673862 -5.2295504 -1.6511742 3
6.067183 -4.831243 -1.6628299 4
5.6358986 -4.4878154 -1.6724154 5
5.264163 -4.1918058 -1.6809065 6
3.8998744 -3.1054349 -1.7150031 6
2.9183862 -2.3238847 -1.738976 10
4.7505846 -3.8373466 1.6120098 22
4.0694437 -3.2871463 1.0108789 3
8.822753 -7.1266937 1.5866847 30
13.847681 -11.185645 1.5454931 30
13.82548 -11.167711 0.91431069 32
13.851435 -11.188677 0.60094815 35
13.826846 -12.938937 0.52663398 35
13.813434 -9.5898647 0.36868733 42
13.879322 -11.211204 0.2858865 25
13.860688 -12.970606 0.19217002 43
13.846203 -9.6126146 0.071194425 39
13.915312 -11.240274 -0.029659413 28
13.898973 -13.006432 -0.1435267 30
13.877931 -9.6346416 -0.22705911 27
13.853619 -11.190441 -0.3444314 38
13.929978 -13.035446 -0.48158059 28
13.902021 -9.6513662 -0.52682561 34
13.890232 -11.220016 -0.66191757 40
13.883641 -12.992085 -0.81688976 44
9.0350237 -6.2724924 -0.53697383 0
13.922468 -11.246055 -0.9802416 36
13.923445 -13.029332 -1.1562871 39
8.8782892 -6.163681 -0.7191993 1
13.950314 -11.268548 -1.2996091 33
13.976282 -13.078776 -1.4997332 22
8.7355547 -6.0645881 -0.89579397 0
13.013062 -10.511471 -1.5082512 2
11.8355 -11.075467 -1.5567917 1
8.8618488 -6.1522675 -1.0998087 1
11.220901 -9.0638294 -1.555778 2
9.8364754 -7.9455409 -1.5879781 3
8.7385263 -7.0586586 -1.609535 1
7.8551536 -6.3451023 -1.6273345 2
7.1154752 -5.7476182 -1.6358938 4
6.5246105 -5.270339 -1.6496303 2
6.0241795 -4.8661094 -1.6603142 3
5.5862441 -4.5123615 -1.6669884 4
5.2468457 -4.2382083 -1.6847841 7
3.8869267 -3.1397157 -1.7189068 7
2.8879898 -2.3328114 -1.7305261 9
4.6788054 -3.8336506 1.5966961 22
4.6752276 -3.8307195 1.1679749 18
8.8248758 -7.2307968 1.5961061 22
13.852476 -11.350239 1.5548346 29
13.824426 -11.327254 0.91944844 32
13.862661 -11.358583 0.6048609 32
13.831895 -13.125976 0.53030354 34
13.831141 -9.7459564 0.37096697 43
13.871867 -11.366126 0.28736049 25
13.865547 -13.15791 0.19350623 42
13.860499 -9.7666445 0.071616791 40
13.916945 -11.403062 -0.029831851 27
13.915187 -13.205017 -0.14464259 31
13.882257 -9.7819757 -0.22824171 26
13.843211 -11.342647 -0.34613308 40
13.945958 -13.234218 -0.48531535 33
13.906203 -9.7988491 -0.52956367 32
13.882675 -11.374983 -0.6653257 40
13.888265 -13.179469 -0.82255542 44
13.86373 -9.7689209 -0.8279891 36
13.923941 -11.408794 -0.98592919 37
13.913239 -13.203169 -1.1630659 16
8.9263935 -6.2898822 -0.72663558 1
13.948453 -11.428878 -1.3068372 37
13.982985 -13.269356 -1.5103563 20
8.8070412 -6.2057819 -0.90754539 0
12.960931 -10.619738 -1.5107656 5
11.838763 -11.234565 -1.5674992 1
8.8609705 -6.243782 -1.1050825 0
11.145045 -9.1318636 -1.5540622 2
9.7654152 -8.001442 -1.5854859 2
8.7074099 -7.1345496 -1.612939 2
7.8137188 -6.4022903 -1.6279709 2
7.087359 -5.8071361 -1.6387106 4
6.4998007 -5.3257113 -1.6527181 3
6.0021615 -4.917963 -1.6636684 4
5.5636473 -4.5586596 -1.6697018 4
5.1961174 -4.2575183 -1.6779984 8
3.8766155 -3.1763642 -1.7241117 7
2.8828506 -2.3621078 -1.737286 9
4.6132607 -3.8340855 1.5834244 22
4.6181669 -3.8381631 1.1603857 22
8.8198786 -7.3302097 1.6044191 26
13.788224 -11.459407 1.5565645 30
13.815671 -11.482218 0.92417514 33
13.835292 -11.498525 0.60715461 37
13.829235 -13.308169 0.53375065 37
13.818066 -9.8818226 0.3724575 40
13.829089 -11.493369 0.28812951 29
13.871339 -13.348687 0.19488291 43
13.853798 -9.9073763 0.071937792 35
13.861608 -11.520396 -0.029884908 32
13.903359 -13.379501 -0.14548704 34
13.881952 -9.9275103 -0.22937055 28
13.84058 -11.50292 -0.34806678 49
13.942547 -13.417212 -0.48844445 31
13.905751 -9.9445295 -0.53217727 32
13.836741 -11.499729 -0.66695565 52
13.86019 -9.9119473 -0.83189011 35
13.862384 -11.521041 -0.98724174 42
13.881788 -9.927393 -1.1356337 35
13.895939 -11.548928 -1.3094393 36
13.964716 -13.438546 -1.5184798 24
13.947685 -9.9745188 -1.4444175 21
12.730221 -10.580099 -1.4924467 3
11.768649 -11.325224 -1.5686464 2
12.222326 -8.7406492 -1.5318619 15
11.081021 -9.2094479 -1.5540622 2
9.7428923 -8.0973272 -1.5909686 2
8.6665258 -7.2027578 -1.6146411 2
7.7809811 -6.4667811 -1.6305166 3
7.0678425 -5.8740907 -1.6436402 3
6.4654813 -5.3734679 -1.6534899 3
5.9676819 -4.9597464 -1.6636684 3
5.5256934 -4.5924091 -1.6678928 4
5.1901441 -4.3135338 -1.6857535 7
3.857255 -3.2057683 -1.7254128 7
2.8746545 -2.3891282 -1.7423559 9
4.5538545 -3.8387775 1.5721945 22
4.5672379 -3.8500593 1.1543144 29
8.8199816 -7.4350085 1.6138406 23
13.61953 -11.480899 1.5465311 26
13.759611 -11.598984 0.92581922 36
13.803588 -11.636056 0.60931337 31
13.844732 -13.510509 0.53797621 36
13.829653 -10.036772 0.37464947 40
13.821908 -11.651499 0.28966758 30
13.869414 -13.534595 0.19617863 41
13.86199 -10.06024 0.072343268 44
13.866479 -11.689071 -0.030070612 33
13.909808 -13.574014 -0.14654261 35
13.880283 -10.073516 -0.2304994 28
13.80275 -11.635349 -0.34914964 47
13.940115 -13.603589 -0.49167451 20
13.910408 -10.095379 -0.53503978 34
13.83253 -11.660453 -0.67066014 50
12.827695 -12.518023 -0.77001905 0
13.85209 -10.053055 -0.83559608 45
13.870175 -11.692187 -0.99358565 40
12.775982 -12.467559 -1.0824454 2
13.889668 -10.080327 -1.1420077 38
13.882083 -11.702225 -1.3158 35
12.814569 -12.505214 -1.4028754 5
13.935776 -10.113789 -1.450461 23
12.713923 -10.717498 -1.4992713 4
11.689297 -11.407107 -1.5686464 2
12.270508 -8.9052334 -1.5456551 2
11.025581 -9.2942705 -1.5553491 1
9.6891613 -8.1677036 -1.591467 2
8.6281414 -7.2732925 -1.6169103 2
7.7507434 -6.5336695 -1.6336987 1
7.0326843 -5.9283648 -1.6450486 2
6.4338126 -5.423532 -1.6550338 3
5.9299212 -4.998765 -1.6628299 3
5.4934988 -4.6308727 -1.6678928 4
5.148036 -4.3396568 -1.6818759 7
3.8318894 -3.2301803 -1.7241117 6
2.8468177 -2.3997912 -1.7355961 9
4.4873896 -3.8393698 1.5589226 22
4.5000987 -3.8502433 1.1444485 31
8.8134041 -7.540668 1.6227078 24
13.429027 -11.489753 1.5344218 25
13.765276 -11.777445 0.93198448 36
13.796899 -11.804502 0.6128214 33
13.830558 -13.696037 0.5413121 38
13.826531 -10.190075 0.37657839 39
13.818177 -11.822707 0.29139787 32
13.866459 -13.731589 0.19755532 40
13.858711 -10.21379 0.072714947 37
13.859445 -11.858014 -0.03024305 33
13.898039 -13.762863 -0.14747754 33
13.876901 -10.227197 -0.231682 28
13.783941 -11.793414 -0.3508513 48
13.897182 -10.242144 -0.53740442 32
13.834764 -11.836897 -0.67495733 48
12.604968 -12.482368 -0.76212138 0
13.858428 -10.213582 -0.84047234 40
13.872106 -11.868847 -0.99992955 42
12.582115 -12.459739 -1.0737296 2
13.892509 -10.2387 -1.1483817 43
13.88687 -11.881479 -1.3244737 36
12.558212 -12.436069 -1.3847537 3
13.928644 -10.26533 -1.4575119 20
12.70767 -10.872566 -1.5078919 3
11.605366 -11.492489 -1.5686464 2
