# .PCD v0.7 - Point Cloud Data file format
VERSION 0.7
FIELDS x y z intensity
SIZE 4 4 4 4
TYPE F F F F
COUNT 1 1 1 1
WIDTH 1389
HEIGHT 1
VIEWPOINT 0 0 0 1 0 0 0
POINTS 1389
DATA ascii
0.17723586 4.7653461 -0.937904 0
0.17865278 4.803443 -1.0305687 1
0.11831556 3.1811543 -0.73897421 0
0.070431426 1.893692 -0.65190941 6
0.066834792 1.7969892 -0.83822358 36
0.10055535 2.2757521 0.60131335 2
0.30737218 6.9563961 1.3455619 13
0.46567073 10.538981 1.4758439 33
0.55991578 12.67192 1.1012547 11
1.034744 23.418152 1.2059283 2
1.4189909 32.114365 1.0849179 14
2.0708051 17.627924 0.49360815 43
-1.3532709 47.849361 1.0495095 15
1.4167919 32.064594 0.51428813 24
2.0710325 17.629862 0.17969881 51
-0.34274963 12.119046 0.051207948 46
0.5341233 12.088188 -0.020062551 0
2.0738802 17.6541 -0.13402662 45
-0.14608924 5.1654677 -0.069450848 55
0.22543763 5.1020665 -0.098773614 46
0.60322887 5.1350431 -0.13051429 48
-0.14411023 5.0954933 -0.15868241 2
0.22303118 5.0476041 -0.18729882 0
0.59214109 5.0406575 -0.2180433 0
-0.14095892 4.9840684 -0.24342294 0
0.22126363 5.0076013 -0.27453765 0
-0.14025123 4.9590454 -0.33011991 0
0.58250183 4.958602 -0.39118043 0
-0.14006534 4.9524732 -0.41734332 0
0.21841387 4.9431062 -0.44611764 0
0.31728446 2.7009139 -0.26118612 2
-0.076387011 2.7009151 -0.27545926 1
0.10743767 2.4315114 -0.2625134 1
0.096356586 2.1807261 -0.27413306 2
0.090014212 2.0371866 -0.29217854 10
0.08872924 2.0081053 -0.32393947 17
0.087948866 1.9904439 -0.35633329 24
0.21119264 4.7796764 -0.9409917 0
0.08281523 1.8742603 -0.64540333 8
0.078738257 1.781991 -0.83146369 36
0.11881283 2.3213441 0.61356419 2
0.35492539 6.9344697 1.3417672 23
0.54044974 10.559212 1.4791691 21
0.64857185 12.671683 1.1016006 10
1.192898 23.306631 1.2005851 1
1.6394768 32.031811 1.0824893 51
2.1957965 17.628906 0.49405295 43
-1.0208893 47.937611 1.0512631 9
1.6385642 32.013981 0.51364726 56
2.1960385 17.63085 0.17986077 50
-0.25796404 12.113145 0.05117416 43
0.62115914 12.136098 -0.020148769 4
2.1985605 17.651098 -0.1341171 48
-0.1098536 5.1583643 -0.069343336 60
0.26084659 5.0963745 -0.098696269 42
0.63955748 5.1346745 -0.13061523 16
-0.10734171 5.0404148 -0.15694001 0
0.25846872 5.0499167 -0.187447 0
0.63126844 5.0681257 -0.2194168 0
-0.10658544 5.0049028 -0.24439819 0
0.34645522 6.7689815 -0.37122738 0
-0.10562714 4.9599042 -0.33011991 0
0.41927731 8.1917658 -0.59443742 0
0.61710489 4.9544144 -0.39118043 0
-0.10531741 4.9453607 -0.41667178 0
0.25230676 4.9295254 -0.44504005 0
0.33219537 2.6670239 -0.25812685 2
-0.057020847 2.6775119 -0.27302516 1
0.12441008 2.4307022 -0.2625134 2
0.11320142 2.2117095 -0.27812046 2
0.10443655 2.0404627 -0.29274589 10
0.10314989 2.0153246 -0.32521233 18
0.10284889 2.0094435 -0.35985437 20
0.24415444 4.7702465 -0.93944788 0
0.096477948 1.8849691 -0.64930695 7
0.091362208 1.7850188 -0.83315367 36
0.14018284 2.409261 0.63704503 1
0.40424058 6.9475055 1.3448029 38
0.61461335 10.56309 1.4802775 22
0.73725176 12.670823 1.1019466 7
1.3632358 23.429337 1.2073669 1
1.4819947 25.470394 0.86108017 3
2.3209028 17.629007 0.49449775 48
-0.62913769 43.956932 0.96384776 0
1.4782343 25.405766 0.40777758 5
2.321681 17.634918 0.18006323 49
-0.17339207 12.114651 0.05117416 53
0.70563686 12.127472 -0.020142136 10
2.3233004 17.647217 -0.13420758 45
-0.073781505 5.1550064 -0.06928958 61
0.29665163 5.0984216 -0.098773614 52
-0.072608113 5.0730228 -0.15793566 0
0.29232407 5.0240459 -0.18655792 0
0.66559178 5.0556717 -0.21907341 41
-0.071413338 4.9895458 -0.243618 0
0.39834276 6.8461428 -0.37560251 0
-0.071569093 5.0004282 -0.33277574 0
0.66000617 5.0132442 -0.39617953 0
-0.070561558 4.9300332 -0.41532877 0
0.28324378 4.8679867 -0.43965214 0
0.3544445 2.6922731 -0.26080373 1
-0.038042158 2.6579499 -0.27099675 1
0.1409144 2.421834 -0.26165554 1
0.12725596 2.1870925 -0.27512991 2
0.11982898 2.0594482 -0.29558256 10
0.11584056 1.990901 -0.32139379 19
0.11595995 1.9929528 -0.35703751 18
0.11029418 1.8955778 -0.65321064 6
0.10297929 1.7698599 -0.82639384 37
0.25537512 3.917223 1.0362191 2
0.45247757 6.9405956 1.344044 38
0.58190799 8.9259415 1.2513915 1
0.8259514 12.669345 1.1022927 8
1.6182451 24.822412 1.2797061 45
1.6179026 24.81716 0.83935755 35
2.4466662 17.632175 0.49505374 45
-0.32230374 43.96825 0.96402311 1
1.6183558 24.82411 0.39861333 39
2.4469371 17.634127 0.18022519 47
-0.088840954 12.119565 0.051191054 47
0.79054487 12.126242 -0.020148769 37
2.4486423 17.646414 -0.13432822 42
-0.037761662 5.1513963 -0.069235824 54
0.33223778 5.0962267 -0.098773614 42
2.4462833 17.629414 -0.44928008 8
-0.037072737 5.0574141 -0.15743785 0
0.32895136 5.0458155 -0.187447 0
0.69867337 5.0350676 -0.21838666 32
-0.036929432 5.0378642 -0.2459586 0
0.44846621 6.879065 -0.37757128 0
0.88406879 6.3711405 -0.39002898 0
-0.036540758 4.9848418 -0.33171341 0
0.31975153 4.9046984 -0.35619986 0
0.6873154 4.9532151 -0.39180529 0
-0.036317024 4.9543204 -0.41734332 0
0.32395992 4.9692516 -0.44899118 0
0.37213677 2.6818452 -0.26003888 2
-0.019281054 2.6302958 -0.26815698 1
0.15859455 2.4326966 -0.26294234 1
0.14226332 2.1821904 -0.2746315 2
0.13291566 2.0388057 -0.29274589 11
0.13076437 2.0058067 -0.32393947 18
0.1301266 1.9960239 -0.35774174 15
0.14062138 2.1570046 -0.53994519 1
0.12327894 1.8909872 -0.65190941 4
0.11604019 1.7799513 -0.83146369 35
0.28188044 3.9037719 1.0331564 1
0.39626753 5.4879231 1.0632442 12
0.91495323 12.671219 1.1029845 8
1.7920728 24.818478 1.2801172 51
1.7934214 24.837156 0.84043694 52
7.8626404 53.896442 1.5147399 35
-0.018778645 53.827061 1.1801502 55
1.7930602 24.832153 0.39893377 48
-0.0042310567 12.127891 0.051224843 38
0.87691051 12.144365 -0.020188563 14
1.647346 11.292148 -0.086043641 2
-0.0018000064 5.1595335 -0.069343336 48
0.36751974 5.0897937 -0.098696269 36
1.6387869 11.233477 -0.2865662 8
-0.0017672167 5.0655456 -0.15768676 0
0.3621543 5.0154877 -0.18640974 0
0.73669195 5.04984 -0.21924511 31
-0.0017520315 5.0220184 -0.2451784 0
0.49619216 6.8717828 -0.37735254 0
0.93198401 6.3885183 -0.39148161 0
-0.0017405006 4.9889665 -0.33197898 0
0.35657063 4.938159 -0.35880196 0
0.72821057 4.9917026 -0.39524218 0
-0.00172846 4.954453 -0.41734332 0
0.35347918 4.8953457 -0.44252568 0
0.39544857 2.7107017 -0.26309818 1
-0.00092320889 2.6462836 -0.26977971 1
0.17557397 2.43153 -0.26294234 1
0.1540643 2.1336417 -0.26865041 3
0.14828654 2.0536253 -0.29501522 10
0.14419539 1.9969671 -0.32266665 20
0.14320745 1.9832851 -0.35562909 14
0.13702223 1.8976256 -0.65451181 2
0.12846367 1.7790978 -0.83146369 36
0.31340328 3.9556851 1.047449 1
0.55089027 6.9531765 1.3478385 19
0.52125359 6.5791111 0.92330307 0
1.0037068 12.668496 1.1033306 5
1.9652935 24.805363 1.2801172 50
1.9677198 24.835987 0.84084171 57
1.678951 10.971993 0.30868578 9
0.34762341 53.829941 1.1802379 66
1.9685875 24.846939 0.39938235 51
1.6698339 10.912414 0.11175501 9
0.078343794 12.131639 0.051241737 33
1.970417 24.870031 -0.041365329 32
1.6595865 10.845447 -0.082726151 10
0.033370242 5.1674256 -0.069450848 49
0.40462336 5.1070385 -0.099083006 33
1.6506373 10.786963 -0.2754629 11
0.032685824 5.0614429 -0.1575623 0
0.39779136 5.0208068 -0.1867061 0
0.77011478 5.0327225 -0.21873005 58
0.032378957 5.0139236 -0.24478829 0
0.54636198 6.8960223 -0.37888384 0
0.0321398 4.9768896 -0.33118224 0
0.39985925 5.0469074 -0.36689743 0
0.77027965 5.0337996 -0.39899153 0
0.031994242 4.95435 -0.41734332 0
0.3904781 4.9285011 -0.44575843 0
0.41014716 2.6803236 -0.26042131 2
0.016780468 2.5984774 -0.2649115 1
0.19160256 2.4183517 -0.26165554 1
0.17146376 2.1641657 -0.27263778 2
0.16168164 2.0406985 -0.29331321 9
0.15906894 2.0077219 -0.3245759 19
0.15860476 2.001863 -0.35915017 13
0.21977971 2.7739956 -0.54730362 0
0.15938343 2.0116913 -0.50407809 0
0.15504657 1.9569527 -0.67533129 2
0.1408809 1.7781576 -0.83146369 35
0.34200841 3.9649606 1.0505117 3
0.59975624 6.953074 1.3485975 19
0.91101474 10.561545 1.4830486 20
1.095549 12.700882 1.1067904 4
1.5808984 18.327618 0.94637012 3
1.5789962 18.305565 0.62010723 5
1.6872106 10.533607 0.2966764 12
0.72346956 53.830204 1.1803255 72
1.569381 18.194096 0.2926155 4
1.6776547 10.473948 0.10738198 20
0.163036 12.130795 0.051241737 34
1.5527365 18.001133 -0.029957864 7
1.6757951 10.462339 -0.079891205 31
0.069444574 5.1670666 -0.069450848 49
0.44095442 5.1120582 -0.099237703 41
1.6734118 10.447459 -0.26708496 38
0.067912824 5.0530958 -0.15731339 0
0.43352026 5.0258727 -0.18700245 0
0.80839097 5.0469537 -0.21958849 40
0.067650132 5.0335503 -0.24576354 0
0.80449581 5.0226355 -0.30844006 0
0.066562161 4.952599 -0.32958874 0
0.95992446 5.9930086 -0.4755404 0
0.066420376 4.9420495 -0.41633603 0
0.42384863 4.9137478 -0.44468087 0
0.42695999 2.6656005 -0.25927407 2
0.035081137 2.6102338 -0.26612854 1
0.20779747 2.4090307 -0.26079765 1
0.18861462 2.1866407 -0.27562833 2
0.17524378 2.0316303 -0.29217854 11
0.17240274 1.9986937 -0.32330307 20
0.17054608 1.9771693 -0.35492486 12
0.23711658 2.7489319 -0.54267204 0
0.18249358 2.1156785 -0.49295098 0
0.17609173 2.0414608 -0.51183313 1
0.16415398 1.9030645 -0.65711427 2
0.15484907 1.795191 -0.83991355 34
0.36824346 3.947073 1.0464281 0
0.64718848 6.9369869 1.3463207 22
0.62667692 6.7171307 0.94380856 2
1.1827098 12.677053 1.1054064 3
1.6446135 17.628036 0.91081703 42
1.6458513 17.641304 0.59797984 33
1.7442088 10.422981 0.29389647 43
1.043565 51.097065 1.1205289 7
1.6458338 17.641119 0.28389984 30
1.746114 10.434366 0.10709855 47
0.24796531 12.141359 0.051292423 23
1.6449282 17.631411 -0.029360961 50
1.7481345 10.44644 -0.079861045 47
0.10535218 5.1584582 -0.069343336 40
0.47774678 5.120801 -0.099469751 47
1.7469674 10.439466 -0.2671859 42
0.10359632 5.072485 -0.15793566 0
0.46933925 5.0306835 -0.18729882 0
0.10221795 5.0049939 -0.24439819 0
0.83822262 5.0090213 -0.30795583 47
0.1013804 4.9639845 -0.33038548 0
1.0076632 6.0215588 -0.4783524 0
0.10067633 4.9295101 -0.41532877 0
0.45555201 4.8829026 -0.44216651 0
0.45015901 2.6900444 -0.26195094 2
0.052409202 2.5661612 -0.26166603 1
0.22645761 2.42732 -0.26294234 1
0.2005575 2.1497056 -0.27114251 2
0.19052628 2.0421846 -0.29388055 11
0.18745245 2.0092373 -0.32521233 20
0.18580812 1.9916124 -0.35774174 11
0.25374973 2.7198548 -0.53726846 0
0.24959491 2.6753206 -0.57607871 0
0.17708443 1.8981061 -0.65581304 1
0.1660309 1.7796272 -0.83315367 35
0.39617616 3.9482541 1.047449 1
0.69873846 6.9635611 1.3523921 26
0.61541551 6.1331725 0.86234069 2
1.2683977 12.640732 1.1029845 1
1.7692345 17.632023 0.91163909 41
1.770167 17.641317 0.59838462 38
1.8203692 10.430245 0.29445243 42
1.3987275 51.032566 1.1193014 9
1.7709476 17.649096 0.28422028 35
1.8209796 10.433743 0.10722002 47
0.33228287 12.123339 0.051224843 36
1.7707729 17.647356 -0.029407388 43
1.823772 10.449742 -0.079981685 42
0.14136215 5.1575971 -0.069343336 33
0.51468265 5.1292782 -0.099701792 64
1.8225555 10.442773 -0.26758963 44
0.13900614 5.0716381 -0.15793566 0
0.50564557 5.039216 -0.18774335 0
0.94267732 5.401298 -0.23555543 0
0.13737555 5.012146 -0.24478829 0
0.878663 5.0345125 -0.30989268 12
0.13647021 4.979115 -0.33144781 0
0.50546598 5.0374265 -0.36689743 0
0.87004566 4.985137 -0.39649197 0
0.13541569 4.9406404 -0.41633603 0
0.49718696 4.9549184 -0.44899118 0
0.47235078 2.7064481 -0.263863 2
0.071086161 2.5935781 -0.2645058 1
0.23903018 2.3821521 -0.25822398 1
0.218334 2.1758959 -0.2746315 2
0.2024067 2.0171659 -0.29047653 11
0.19910923 1.9843037 -0.32139379 21
0.20245942 2.0176914 -0.36267126 9
0.27077228 2.6984909 -0.53340876 0
0.27178034 2.7085369 -0.58362561 0
0.19184184 1.9118775 -0.66101789 1
0.17881285 1.7820319 -0.83484364 33
0.66409194 6.1834216 1.641616 17
0.74733585 6.9585137 1.3523921 25
0.63664383 5.9278498 0.83407629 3
1.5187451 14.141176 1.234803 20
1.8922852 17.619244 0.91163909 44
1.8945631 17.640453 0.59878939 41
1.8960009 10.433019 0.29489723 43
1.3523103 39.315296 0.86249167 4
1.8949715 17.644255 0.28434846 34
1.8959216 10.432582 0.10734149 48
0.41732353 12.132716 0.051275529 42
1.8964936 17.658426 -0.029447181 38
1.8988256 10.448563 -0.080072157 43
0.17764024 5.1644793 -0.069450848 39
0.55176014 5.1374893 -0.09993384 73
1.8975599 10.441598 -0.26789245 42
0.17454661 5.0745392 -0.15806013 0
0.54550862 5.0792813 -0.18937333 1
1.8971297 10.43923 -0.45583066 111
0.17208862 5.0030789 -0.24439819 0
0.7399767 6.8899918 -0.37954009 0
0.91378891 5.0282555 -0.30989268 32
0.171639 4.9900069 -0.33224458 0
0.90197498 4.9632473 -0.39524218 0
0.17072642 4.9634757 -0.41835058 0
0.52410901 4.8800273 -0.44252568 0
0.48980984 2.6952496 -0.26309818 2
0.088780493 2.5810876 -0.26328877 1
0.25353143 2.3606546 -0.25607926 1
0.23309539 2.1703727 -0.27413306 2
0.21859825 2.0353885 -0.29331321 11
0.21506582 2.0024977 -0.3245759 20
0.21401773 1.992739 -0.35844594 8
0.49371082 4.5969872 -0.90934229 0
0.29444152 2.7415724 -0.59117246 0
0.29666165 2.762244 -0.64490652 0
0.28884083 2.6894238 -0.67565852 0
0.20881964 1.944339 -0.67272884 1
0.19008788 1.769926 -0.82977378 34
0.70680398 6.1747923 1.6405951 16
0.79679006 6.9609303 1.3539099 25
0.67395759 5.8878393 0.82908845 2
1.5866144 13.861006 1.2112764 22
2.0161521 17.613541 0.91205007 43
2.0199425 17.646656 0.599464 43
1.9717598 10.435244 0.29534203 39
1.6209596 39.165047 0.85942292 58
2.0203786 17.650465 0.28466886 37
1.9724211 10.438743 0.10754395 47
0.50300741 12.153486 0.051376898 33
2.0206349 17.652704 -0.029460445 34
1.9761794 10.458633 -0.080253117 41
0.21352509 5.1591167 -0.069397092 39
0.58670318 5.1255655 -0.099779144 91
1.9726365 10.439883 -0.26819527 45
0.20963839 5.065208 -0.15781121 0
0.58050048 5.0713778 -0.18922515 29
1.9721884 10.437511 -0.45634574 121
0.20618616 4.9817967 -0.24342294 0
0.78942209 6.8965621 -0.38019636 0
0.95331812 5.0452933 -0.31134531 19
0.20597622 4.9767241 -0.33144781 0
0.94400668 4.9960141 -0.39836663 0
0.20487909 4.9502153 -0.41734332 0
0.51157117 2.7074139 -0.26462781 2
0.10548112 2.5485971 -0.26004329 1
0.27588508 2.4101918 -0.26165554 1
0.25049835 2.1884079 -0.27662519 2
0.23100129 2.0180771 -0.29104388 11
0.22859144 1.9970242 -0.32393947 21
0.22881992 1.9990203 -0.35985437 7
0.22540298 1.9691691 -0.38982841 0
0.31179485 2.723907 -0.58781832 0
0.30796233 2.6904254 -0.62862557 0
0.51415336 4.491755 -1.1293287 0
0.2275503 1.9879286 -0.68834347 1
0.20367646 1.7793616 -0.83484364 32
0.74942797 6.1658683 1.6395742 16
0.84820986 6.9785895 1.3584634 3
1.2833542 10.55871 1.4880364 19
1.6684377 13.726959 1.200551 18
2.1395497 17.603001 0.91225559 44
2.1455011 17.651966 0.6001386 40
2.047642 10.436919 0.29578683 42
1.549951 32.034817 0.70318013 47
2.1435521 17.635929 0.28466886 36
2.0498688 10.448269 0.10778689 50
0.58784181 12.149678 0.051376898 39
2.145272 17.650082 -0.029480342 38
2.0506856 10.452433 -0.080313429 46
0.2497303 5.1614957 -0.069450848 39
2.0477815 10.43763 -0.26849809 45
0.24460839 5.055634 -0.1575623 0
0.6163733 5.0711699 -0.18937333 41
2.046546 10.431332 -0.45668909 77
0.24096036 4.9802356 -0.24342294 0
0.83610392 6.8789887 -0.37954009 0
0.24206515 5.0030699 -0.33330691 0
0.97655886 4.9775624 -0.39742929 7
0.94363594 4.8097529 -0.47074687 0
0.12230941 2.527925 -0.25801486 1
0.29222468 2.404259 -0.26122659 1
0.26385465 2.1708465 -0.2746315 2
0.24795088 2.0399992 -0.2944479 11
0.24395704 2.0071402 -0.32584876 19
0.24277005 1.9973742 -0.35985437 10
0.24056545 1.979236 -0.3921442 5
0.23783879 1.9568026 -0.42262542 6
0.52277982 4.301136 -1.0058008 0
0.54784012 4.507318 -1.1341757 0
0.24233578 1.9938014 -0.69094586 1
0.21565627 1.7742975 -0.83315367 37
0.79640275 6.1911736 1.6477414 18
0.70700449 5.4961982 1.0708334 4
1.3605739 10.576997 1.4919158 25
1.7525347 13.62407 1.1925935 25
2.2659564 17.61537 0.91369414 42
2.2707222 17.652418 0.60067832 45
2.1236436 10.438043 0.29623163 42
1.7731142 32.015228 0.70300478 69
2.2696824 17.644335 0.2850534 34
2.1259506 10.449381 0.10794885 46
0.67308998 12.153266 0.051410686 36
2.2709913 17.65451 -0.029513502 35
2.127594 10.457458 -0.080464229 44
0.28575796 5.159626 -0.069450848 34
0.70209074 5.4579992 -0.10643108 0
2.1253824 10.446589 -0.26910374 45
0.2805604 5.0657792 -0.15793566 0
0.65125144 5.0627785 -0.18922515 14
2.1217101 10.428538 -0.45720416 102
0.2757228 4.9784322 -0.24342294 0
0.82601631 6.4213872 -0.35460201 0
1.1072494 5.4423051 -0.33676618 0
0.27676627 4.997273 -0.33304131 0
1.016055 4.9940696 -0.39930397 34
0.27419534 4.9508519 -0.41767907 0
0.64042532 4.9786172 -0.4525831 0
0.97639728 4.7991462 -0.47036448 2
0.14083475 2.5429027 -0.25963759 1
0.30849496 2.398216 -0.26079765 1
0.2764717 2.1492696 -0.27213937 2
0.25814518 2.0068009 -0.28990918 11
0.25645199 1.9936379 -0.32393947 21
0.25721067 1.9995359 -0.3605586 15
0.25437716 1.9775083 -0.3921442 20
0.25299093 1.966732 -0.42514107 15
0.25054711 1.947734 -0.45586661 8
0.25053209 1.9476172 -0.49050674 9
0.24466723 1.9020241 -0.65971673 1
0.22803785 1.7727487 -0.83315367 34
0.84168631 6.2007923 1.6518251 18
0.74430114 5.4833455 1.0693156 0
1.4349142 10.571165 1.49247 26
1.8486773 13.619401 1.1932853 20
2.3888786 17.599121 0.91369414 43
2.3949783 17.644058 0.60094815 39
2.1989362 10.4347 0.2965652 43
1.5764946 25.268784 0.55509144 14
2.3949587 17.643913 0.28530973 38
2.1996734 10.438199 0.10798935 43
0.75816774 12.152263 0.05142758 24
2.3947246 17.642189 -0.029520135 38
2.203023 10.454093 -0.080554701 45
0.32177171 5.1575055 -0.069450848 32
2.3910527 17.615137 -0.34381261 68
2.2007349 10.443235 -0.26940656 44
0.31766173 5.091629 -0.15880688 2
0.6898061 5.0818748 -0.19011423 34
2.1969352 10.425204 -0.45771924 86
0.31047183 4.9763861 -0.24342294 0
0.894463 6.5896034 -0.36422724 0
2.2006931 10.443037 -0.64714307 49
0.31189534 4.9992027 -0.33330691 0
1.0834213 7.9816799 -0.58373988 0
1.0517174 4.990757 -0.39961642 29
0.30850366 4.944839 -0.41734332 0
0.57308507 2.7194836 -0.26692227 1
0.15907955 2.5498006 -0.26044896 1
0.32683474 2.4078262 -0.26208448 1
0.28986809 2.135489 -0.2706441 2
0.2748118 2.0245676 -0.29274589 11
0.27089497 1.995712 -0.3245759 19
0.267986 1.9742811 -0.35633329 20
0.26817644 1.9756842 -0.3921442 29
0.26671502 1.9649179 -0.42514107 31
0.26361457 1.9420764 -0.4549621 15
0.26151291 1.9265932 -0.48565984 19
0.25488725 1.8777813 -0.65190941 4
0.23992066 1.7675209 -0.83146369 36
0.88386124 6.1871076 1.6497833 17
0.99583864 6.9709592 1.3607402 25
1.5086793 10.56089 1.49247 23
1.5993786 11.195793 0.98189157 8
2.5241129 17.669016 0.91821539 5
6.0753207 42.527786 1.4498852 25
2.2734334 10.426908 0.29678759 41
1.7215778 24.806356 0.54518378 57
2.275048 10.434313 0.10811082 43
0.85489553 12.31826 0.052154053 4
2.2793603 10.45409 -0.080675341 49
0.35832357 5.1631136 -0.069558352 37
2.5190601 17.633646 -0.34450877 88
2.2804029 10.458873 -0.27021405 44
0.35264635 5.0813103 -0.15855795 6
0.72639775 5.0848489 -0.19041058 28
2.2747705 10.43304 -0.45874935 72
0.34520569 4.9740973 -0.24342294 0
0.70491004 4.9344335 -0.27300635 0
2.276947 10.443023 -0.64811146 46
0.34678844 4.9969034 -0.33330691 0
1.1391171 7.9739218 -0.58373988 0
1.0933297 5.0144629 -0.40211597 4
0.34384519 4.954494 -0.41835058 0
0.71550912 5.0086279 -0.45617503 0
1.048398 4.8083878 -0.47265893 5
0.17604998 2.5367186 -0.25923193 1
0.34307402 2.4015489 -0.26165554 1
0.30982086 2.1687737 -0.27512991 2
0.28669932 2.0069208 -0.29047653 12
0.2876133 2.0133188 -0.32775801 19
0.28343293 1.9840559 -0.35844594 20
0.28307277 1.9815347 -0.39368808 25
0.28153235 1.9707516 -0.42681813 29
0.27771729 1.9440459 -0.45586661 32
0.27770066 1.9439293 -0.49050674 37
0.26585066 1.8609785 -0.64670455 22
0.25584331 1.7909261 -0.84329349 31
0.92588627 6.1731372 1.6477414 16
1.0456456 6.9716053 1.362258 4
1.531251 10.209269 1.4442544 20
1.6083435 10.723267 0.94141185 8
1.6661814 11.108888 0.57789207 10
1.654983 11.034225 0.37657079 9
2.3496873 10.426385 0.29723239 43
1.8971531 24.825632 0.54588521 80
1.648594 10.991628 0.17809428 8
2.3531132 10.441586 0.10835376 47
1.8982017 24.839354 0.10522042 57
1.6369373 10.913909 -0.018298373 8
2.3558049 10.453531 -0.080795974 44
0.39527413 5.1724501 -0.06971962 55
1.6858689 11.240149 -0.21982351 6
2.3551216 10.4505 -0.27041593 43
0.38811171 5.0787244 -0.15855795 13
0.76484323 5.0994186 -0.19115148 11
2.3545794 10.448093 -0.46012285 54
0.382967 5.0114021 -0.24537344 0
0.75533688 5.0360374 -0.27891275 0
2.3533082 10.442452 -0.64907986 46
0.38166469 4.9943604 -0.33330691 0
0.72904474 4.8607407 -0.35619986 0
1.1914326 5.2868032 -0.42461196 0
0.3775143 4.9400496 -0.41734332 0
1.1195815 4.9679747 -0.48910257 11
0.19345196 2.5314598 -0.25882623 1
0.35570231 2.3715646 -0.25865293 1
0.32730883 2.1822574 -0.2771236 2
0.29776663 1.9852915 -0.28763986 12
0.29990458 1.9995459 -0.32584876 20
0.29902941 1.9937108 -0.3605586 18
0.29748166 1.9833916 -0.39446002 23
0.29470372 1.9648702 -0.42597961 22
0.28897068 1.9266466 -0.4522486 30
0.29068935 1.9381055 -0.48953736 38
0.28051928 1.8702989 -0.65060818 49
0.26565123 1.7711694 -0.83484364 33
0.96895993 6.166523 1.6477414 13
0.67303449 4.2832346 0.83784556 4
1.5434546 9.8226442 1.3910508 20
1.6373909 10.42046 0.91580933 33
1.6754849 10.662892 0.55528605 12
1.6661965 10.603781 0.36226892 10
2.4287629 10.436987 0.29801077 43
2.072084 24.831709 0.5463236 67
1.6582395 10.553142 0.17117302 10
2.4286709 10.436591 0.10847524 45
2.0718982 24.829483 0.10523732 79
1.6454109 10.4715 -0.017575458 19
2.4314461 10.448517 -0.080886453 43
0.43137473 5.1695647 -0.06971962 53
1.7015979 10.829078 -0.21201134 14
2.4316473 10.449381 -0.27081969 47
0.42355815 5.0758915 -0.15855795 18
2.4301803 10.443077 -0.46063793 51
0.41129902 4.9289789 -0.24147244 0
0.79047632 5.0306416 -0.27891275 32
2.4297721 10.441323 -0.65004832 45
1.0069599 6.4083571 -0.47011444 0
1.2635617 5.4298325 -0.43679729 0
0.41365013 4.9571543 -0.41902208 0
0.78537077 4.9981494 -0.45617503 0
1.152432 4.9522815 -0.48833776 25
0.20880365 2.5022886 -0.25598645 1
0.37718874 2.4004533 -0.26208448 1
0.33883932 2.156395 -0.27413306 2
0.31653625 2.014457 -0.29217854 11
0.31201762 1.9857001 -0.32393947 19
0.31110704 1.9799051 -0.35844594 16
0.31193021 1.9851438 -0.39523196 18
0.30719954 1.9550376 -0.42430252 27
0.30241406 1.9245822 -0.4522486 25
0.30300787 1.9283614 -0.4875986 36
0.2923952 1.8608217 -0.64800572 46
0.27969807 1.7800163 -0.83991355 37
1.0132405 6.1672406 1.6497833 16
0.68572944 4.1737957 0.8173548 4
1.534282 9.3386383 1.3239921 21
1.7146214 10.436302 0.91823119 36
1.7149128 10.438075 0.5441885 31
1.7129627 10.426207 0.35660216 38
2.5034342 10.427553 0.29823318 41
1.6335022 18.053896 0.39744583 7
1.7156633 10.442644 0.16957088 28
2.5052073 10.434939 0.10863721 45
1.6097307 17.791166 0.075451896 12
1.7178267 10.455811 -0.017568825 36
2.5071321 10.442956 -0.080976933 46
0.46637306 5.1544776 -0.069558352 37
1.7142661 10.434138 -0.20450857 51
2.5092053 10.451592 -0.2713244 44
0.45934421 5.0767927 -0.15868241 16
0.89105082 5.4235153 -0.20374674 0
2.5067587 10.441401 -0.46132466 52
0.45469981 5.0254617 -0.24634869 0
0.82687229 5.0328832 -0.27935025 16
2.506335 10.439636 -0.65101671 47
0.45135963 4.9885449 -0.33330691 0
1.0555545 6.4247918 -0.47184917 0
2.5088522 10.450121 -0.84203774 35
0.44716969 4.9422369 -0.41801482 0
0.81055707 4.933578 -0.45078713 0
1.1981312 4.9905753 -0.49292666 9
0.22949497 2.5364387 -0.25963759 1
0.38877985 2.3663671 -0.25865293 1
0.35388541 2.1539769 -0.27413306 2
0.33123392 2.0161052 -0.29274589 11
0.32523248 1.9795765 -0.32330307 18
0.32619846 1.985456 -0.35985437 21
0.32450882 1.9751719 -0.39368808 26
0.32020661 1.9489859 -0.42346397 21
0.31900114 1.9416485 -0.45677108 30
0.3164629 1.9261991 -0.4875986 34
0.30599219 1.8624676 -0.64930695 45
0.29035473 1.7672877 -0.83484364 34
1.05431 6.148581 1.6467205 16
0.70356745 4.1031022 0.80445319 3
1.5532444 9.0582933 1.2857522 20
1.7881116 10.428004 0.91857719 34
1.7897671 10.437659 0.54480505 31
1.7890873 10.433695 0.35727677 36
2.5857759 10.448636 0.29934517 15
1.7195216 17.632095 0.38841495 48
1.7912281 10.446179 0.16982722 29
2.5914474 10.471553 0.10920408 3
1.7199194 17.636175 0.074843682 51
1.7934835 10.459333 -0.017595354 37
9.04673 36.556141 -0.28394705 22
0.50195825 5.1471148 -0.069504596 10
1.7863917 10.417975 -0.20443122 96
0.49477547 5.073462 -0.15868241 8
1.7888771 10.432469 -0.39237916 60
2.5824716 10.435284 -0.46183974 33
0.48899725 5.0142121 -0.2459586 0
0.86401302 5.0387974 -0.28000653 28
2.5868289 10.45289 -0.65295357 5
0.49004889 5.0249953 -0.33596274 0
0.88124943 5.1393175 -0.37788412 0
2.583662 10.440094 -0.84266257 14
0.4777931 4.8993239 -0.41465726 0
1.0267684 5.9879627 -0.54776925 0
0.24294823 2.4912081 -0.25517508 1
0.40999544 2.3910334 -0.26165554 1
0.36891425 2.151454 -0.27413306 2
0.34530076 2.0137436 -0.29274589 11
0.34171411 1.9928267 -0.32584876 19
0.34005147 1.9831303 -0.35985437 20
0.34028003 1.9844632 -0.3960039 23
0.3351272 1.9544127 -0.42514107 27
0.3325485 1.9393741 -0.45677108 22
0.33252594 1.9392425 -0.49147612 28
0.3189871 1.860286 -0.64930695 42
0.30513644 1.779511 -0.84160352 31
1.0958486 6.1334562 1.6446787 11
0.98086524 5.4898949 1.0776637 0
1.566976 8.7703524 1.2464037 20
1.8629713 10.427036 0.91961515 33
1.8646995 10.436708 0.5454216 33
1.8646966 10.436692 0.35781646 37
10.170451 39.900269 1.1451175 41
1.8434056 17.627615 0.38859031 44
1.8676292 10.453106 0.17014766 26
9.3153372 36.545521 0.38178912 9
1.8450804 17.643629 0.074928157 56
1.8699769 10.466247 -0.017628515 34
8.3572206 32.786682 -0.25511503 1
1.8440982 17.634237 -0.2382938 14
1.8597822 10.409186 -0.20450857 94
8.3498583 32.757797 -0.85333943 8
0.53143001 5.0818133 -0.15905578 4
1.8644776 10.435467 -0.39297187 58
0.52357531 5.0067029 -0.24576354 0
0.90338397 5.0562329 -0.28131905 13
5.3934441 21.159325 -1.3240649 1
0.5205515 4.9777875 -0.33304131 0
0.89535463 5.0112925 -0.36892128 0
4.4392929 17.41604 -1.408187 2
0.51695961 4.94344 -0.41868633 0
0.8898719 4.9806061 -0.45617503 0
1.3739084 5.3900576 -0.53422695 1
0.26198962 2.5052826 -0.25679782 1
0.42108211 2.3567932 -0.25822398 1
0.38392514 2.1488259 -0.27413306 2
0.35865444 2.0073862 -0.29217854 12
0.35561824 1.9903926 -0.32584876 17
0.35388795 1.980708 -0.35985437 16
0.35067427 1.9627211 -0.3921442 25
0.35013911 1.9597257 -0.42681813 26
0.34539434 1.9331695 -0.45586661 33
0.3446911 1.9292333 -0.48953736 40
0.32997066 1.8468432 -0.64540333 35
0.31500161 1.7630615 -0.83484364 31
1.2933381 6.9578938 1.3675704 19
1.5897964 8.5527792 1.2170309 18
1.9386327 10.429447 0.92099905 34
1.9382453 10.427362 0.54562706 30
1.9375124 10.42342 0.35781646 40
8.4722404 32.294258 0.92850375 29
1.967755 17.62624 0.38885334 46
1.9420214 10.447678 0.17027582 26
8.4629021 32.258663 0.33761349 46
1.968654 17.634293 0.074945055 53
1.9437299 10.456868 -0.017635148 34
8.4610643 32.251659 -0.25140548 21
1.9693815 17.640808 -0.23856257 39
1.9353296 10.411676 -0.20481797 86
8.4677429 32.277115 -0.84233707 32
0.56556386 5.0660596 -0.15868241 19
1.9416679 10.445776 -0.39386097 56
7.0794067 26.985092 -1.1985514 0
0.56117523 5.0267487 -0.24693385 0
5.5278606 21.07095 -1.3209175 1
0.55883259 5.005764 -0.33516598 0
0.93031788 5.00492 -0.36892128 18
4.5354729 17.288193 -1.4003758 3
0.5545541 4.9674397 -0.4210366 0
0.9013235 4.8489361 -0.44468087 0
1.5761968 6.0081043 -0.59655982 2
0.27903175 2.4994376 -0.25639212 1
0.4433395 2.3850758 -0.26165554 1
0.40254378 2.1656032 -0.27662519 1
0.37483057 2.0165117 -0.29388055 12
0.3687833 1.9839786 -0.32521233 17
0.36914629 1.9859315 -0.3612628 10
0.36723706 1.9756602 -0.39523196 16
0.36238238 1.949543 -0.42514107 18
0.35959396 1.9345419 -0.45677108 29
0.35815117 1.9267799 -0.48953736 39
0.34631211 1.8630883 -0.65190941 32
0.32796487 1.7643839 -0.83653361 32
0.75678605 3.9188824 1.0535744 2
1.3441155 6.9602637 1.3698472 23
1.613413 8.3547726 1.1904291 17
2.0144186 10.431311 0.92238295 34
2.0147815 10.433188 0.54665464 32
2.0155399 10.437116 0.35876092 38
8.6881132 32.199577 0.92750293 61
2.0926459 17.627958 0.38920406 44
2.0187035 10.453499 0.17059626 27
8.697279 32.233547 0.33797792 63
2.0936017 17.636009 0.075012632 53
2.0182016 10.450899 -0.017648412 33
8.7026873 32.253593 -0.25188801 59
2.0943744 17.642517 -0.23877759 38
2.0094855 10.405765 -0.20497265 102
8.7053719 32.263542 -0.84354836 61
0.60186011 5.0699282 -0.15893133 44
2.0183349 10.45159 -0.39460185 60
7.2520084 26.877138 -1.195976 0
0.60520309 5.0980887 -0.2506398 0
1.0473504 5.4235187 -0.30253831 0
5.6592255 20.974022 -1.317286 1
0.58859003 4.9581442 -0.33224458 0
0.96674877 5.0061374 -0.36949953 30
4.6467061 17.221458 -1.3975639 2
0.58874965 4.9594889 -0.42070085 0
0.93137634 4.8229675 -0.44288489 11
1.53616 5.6932621 -0.56634939 1
0.2997579 2.5250902 -0.25923193 1
0.46224174 2.3936369 -0.26294234 1
0.41915768 2.1705337 -0.27762204 2
0.38889924 2.0138459 -0.29388055 11
0.38562012 1.9968654 -0.32775801 17
0.38449478 1.9910381 -0.36267126 3
0.38102072 1.9730482 -0.39523196 1
0.37672544 1.9508058 -0.42597961 11
0.37382954 1.93581 -0.45767558 23
0.37306544 1.9318533 -0.49147612 37
0.3585932 1.8569114 -0.65060818 48
0.34233677 1.7727304 -0.84160352 31
0.78792542 3.9324646 1.058679 7
1.3942173 6.9584122 1.3713651 26
1.6413484 8.1918211 1.1688153 18
2.0918906 10.440436 0.92445886 33
2.0907083 10.434536 0.54747665 32
2.0938525 10.450229 0.35970539 35
8.9329967 32.211346 0.92961574 63
2.2161596 17.616886 0.38929173 48
2.0939903 10.450916 0.17078851 26
8.9370623 32.226006 0.33854479 77
2.2181699 17.632868 0.075063318 57
2.0950418 10.456164 -0.017681573 35
8.946887 32.261433 -0.25243089 67
2.2189879 17.63937 -0.23893885 38
2.0907245 10.434617 -0.20582348 56
8.9539089 32.286751 -0.84576899 55
0.64023399 5.0894032 -0.15967807 23
2.0951774 10.456841 -0.39534274 55
7.4287882 26.787344 -1.1942592 0
0.64077944 5.093739 -0.2506398 0
2.0919094 10.440531 -0.58320111 53
5.8023119 20.922461 -1.3165597 1
0.63315284 5.0331135 -0.33755624 0
1.0040257 5.0110011 -0.3703669 27
4.7561636 17.150171 -1.3944395 1
0.62236381 4.9473481 -0.42002934 0
0.96658939 4.8241601 -0.44360328 22
1.5524595 5.5979881 -0.55793637 1
0.31141874 2.4755569 -0.25436372 1
0.47347191 2.3630555 -0.25993976 1
0.42806283 2.1364229 -0.27363464 2
0.40217108 2.0071995 -0.29331321 12
0.40110302 2.001869 -0.32903087 18
0.39683825 1.9805838 -0.3612628 2
0.96460348 4.8142486 -0.96569371 0
0.94433475 4.7130895 -1.0305687 1
0.3881003 1.9369735 -0.45858008 15
0.38578069 1.9253966 -0.49050674 21
0.37229112 1.8580713 -0.65190941 45
0.35826561 1.7880713 -0.85005337 27
0.81300104 3.9155078 1.0556163 9
1.4435602 6.9523544 1.372124 26
1.6799747 8.0909538 1.1560686 18
2.1671576 10.437284 0.92549682 34
2.165128 10.427509 0.54788768 31
2.1691957 10.4471 0.36011016 36
9.1751823 32.209728 0.93139488 17
2.3433084 17.6327 0.38999316 46
2.1701522 10.451707 0.17104486 26
10.425258 36.598152 0.38523084 17
2.3433237 17.632814 0.075130895 58
2.171241 10.456949 -0.017708102 37
10.430975 36.618221 -0.28708357 9
2.3447137 17.643274 -0.23920763 38
2.1675858 10.439346 -0.20621023 54
9.3226023 32.727249 -0.85899204 8
0.67574888 5.0848098 -0.15967807 14
2.1713791 10.457614 -0.39593548 54
7.5762029 26.596468 -1.1880784 1
0.6710614 5.0495377 -0.24868931 0
2.1679945 10.441315 -0.58407611 52
5.9526105 20.896803 -1.3175281 1
0.67248124 5.0602217 -0.33968091 0
1.0446619 5.0312138 -0.37239078 3
4.8681297 17.089703 -1.3922523 1
0.66108817 4.9744921 -0.4227154 0
0.99700499 4.801692 -0.44216651 41
1.5325985 5.380229 -0.53728622 1
0.33026639 2.4851565 -0.25558075 1
0.49319157 2.3752682 -0.26165554 1
0.44296736 2.1333826 -0.27363464 2
0.41617408 2.004343 -0.29331321 13
0.41105464 1.979687 -0.32584876 17
0.40825412 1.9661994 -0.35915017 3
0.99579585 4.7958689 -0.96337789 1
0.99947882 4.8136063 -1.0540479 1
0.89669895 4.3186069 -1.0238909 0
0.40157992 1.9340557 -0.49341488 5
0.38602275 1.8591305 -0.65321064 39
0.36779165 1.7713275 -0.84329349 28
0.84031636 3.9097366 1.0556163 8
1.4920611 6.9421072 1.372124 26
1.7272619 8.0364246 1.1499723 17
2.2433195 10.437484 0.92688072 31
2.2420695 10.431667 0.54891521 33
2.2420766 10.431701 0.36011016 35
11.683568 39.954685 1.1576829 38
2.468013 17.627792 0.3902562 46
2.244746 10.444121 0.17117302 27
11.68524 39.960403 0.42147022 43
2.4669201 17.619987 0.075147793 48
2.2483933 10.461091 -0.017741263 36
10.699834 36.59058 -0.28744549 10
2.4706013 17.646278 -0.2394764 28
2.2437742 10.439599 -0.20651962 55
8.0952168 27.683483 -0.72807395 8
0.72342646 5.1670761 -0.16241612 1
2.2460129 10.450016 -0.39623183 52
7.7426271 26.47772 -1.1851597 1
0.70297337 5.0209899 -0.247519 0
2.2450314 10.445449 -0.58516991 52
6.0860252 20.812584 -1.3148649 1
0.69617027 4.9723988 -0.33410364 0
1.1241918 5.2305226 -0.3877143 0
4.9783649 17.024681 -1.3897527 1
0.69137895 4.9381766 -0.42002934 0
1.0380366 4.8296685 -0.44539925 36
1.5868849 5.426723 -0.54302239 1
0.34705606 2.4788494 -0.25517508 1
0.50809056 2.3639908 -0.26079765 1
0.46035212 2.1418786 -0.27512991 2
0.42766067 1.9897752 -0.29161119 12
0.42901438 1.9960736 -0.32903087 16
0.42528021 1.9786996 -0.36196703 3
1.0391494 4.834846 -0.97264117 1
1.0322376 4.8026876 -1.0532094 1
0.93255758 4.3389072 -1.0302223 0
0.69396162 3.2287927 -0.82494318 0
0.39660797 1.8452964 -0.64930695 36
0.38167244 1.7758058 -0.84667343 30
0.86926889 3.9113255 1.0576581 6
1.5438976 6.9468565 1.3751596 22
1.7919186 8.0628414 1.1555144 17
2.3204544 10.441018 0.92861062 32
2.3165741 10.423559 0.54932624 30
2.3226542 10.450916 0.36132446 36
11.985196 39.948742 1.1599069 46
2.3228109 10.451621 0.17155753 26
11.992663 39.973629 0.42248252 49
1.6594265 11.278475 0.048150003 2
2.3257091 10.464662 -0.017774424 34
8.3975849 27.990608 -0.2203417 0
1.6540515 11.241943 -0.15271661 6
2.3174686 10.427584 -0.20659697 63
8.1618872 27.204987 -0.71697068 3
0.79556412 5.4071393 -0.17013244 0
2.320647 10.441885 -0.39652818 56
7.8882418 26.292879 -1.1793224 1
0.73742753 5.0120077 -0.24732395 31
2.3213651 10.445116 -0.58604491 51
6.2047863 20.681629 -1.3092965 1
0.74306738 5.0503392 -0.33968091 0
1.2039566 5.4172721 -0.40217045 0
5.0890756 16.962772 -1.3875656 2
0.73221898 4.9766073 -0.42372265 0
1.0950645 4.9273062 -0.45509747 36
1.6407501 5.468905 -0.54837614 1
0.36319458 2.468492 -0.25436372 1
0.53062135 2.3875616 -0.26380023 1
0.4804602 2.1618583 -0.27812046 2
0.44841364 2.017663 -0.29614991 11
0.44208229 1.9891747 -0.32839444 17
0.43908367 1.9756824 -0.36196703 2
1.0669169 4.8006544 -0.96723759 1
1.073378 4.8297262 -1.0607563 1
0.97043383 4.3665233 -1.0383627 0
0.70975029 3.1935623 -0.81718808 1
0.4086602 1.8387901 -0.64800572 27
0.39327395 1.7695588 -0.84498346 28
0.70356959 3.0645719 0.82999617 2
1.5756609 6.8631816 1.3607402 24
1.8428453 8.0269699 1.1521891 17
2.3968561 10.440101 0.92999452 33
2.3910751 10.41492 0.54973727 29
2.3973472 10.44224 0.36159432 36
12.293189 39.959637 1.1626868 41
1.6865046 10.932016 0.24251823 9
2.3984044 10.446845 0.1717498 26
12.303192 39.992153 0.42357576 56
1.6753074 10.859435 0.046409842 9
2.4004991 10.455969 -0.017787689 32
8.4434214 27.445772 -0.2165115 1
1.6617551 10.771588 -0.14648108 9
2.3919995 10.418947 -0.20675166 99
8.3022299 26.98682 -0.71273124 172
1.6507378 10.700173 -0.33702901 10
2.3961713 10.437119 -0.39697272 58
8.065731 26.218071 -1.1784639 1
0.7760545 5.0304279 -0.24849425 7
2.3986971 10.44812 -0.58713865 49
6.3501925 20.641624 -1.3095386 1
0.98277223 6.3703837 -0.42891684 0
2.3960087 10.43641 -0.77600688 49
5.2003379 16.903963 -1.385691 2
0.77909857 5.0501599 -0.43043774 0
1.1410252 4.9700179 -0.45976695 69
1.6847436 5.4763451 -0.5502882 1
0.38041893 2.4658964 -0.25436372 1
0.53837788 2.3450382 -0.25951082 1
0.49287674 2.1468468 -0.27662519 2
0.46160254 2.0106242 -0.29558256 11
0.45419118 1.9783422 -0.32712162 17
0.4537468 1.9764066 -0.36267126 3
1.1091877 4.8313422 -0.97495699 1
1.1096948 4.8335509 -1.0632719 1
0.73376477 3.1960945 -0.81912684 1
0.41979459 1.8285193 -0.64540333 4
0.40886304 1.7809043 -0.85174334 27
0.70711327 2.984319 0.80957806 2
1.580073 6.6685805 1.3243121 26
1.8933589 7.9907804 1.1488639 17
2.4724391 10.434746 0.93103248 29
2.4720154 10.432958 0.55158687 31
2.4738758 10.440809 0.36213401 34
12.59831 39.956734 1.1651332 45
1.6933169 10.489652 0.2329613 15
2.4777331 10.457088 0.1721984 27
12.608549 39.989208 0.42446658 54
1.6905216 10.472335 0.044804845 31
2.4780476 10.458416 -0.01782085 33
8.5494242 27.115309 -0.21437022 2
1.6859221 10.443843 -0.14218071 30
2.4692891 10.421452 -0.2071384 51
8.4808102 26.897694 -0.71192372 109
1.6865324 10.447623 -0.32943714 44
2.4735854 10.439583 -0.39771363 56
8.2365532 26.123009 -1.1767471 1
0.81179112 5.028832 -0.24868931 50
2.4780262 10.458324 -0.58866996 49
6.4725313 20.528248 -1.3051808 1
2.478008 10.458249 -0.77889806 50
5.3026328 16.817802 -1.3816292 1
1.1793685 4.977437 -0.46120372 32
1.736105 5.5062213 -0.55449468 1
0.40333229 2.4985371 -0.25801486 1
0.57032371 2.4070089 -0.26680285 1
0.50968254 2.1510773 -0.27762204 2
0.47562799 2.0073526 -0.29558256 11
0.47072294 1.9866512 -0.32903087 17
0.47207272 1.9923478 -0.36619231 2
1.1465092 4.8387566 -0.97804475 1
1.1416086 4.8180742 -1.0615948 1
0.75516498 3.1871176 -0.81815749 0
0.74300885 3.1358135 -1.1086364 0
0.42045018 1.7744788 -0.85005337 28
0.71966869 2.9454963 0.80038989 2
1.5809145 6.4704461 1.2871251 24
1.9453373 7.9619746 1.1466471 17
3.4967308 14.311596 1.2790885 21
2.5485828 10.430968 0.55240887 27
2.5561938 10.462119 0.36348322 21
12.90399 39.951519 1.1675795 38
1.7591933 10.434197 0.23199683 42
2.5563717 10.462847 0.17258291 10
12.916922 39.991558 0.42543834 52
1.7615954 10.448444 0.044754159 48
2.5623927 10.48749 -0.017900437 2
8.2713461 25.60858 -0.2029098 1
1.7614521 10.447595 -0.14239573 36
2.5495772 10.435039 -0.20775719 56
1.7587641 10.431651 -0.32931268 46
2.5530474 10.449242 -0.39875087 53
0.84953576 5.0388002 -0.2494695 29
2.5462379 10.421371 -0.58757621 3
6.5960522 20.42177 -1.3013071 1
0.84336245 5.0021849 -0.33755624 0
2.5547469 10.456196 -0.78005457 2
5.4235902 16.791759 -1.3825666 1
1.4253881 8.454319 -0.72220874 0
1.7842934 5.5242786 -0.55755401 1
0.41547272 2.4642684 -0.25476938 1
0.59088933 2.4184217 -0.26851863 1
0.52657133 2.1551776 -0.27861887 2
0.48869047 2.0001371 -0.29501522 11
0.48364344 1.9794803 -0.32839444 17
0.48410121 1.9813538 -0.36478388 3
1.183988 4.8458858 -0.98113245 1
1.1835716 4.8441815 -1.0691417 1
0.77923876 3.1893077 -0.82009625 0
0.76847363 3.1452475 -1.1138412 0
0.4319675 1.7679784 -0.8483634 27
0.73266131 2.9103963 0.79222268 2
1.5857801 6.299294 1.2552506 29
1.9999074 7.9443579 1.1460929 16
3.6014228 14.306157 1.2808183 22
8.1517105 32.38155 1.7178519 11
10.058968 39.95787 1.390654 34
8.4506655 25.552452 0.74847412 35
1.835456 10.441355 0.23243523 46
10.07219 40.010395 0.66110855 11
8.3178616 25.15089 0.26817152 23
1.8358806 10.44377 0.044787947 49
9.1946287 36.524399 -0.062449247 24
8.3042364 25.109692 -0.19941135 21
1.8357314 10.442922 -0.14250325 38
8.3043385 25.110001 -0.66761142 16
1.8350081 10.438807 -0.32993495 47
8.5314693 25.796782 -1.1673042 3
0.88953418 5.0602913 -0.25083485 3
5.7858272 22.983404 -1.2980927 1
6.700851 20.261501 -1.294044 1
0.87273538 4.9647279 -0.33543158 29
4.6554189 18.493013 -1.3820093 1
5.5344253 16.734556 -1.3810043 2
1.3596196 5.4009023 -0.50215173 1
1.8278171 5.5268087 -0.55908364 1
0.437489 2.4887428 -0.25760919 1
0.60775858 2.4142375 -0.26851863 1
0.54354209 2.1591463 -0.27961573 2
0.50264204 1.9966766 -0.29501522 10
0.49841502 1.9798852 -0.32903087 18
0.50176674 1.9931995 -0.36760074 3
1.2129989 4.8184719 -0.97727281 1
1.2183161 4.8395934 -1.0699803 1
0.79580092 3.1612101 -0.81427997 0
0.78948927 3.136138 -1.11254 0
0.4442997 1.7649195 -0.8483634 28
0.75587255 2.9164419 0.7952854 0
1.5893203 6.1321983 1.2241349 24
2.0563142 7.9340367 1.1466471 17
3.709208 14.311525 1.2835861 20
6.1827087 23.855227 1.2677866 1
8.3999281 32.410095 1.1299822 21
8.5544939 25.273165 0.7420246 28
1.9104645 10.440087 0.23269826 43
8.3765402 32.319855 0.53498781 24
8.4881144 25.077053 0.26800954 49
1.9094666 10.434634 0.044804845 46
8.3695755 32.292984 -0.055312946 19
8.4908724 25.085203 -0.19968277 38
1.9100313 10.43772 -0.14261074 36
8.4844112 32.736065 -0.65405613 1
8.488409 25.077927 -0.66831797 48
1.9099985 10.437541 -0.33030832 44
7.6668549 29.581621 -1.1328318 1
8.5857906 25.365627 -1.1504788 12
0.98021501 5.3565664 -0.26585373 0
5.9240942 22.857393 -1.2932801 1
6.8203759 20.149935 -1.2899282 1
0.91527683 5.0016999 -0.33835298 8
4.7673945 18.394409 -1.3770941 1
5.612762 16.582191 -1.371631 2
0.90473658 4.9441009 -0.4233869 0
1.5871952 6.1239986 -0.57039839 3
1.8791224 5.5516281 -0.5629077 1
0.45342031 2.4777994 -0.25679782 1
0.6226027 2.4022365 -0.26766074 1
0.5576067 2.1514573 -0.27911732 2
0.51756245 1.9969516 -0.29558256 10
0.51717877 1.995471 -0.33221298 17
0.52060884 2.0087056 -0.37112182 3
1.2535011 4.8364806 -0.98267633 1
1.2550166 4.8423281 -1.0724959 1
0.82077163 3.166847 -0.81718808 0
0.81421113 3.1415341 -1.1164436 0
0.4584294 1.7687937 -0.85174334 27
1.047242 3.9275479 1.0729717 11
1.5976897 5.9919314 1.1983317 22
2.1116536 7.919488 1.1466471 16
3.8172438 14.316087 1.2863541 22
6.3202801 23.703405 1.2620324 0
8.5919971 32.22319 1.1255298 51
8.6613817 25.012577 0.73613113 60
1.9833031 10.426496 0.23269826 39
8.5947561 32.233536 0.53453922 50
8.6695213 25.036083 0.26821202 77
1.9860044 10.440697 0.044889316 48
8.6009998 32.256954 -0.05535274 54
8.6814985 25.070673 -0.20004469 59
1.9850954 10.435918 -0.14277202 35
8.586009 32.200733 -0.64454234 21
8.6829062 25.074736 -0.66983211 52
1.988049 10.451446 -0.33117953 43
7.8577371 29.469442 -1.1306092 1
8.6685143 25.033175 -1.1381173 40
1.9836596 10.42837 -0.51824898 33
6.0619144 22.734436 -1.2886863 1
6.9543505 20.082966 -1.2887177 1
0.95315605 5.0108719 -0.33941531 47
4.884388 18.318274 -1.3739138 1
5.7179513 16.512459 -1.3691314 1
0.94667894 4.9768205 -0.42674443 0
1.5980917 5.9934392 -0.55926341 2
1.9295599 5.5722365 -0.56634939 1
0.4788872 2.5175755 -0.26126033 1
0.64345658 2.4132018 -0.26937652 1
0.57670307 2.1628513 -0.281111 2
0.53557169 2.0085933 -0.29785192 9
0.52702737 1.9765489 -0.3296673 19
0.5265038 1.9745854 -0.36548811 3
1.2862241 4.8238196 -0.98190439 1
1.2887915 4.8334484 -1.0724959 1
0.83786106 3.1422913 -0.81234121 0
0.83417416 3.128464 -1.1138412 0
0.46796447 1.7550411 -0.84667343 28
1.0746357 3.9201412 1.0729717 13
1.6072944 5.8632159 1.1748053 24
2.1710794 7.9198356 1.1488639 18
3.9297376 14.335207 1.2905058 19
7.8427143 28.609274 1.5261117 10
8.8336573 32.224113 1.1276885 68
8.8571453 25.011805 0.73791027 55
2.0614676 10.439858 0.23331201 41
8.8364954 32.234467 0.53556454 49
8.8627853 25.027733 0.26877889 78
2.0627196 10.446198 0.044973791 50
8.8450203 32.265564 -0.055472121 50
8.8736696 25.05847 -0.20043676 63
2.0617769 10.441425 -0.14304079 37
8.831748 32.217148 -0.64608932 72
8.8871136 25.096434 -0.67205274 52
2.0640628 10.453001 -0.33167735 44
8.0379162 29.321346 -1.1270528 1
8.8670778 25.039856 -1.1412077 52
2.0595102 10.429946 -0.5190292 72
6.2162571 22.676153 -1.2878113 1
7.0823903 20.000053 -1.2865388 1
0.99430037 5.0354199 -0.34153998 22
5.0005512 18.241405 -1.3707334 1
5.8317595 16.46838 -1.368819 1
0.97522312 4.9388075 -0.42405841 1
1.554582 5.670927 -0.53016877 2
1.9870218 5.6111765 -0.57170314 1
0.491826 2.490747 -0.25882623 1
0.66239089 2.4163218 -0.27023441 1
0.59598547 2.174083 -0.28310469 1
0.5537684 2.0200801 -0.30012125 9
0.54290134 1.9804385 -0.33094013 19
0.5433991 1.9822541 -0.36760074 3
1.3281701 4.8450036 -0.98807991 1
1.3256058 4.8356495 -1.0750115 1
0.87106365 3.1775348 -0.82300442 0
0.85199445 3.1079726 -1.1086364 0
0.48116392 1.7552278 -0.8483634 30
1.0998801 3.9050977 1.0709299 16
1.6162465 5.7384439 1.1520377 22
2.2467225 7.9769335 1.1593938 3
4.036202 14.330439 1.2925817 19
6.7025995 23.797417 1.2718968 0
9.0768328 32.227074 1.1299822 37
9.0601244 25.028315 0.74024546 65
2.1383111 10.444802 0.2337504 46
9.0754137 32.222038 0.5363977 14
9.0590782 25.025425 0.26942673 71
2.1372013 10.439382 0.045007579 49
10.307378 36.596096 -0.063039519 5
9.0674534 25.048563 -0.20085898 55
2.1362252 10.434613 -0.1431483 39
9.0727119 32.212444 -0.64724952 74
2.1393931 10.450088 -0.33205071 41
8.2044926 29.129852 -1.1218666 1
9.0607157 25.029949 -1.1436113 42
2.1330755 10.419228 -0.51922423 85
6.3440962 22.524561 -1.2816861 1
7.200099 19.890053 -1.2826651 1
5.1256146 18.198372 -1.3701552 1
5.9398003 16.408516 -1.3672568 1
1.0128762 4.9474983 -0.42540142 7
1.6124951 5.7251248 -0.53627503 1
2.0518968 5.6683021 -0.57896894 0
0.50441384 2.4638615 -0.25639212 1
0.68247831 2.4231226 -0.27152124 1
0.607921 2.1584089 -0.28160942 2
0.56571072 2.0085423 -0.29898658 9
0.55671412 1.9766002 -0.33094013 19
0.55829197 1.9822022 -0.36830497 4
1.3640901 4.8431687 -0.98962379 0
1.3625133 4.8375707 -1.0775272 1
0.88165271 3.1302865 -0.81234121 0
0.89930725 3.1929686 -1.1411668 0
0.50126898 1.7797434 -0.8618831 27
1.1281904 3.9010394 1.0719508 17
1.6420846 5.6779752 1.1421717 20
2.6490309 9.1597786 1.3339678 18
4.1494336 14.347849 1.2967335 19
7.247015 25.058619 1.3419755 1
11.561747 39.978031 1.404551 37
9.2457304 24.994455 0.741135 10
2.2120063 10.433531 0.23383808 44
11.561289 39.976448 0.66681218 37
2.2141771 10.443771 0.045092054 51
10.57595 36.569359 -0.063119106 12
9.9276285 26.837866 -0.21575753 21
2.2139971 10.442922 -0.14347082 37
11.56061 39.974102 -0.80480772 38
8.4888926 22.948458 -0.61764657 1
2.2139542 10.442719 -0.33229965 42
8.4243135 29.129463 -1.1240892 1
9.2629642 25.041046 -1.147045 28
2.2099059 10.423624 -0.52019948 63
6.472342 22.379965 -1.2759985 1
7.3207731 19.790621 -1.2795178 1
1.1365247 5.3607287 -0.36464572 0
5.2392373 18.116154 -1.3666856 2
6.0389891 16.325508 -1.3638198 1
1.0573113 4.9870973 -0.42943048 46
1.6679193 5.7673063 -0.54130375 1
2.0997069 5.6762452 -0.58126342 0
0.52655429 2.4836371 -0.25882623 1
0.71042675 2.4565027 -0.27581066 1
0.63179553 2.184613 -0.28559682 1
0.58191919 2.0121512 -0.30012125 8
0.572694 1.9802525 -0.33221298 20
0.57211667 1.9782563 -0.36830497 4
1.3978683 4.833528 -0.98962379 1
1.3984258 4.8354554 -1.0792042 1
0.91103154 3.150151 -0.81912684 0
0.92367792 3.1938796 -1.1437691 0
0.51065999 1.7657523 -0.85681325 23
1.1564974 3.896776 1.0729717 16
1.6682751 5.6211925 1.1330647 22
2.7816658 9.3727217 1.3677742 7
4.2744417 14.402577 1.304345 20
7.2547035 24.44446 1.3117656 5
11.862171 39.969158 1.4071146 52
13.487627 35.69397 1.0611631 21
2.2873619 10.429553 0.23410112 43
11.870816 39.998287 0.6685425 38
10.756395 28.465975 0.3080551 0
2.2904615 10.443687 0.045159634 47
10.859443 36.5905 -0.063284911 11
10.130301 26.809065 -0.21608928 21
2.2911322 10.446744 -0.1437396 33
8.246047 27.784756 -0.56054223 1
8.5527802 22.634277 -0.61078268 3
2.2902298 10.44263 -0.33279747 42
8.5728788 28.886005 -1.1169766 1
9.5152502 25.181377 -1.1564879 2
2.2843339 10.415747 -0.52058959 76
6.6170607 22.295946 -1.273811 1
7.4418225 19.694212 -1.2766125 1
2.2854278 10.420735 -0.70990384 48
5.3508263 18.029415 -1.3629271 1
6.1302614 16.223267 -1.3588208 1
1.0946634 4.9912744 -0.43043774 30
1.7240102 5.8089905 -0.54633248 1
2.1758761 5.7582889 -0.59120607 0
0.54729033 2.4954486 -0.26044896 1
0.73208487 2.4667337 -0.27752644 1
0.63461024 2.1382964 -0.28011414 1
0.59707892 2.0118358 -0.30068859 7
0.58650464 1.9762062 -0.33221298 18
0.57807136 1.9477906 -0.36337546 5
1.4315783 4.8236513 -0.98962379 1
0.94514692 3.1846383 -0.82979006 0
0.94702888 3.1909795 -1.1450704 0
0.52503771 1.7690957 -0.86019313 16
1.1791687 3.8738077 1.0688881 16
1.7017592 5.5906234 1.1292702 21
2.8481848 9.356864 1.3683285 8
4.3772068 14.380011 1.305037 21
7.2669744 23.87348 1.2838163 3
12.168858 39.977158 1.4103527 47
13.506178 35.002079 1.0433713 4
2.3654211 10.43673 0.23462719 43
12.178882 40.01009 0.67014462 38
1.7077372 4.4257045 0.048022259 0
2.3650842 10.435245 0.045193423 45
11.137922 36.590328 -0.063417554 10
1.714976 4.4444642 -0.035919376 7
2.3675439 10.446097 -0.14395462 32
8.3047256 27.282703 -0.55156982 2
1.707281 4.4245224 -0.11971381 12
2.3674951 10.445882 -0.33341974 45
8.7522135 28.752792 -1.1141613 1
8.7110872 22.57531 -1.0395687 0
2.3622918 10.422924 -0.52175993 63
6.7551064 22.191893 -1.2705296 1
7.5748196 19.630606 -1.2758863 0
2.3625331 10.423988 -0.71123177 48
5.4672699 17.961088 -1.3606141 1
6.2390637 16.168913 -1.3578835 0
1.1294822 4.9835105 -0.43043774 6
