# .PCD v0.7 - Point Cloud Data file format
VERSION 0.7
FIELDS x y z intensity
SIZE 4 4 4 4
TYPE F F F F
COUNT 1 1 1 1
WIDTH 1325
HEIGHT 1
VIEWPOINT 0 0 0 1 0 0 0
POINTS 1325
DATA ascii
-2.7582004 -0.32157454 0.73301017 5
-2.5980144 -0.30289868 0.50543946 51
-3.2501194 -0.37892663 0.45777211 4
-5.7908444 -0.67514598 0.5061689 12
-6.6659732 -0.77717602 0.34525555 0
-16.264509 -1.8962553 0.55264562 25
-9.0320368 -0.39118636 0.2514188 10
-17.668476 -3.3736393 0.39437708 38
-17.828932 -2.0786488 0.28761682 39
-11.860272 -0.51367998 0.12017712 248
-17.672564 -3.3744199 0.075992525 44
-17.827223 -2.0784497 -0.029758897 47
-18.366261 -0.7954607 -0.1386108 46
-17.655413 -3.3711448 -0.24157283 33
-17.784191 -2.0734327 -0.34628776 55
-18.352942 -0.79488385 -0.46371436 39
-17.648458 -3.369817 -0.55930883 37
-17.80707 -2.0761001 -0.66458482 62
-18.321907 -0.79353976 -0.78787452 62
-17.624229 -3.3651907 -0.8759715 44
-17.7847 -2.0734921 -0.98067909 59
-18.337097 -0.79419762 -1.1129504 56
-17.618046 -3.3640099 -1.1935308 52
-17.768728 -2.07163 -1.2964287 57
-7.7409964 -0.33527014 -0.60707951 4
-17.622099 -3.364784 -1.5112327 37
-17.735441 -2.067749 -1.6099027 85
-7.6217504 -0.33010548 -0.73269784 0
-17.620684 -3.3645136 -1.8288224 38
-9.6542339 -1.1255729 -1.0483379 5
-7.6043563 -0.88658071 -0.9614594 19
-7.6102042 -0.88726246 -1.097797 3
-7.5546908 -0.88079029 -1.2257514 4
-7.4505134 -0.86864436 -1.3415315 42
-7.4303532 -0.86629397 -1.4713128 35
-7.4044371 -0.86327243 -1.5982621 32
-7.4500947 -0.86859554 -1.7411572 26
-7.589807 -0.88488442 -1.9087111 3
-5.6880822 -0.66316515 -1.9700416 6
-1.5916753 -0.18557107 -0.74696535 9
-2.7565339 -0.30188981 0.73198926 4
-2.6898577 -0.29458755 0.52289456 5
-3.2566235 -0.35665855 0.45832631 5
-5.8746428 -0.64337856 0.51308852 9
-6.5878458 -0.72148705 0.34093985 4
-15.776631 -1.7278235 0.53564531 26
-9.382185 -0.34075144 0.26109302 17
-17.699467 -3.2516532 0.39455244 37
-17.882767 -1.958483 0.28825769 38
-11.859572 -0.43072766 0.12013663 186
-17.707495 -3.2531283 0.076043211 42
-17.869131 -1.9569898 -0.029805323 44
-18.355375 -0.66664863 -0.13849016 42
-17.698187 -3.2514184 -0.2418416 32
-17.830036 -1.9527081 -0.34690654 58
-18.350052 -0.66645527 -0.46351251 40
-17.679419 -3.2479701 -0.55955774 38
-17.840998 -1.9539084 -0.6653257 59
-18.31502 -0.66518295 -0.78735948 55
-17.655153 -3.2435122 -0.87636161 42
-17.822563 -1.9518898 -0.98199165 57
-18.318254 -0.66530043 -1.1114979 21
-17.652876 -3.2430942 -1.1943276 52
-17.822416 -1.9518735 -1.29932 53
-7.7471337 -0.28136805 -0.60739195 5
-17.656923 -3.2438376 -1.5122399 31
-17.793005 -1.9486525 -1.6138538 53
-7.6318274 -0.27718022 -0.73346263 1
-17.663313 -3.2450113 -1.8308508 42
-7.6852093 -0.84166795 -0.83386612 1
-7.5511818 -0.82698953 -0.95398307 21
-7.4902601 -0.82031751 -1.0796423 38
-7.5371027 -0.82544762 -1.2219329 8
-7.4329114 -0.81403679 -1.3373061 33
-7.4050083 -0.81098092 -1.4651372 35
-7.394732 -0.80985552 -1.5949079 33
-7.4443574 -0.81529039 -1.7384436 15
-7.935277 -0.86905485 -1.9940165 2
-5.6925735 -0.62343872 -1.9700416 6
-1.6001399 -0.17524394 -0.75034529 10
-2.8393693 -0.29091629 0.75342828 4
-2.8324971 -0.29021218 0.5502156 4
-3.2905602 -0.33714446 0.46275994 5
-5.8670988 -0.60113162 0.51205057 12
-6.6483574 -0.68117785 0.343817 7
-15.330966 -1.5707812 0.52012914 24
-10.667287 -0.3128722 0.29678759 1
-17.733551 -3.1300938 0.39481547 33
-17.903961 -1.8344053 0.28838584 40
-11.882281 -0.34850809 0.12033909 125
-17.745531 -3.1322083 0.076110788 43
-17.910213 -1.8350459 -0.029851748 41
-18.363581 -0.53860497 -0.13852032 44
-17.724394 -3.1284776 -0.24189535 31
-17.863127 -1.8302215 -0.34729329 57
-18.354258 -0.53833157 -0.46351251 39
-17.73316 -3.1300249 -0.56055337 36
-17.874086 -1.8313444 -0.66606659 60
-18.323212 -0.53742099 -0.7875312 53
-17.697039 -3.1236491 -0.87733686 45
-17.85165 -1.8290455 -0.98286664 58
-18.330435 -0.53763282 -1.1119821 45
-17.69474 -3.1232436 -1.1956555 50
-17.86339 -1.8302486 -1.3013438 54
-7.7289786 -0.22669145 -0.60582972 4
-17.694839 -3.1232612 -1.5135829 37
-7.7597356 -0.79504758 -0.70329976 25
-7.6216359 -0.22354308 -0.73231542 0
-17.693373 -3.1230023 -1.8316622 37
-7.6434231 -0.78313041 -0.82871884 1
-7.5409784 -0.77263409 -0.95198935 2
-7.4682322 -0.76518065 -1.075671 38
-7.4680409 -0.76516104 -1.2098408 36
-7.4344964 -0.76172417 -1.336602 32
-7.4182982 -0.76006454 -1.4666811 36
-7.3885341 -0.75701493 -1.5923922 32
-7.4537444 -0.76369625 -1.7393482 10
-7.8716612 -0.80651522 -1.9765677 9
-5.6930246 -0.58329636 -1.9687403 7
-1.5688651 -0.16074289 -0.73513561 11
-2.6950295 -0.2571283 0.71463382 7
-4.4256577 -0.42224467 0.85909528 14
-3.3401558 -0.31867874 0.46941036 4
-6.6645513 -0.63585377 0.58124655 4
-6.8875737 -0.65713197 0.35594204 5
-8.1582861 -0.77836853 0.27659267 0
-18.300354 -0.40890318 0.50906467 28
-17.774685 -3.0095518 0.39525387 35
-17.964109 -1.7139258 0.28915489 26
-11.86443 -0.26509887 0.12013663 155
-17.790628 -3.0122514 0.07621216 43
-18.15354 -1.731999 -0.030236417 25
-18.362894 -0.41030055 -0.13849016 43
-17.777351 -3.0100033 -0.2423254 30
-17.895374 -1.707368 -0.34768003 56
-18.349573 -0.41000292 -0.46331063 39
-17.770348 -3.0088177 -0.56105125 34
-17.902353 -1.7080338 -0.6666593 61
-18.326517 -0.40948775 -0.7875312 50
-17.738111 -3.0033593 -0.87831211 42
-17.891815 -1.7070284 -0.98439795 49
-18.317774 -0.4092924 -1.1110137 45
-17.727919 -3.0016336 -1.1964523 49
-8.4712143 -0.8082245 -0.61669993 1
-7.7263865 -0.1726384 -0.60551727 4
-17.735861 -3.0029786 -1.5152618 41
-7.7254386 -0.73707128 -0.69970787 35
-7.6110697 -0.17006175 -0.73116821 0
-17.726515 -3.0013959 -1.8328792 40
-7.668499 -0.73163873 -0.83086354 1
-7.5343361 -0.71883851 -0.95049411 1
-7.4615664 -0.7118957 -1.0739689 41
-7.4614072 -0.71188045 -1.2079315 37
-7.4435525 -0.710177 -1.3373061 30
-7.4117022 -0.70713818 -1.4643654 35
-7.3741717 -0.70355749 -1.5881995 31
-7.4744091 -0.71312094 -1.7429662 4
-7.9350476 -0.75706971 -1.9911084 3
-5.693193 -0.54317808 -1.9674392 6
-1.5843853 -0.15116356 -0.7418955 10
-2.7314315 -0.24137112 0.723822 5
-4.3972011 -0.38857183 0.85302395 16
-3.4567347 -0.30546471 0.48548228 4
-4.906352 -0.43356448 0.42763141 9
-7.2660389 -0.64208531 0.37525991 9
-8.1754684 -0.72244972 0.27699742 5
-18.338745 -0.28168535 0.5100655 25
-12.817483 -2.0782731 0.28469151 32
-11.840334 -1.0463066 0.19046283 31
-11.889988 -0.18263166 0.12037957 75
-17.815172 -2.8886163 0.076229058 44
-18.264799 -1.6140238 -0.030402225 31
-18.353313 -0.28190911 -0.13839968 38
-17.813723 -2.8883812 -0.2425404 29
-18.225555 -1.6105558 -0.35386789 46
-18.351988 -0.28188875 -0.46331063 39
-17.802759 -2.8866036 -0.56142461 37
-18.224415 -1.610455 -0.67821729 51
-18.332924 -0.28159595 -0.78770286 66
-17.77442 -2.8820086 -0.87909228 44
-18.229532 -1.6109073 -1.0023359 43
-18.348131 -0.28182954 -1.1127083 55
-17.772079 -2.881629 -1.1980457 52
-8.2978182 -0.73326153 -0.60368937 2
-7.7274032 -0.11869385 -0.60551727 5
-17.764263 -2.8803618 -1.5159333 36
-7.7065854 -0.68101549 -0.69755268 23
-7.6240144 -0.11710578 -0.73231542 0
-17.758821 -2.8794794 -1.8340963 40
-7.6338048 -0.67458403 -0.82657409 0
-7.51545 -0.66412526 -0.94750357 1
-7.4466338 -0.6580441 -1.0711322 48
-7.4622612 -0.65942508 -1.2072951 38
-7.4365621 -0.65715408 -1.3351935 35
-7.3930011 -0.6533047 -1.4597337 37
-7.3827991 -0.65240318 -1.5890381 33
-7.5063739 -0.66332322 -1.7492976 5
-7.7507205 -0.68491566 -1.9436088 8
-5.6855431 -0.50242007 -1.9635355 7
-1.5745677 -0.1391414 -0.73682559 10
-2.7099214 -0.22041506 0.71769655 5
-4.3606625 -0.35468027 0.84543478 28
-3.6838408 -0.29963008 0.5170719 5
-4.6709456 -0.37991759 0.4068726 6
-7.8675799 -0.63992006 0.4060863 1
-8.4950933 -0.69095975 0.28765637 6
-10.091743 -0.08454597 0.28066388 2
-12.839583 -1.9899642 0.28486687 12
-18.305193 -1.4888772 0.29428175 31
-11.886973 -0.099585928 0.12033909 65
-17.862574 -2.7684608 0.076347321 41
-18.287582 -1.4874449 -0.030422121 33
-18.362833 -0.15383898 -0.13846 40
-17.84531 -2.7657852 -0.24270168 31
-18.240341 -1.4836024 -0.35394523 76
-18.353508 -0.15376085 -0.46331063 40
-17.838282 -2.7646959 -0.56192243 36
-18.275055 -1.4864259 -0.67969912 49
-18.322456 -0.15350071 -0.78718781 61
-17.813848 -2.7609091 -0.88006753 40
-18.256258 -1.4848971 -1.0032109 44
-18.333681 -0.15359473 -1.11174 58
-17.799654 -2.758709 -1.1985769 50
-8.2232075 -0.66884553 -0.59790689 1
-7.7400064 -0.064843737 -0.60645461 5
-17.803635 -2.759326 -1.517612 39
-7.6952691 -0.62590498 -0.69611591 12
-7.6525173 -0.064110771 -0.73499227 0
-17.794222 -2.7578671 -1.835719 41
-7.7374244 -0.62933373 -0.83729768 3
-7.5673728 -0.6155023 -0.95348465 1
-7.4392066 -0.6050778 -1.0694302 43
-7.4470024 -0.60571188 -1.204113 41
-7.4331198 -0.60458267 -1.3337851 36
-7.3934698 -0.6013577 -1.4589617 38
-7.3871741 -0.60084563 -1.5890381 33
-7.5380073 -0.61311388 -1.7556291 26
-7.9835243 -0.64935058 -2.0008023 3
-5.700222 -0.46363515 -1.9674392 7
-1.5755007 -0.12814546 -0.73682559 11
-2.7538197 -0.20464362 0.72892654 6
-4.3316998 -0.32190007 0.8393634 28
-5.819128 -0.43243477 0.81634176 18
-4.7410431 -0.35231945 0.41275427 7
-10.150551 -0.75431424 0.52363759 12
-9.0738001 -0.67429799 0.30708531 12
-9.2044325 -0.012850936 0.25597793 6
-12.868987 -1.9026244 0.28521758 10
-11.064068 -0.82220012 0.17777385 1
-11.88738 -0.016596781 0.12033909 73
-17.901251 -2.6466229 0.076431789 44
-18.329433 -1.3621086 -0.030475179 20
-18.359461 -0.025632896 -0.13842984 40
-17.903749 -2.6469924 -0.24323922 35
-18.298113 -1.3597811 -0.35487342 53
-18.33814 -0.025603129 -0.46290687 39
-17.880878 -2.643611 -0.56266916 30
-18.300932 -1.3599906 -0.68029183 45
-18.323082 -0.025582103 -0.78718781 60
-17.844543 -2.6382389 -0.88065273 40
-18.286095 -1.358888 -1.0043046 43
-18.338301 -0.025603352 -1.1119821 52
-17.846115 -2.6384714 -1.200436 53
-8.128212 -0.60402888 -0.59067881 1
-7.752234 -0.010823423 -0.60739195 6
-17.834291 -2.6367233 -1.5186193 37
-7.6835604 -0.57098562 -0.69467914 6
-7.6607418 -0.010695684 -0.73575711 0
-17.848469 -2.6388195 -1.8393701 35
-7.7931876 -0.57913232 -0.84287393 3
-7.5754433 -0.56295121 -0.95398307 1
-7.4314036 -0.55224723 -1.0677282 45
-7.454988 -0.55399984 -1.2047493 34
-7.4253798 -0.55179954 -1.3316724 36
-7.3896599 -0.54914516 -1.4574178 38
-7.3794875 -0.5483892 -1.5865225 34
-7.530447 -0.55960739 -1.7529156 17
-7.8175797 -0.58094496 -1.9581494 8
-5.70332 -0.42382875 -1.9674392 7
-1.583588 -0.1176806 -0.74020553 11
-2.7513223 -0.18515497 0.72790563 6
-4.3103309 -0.29007113 0.8348099 29
-5.7903852 -0.38967392 0.81190813 20
-4.8904996 -0.32911459 0.42555553 5
-9.2627716 -0.62335414 0.47760352 4
-10.043551 -0.67589808 0.33973673 3
-18.37261 0.10261586 0.51095504 37
-12.881956 -1.8127356 0.28521758 9
-11.197233 -0.75353706 0.17982461 4
-11.895205 0.066437855 0.12042007 52
-17.689556 -2.4892561 0.075451896 46
-18.346479 -1.2346579 -0.030488444 56
-18.355192 0.10251858 -0.13839968 40
-17.680195 -2.4879389 -0.23996019 43
-18.327112 -1.2333544 -0.35526016 45
-18.357866 0.10253352 -0.46341157 38
-17.669273 -2.4864018 -0.55545068 52
-18.337898 -1.2340804 -0.68132907 52
-18.330805 0.10238238 -0.7875312 67
-17.700321 -2.4907711 -0.87265563 24
-18.311077 -1.2322754 -1.0051796 45
-18.334038 0.10240043 -1.11174 52
-17.638823 -2.4821169 -1.1852977 47
-8.1043673 -0.54539734 -0.58865499 2
-7.7640839 0.043364454 -0.6083293 8
-17.631233 -2.4810491 -1.499817 47
-7.703258 -0.51840401 -0.69611591 3
-7.6606293 0.042786635 -0.73575711 0
-17.630022 -2.4808786 -1.8150291 55
-7.7970405 -0.52471524 -0.84287393 4
-7.6306667 -0.51351887 -0.96046257 1
-7.4350777 -0.50035632 -1.0677282 40
-7.4547338 -0.50167912 -1.204113 40
-7.4329791 -0.50021511 -1.3323767 38
-7.3815656 -0.49675515 -1.4551021 39
-7.3792338 -0.49659824 -1.5856839 33
-7.5691586 -0.50937957 -1.7610561 29
-8.1505651 -0.54850632 -2.0405469 3
-5.7023654 -0.3837505 -1.9661379 6
-1.5843709 -0.10662296 -0.74020553 11
-2.752548 -0.16594261 0.72790563 7
-4.3004899 -0.25926325 0.83253318 32
-5.7811017 -0.34852475 0.81024551 19
-5.2745452 -0.31798604 0.45876962 7
-6.814599 -0.41083112 0.35121533 3
-11.943502 -0.72003686 0.40382528 5
-11.894462 0.14948055 0.33081421 3
-12.929972 -1.7275244 0.28600669 9
-12.064544 -0.72733408 0.19366711 4
-11.894451 0.14948043 0.12042007 41
-17.722363 -2.3678179 0.075519472 58
-18.358643 -1.1067859 -0.030495076 32
-18.358028 0.23070975 -0.13842984 40
-17.709028 -2.3660359 -0.24012145 40
-18.339268 -1.1056178 -0.3553375 49
-18.376694 0.23094434 -0.46391624 38
-17.709978 -2.366163 -0.5561974 47
-18.346066 -1.1060276 -0.68132907 51
-18.321651 0.23025261 -0.78718781 64
-17.665798 -2.3602602 -0.87011999 51
-18.323219 -1.1046503 -1.0053984 43
-18.344852 0.23054418 -1.1124663 53
-17.659679 -2.3594427 -1.1855633 57
-8.0641708 -0.48616397 -0.58547461 2
-7.8234038 0.098318599 -0.61301595 15
-17.675781 -2.361594 -1.5021673 49
-7.6828294 -0.46317407 -0.69396073 1
-7.82338 0.098318301 -0.75143594 4
-17.662691 -2.3598454 -1.8166518 52
-7.8838778 -0.47529462 -0.85188174 7
-7.657836 -0.46166727 -0.96345311 1
-7.4344373 -0.44819927 -1.0671608 41
-7.4541121 -0.4493854 -1.2034765 44
-7.4244986 -0.4476001 -1.330264 36
-7.3848534 -0.44521001 -1.4551021 39
-7.3708091 -0.4443633 -1.5831683 35
-7.3936205 -0.44573852 -1.7194492 3
-7.8946557 -0.4759444 -1.9755983 8
-5.7049055 -0.34393111 -1.9661379 7
-1.5850766 -0.095559373 -0.74020553 11
-2.7729497 -0.14775106 0.73301017 15
-4.313961 -0.22986075 0.8348099 31
-5.7675705 -0.30731344 0.8080287 21
-6.4465699 -0.34349257 0.56048775 5
-6.6816735 -0.35601959 0.344228 7
-11.732668 -0.62515169 0.39653942 2
-18.377382 0.35927716 0.51117742 39
-12.965521 -1.6402256 0.28653276 9
-16.985723 -0.90505022 0.27255666 2
-15.288295 0.29888561 0.15479688 15
-17.766239 -2.2475488 0.075637735 58
-17.03581 -0.90771908 -0.028286537 9
-18.363968 0.35901493 -0.13849016 39
-17.75289 -2.2458601 -0.24049774 39
-18.334558 -0.97692025 -0.35510546 43
-18.370638 0.35914531 -0.4638153 40
-17.745895 -2.2449753 -0.55681968 49
-18.345358 -0.97749567 -0.68103272 53
-18.331585 0.35838181 -0.78770286 50
-17.705627 -2.239881 -0.87129027 52
-18.31852 -0.97606564 -1.0047421 43
-18.354773 0.35883516 -1.1131926 56
-17.707396 -2.2401047 -1.187688 55
-8.0354986 -0.42815542 -0.58316165 2
-7.8265142 0.15300807 -0.6133284 4
-17.719515 -2.2416379 -1.5045176 49
-7.6659856 -0.40846667 -0.69216478 1
-7.6513238 0.1495831 -0.73499227 1
-17.702423 -2.2394757 -1.819086 54
-9.4715528 -0.50467271 -1.0230302 0
-7.6133142 -0.40566018 -0.95747203 1
-7.4294777 -0.39586481 -1.0660262 44
-7.4412942 -0.39649445 -1.2009308 18
-7.407783 -0.39470887 -1.326743 37
-7.3799438 -0.39322552 -1.4535582 38
-7.3737316 -0.39289451 -1.5831683 33
-7.4237885 -0.3955617 -1.7257807 7
-8.1729298 -0.43547821 -2.0444243 5
-5.6958365 -0.30349123 -1.9622343 5
-1.5712239 -0.083719514 -0.73344564 12
-2.777777 -0.12856744 0.73403102 7
-4.3272295 -0.20028277 0.83708668 29
-5.7616611 -0.26667443 0.80692029 21
-6.3691959 -0.29479375 0.55356818 15
-6.9473653 -0.32155392 0.35779163 5
-8.3423138 -0.38611811 0.28185466 16
-18.390413 0.48799098 0.51162225 43
-12.988568 -1.5510919 0.28679579 11
-18.369972 -0.85024124 0.29466626 47
-15.229858 0.40412539 0.15423 16
-17.793413 -2.1248851 0.075688422 57
-18.360319 -0.84979439 -0.030475179 38
-18.365013 0.48731694 -0.13852032 46
-17.791965 -2.1247125 -0.24082026 43
-18.336937 -0.84871221 -0.35502812 48
-18.35569 0.48706955 -0.46351251 40
-17.792896 -2.1248233 -0.55781537 50
-18.335762 -0.84865785 -0.68044001 45
-18.336626 0.48656371 -0.78804624 49
-17.748604 -2.119534 -0.87265563 52
-18.324886 -0.84815449 -1.0047421 44
-18.34783 0.48686099 -1.1129504 54
-17.746382 -2.1192687 -1.1892815 55
-8.0263357 -0.37149328 -0.58229429 2
-7.8970098 0.20954773 -0.61895239 4
-17.758482 -2.1207137 -1.5065321 51
-7.6646705 -0.35475385 -0.6918056 1
-7.673975 0.20362948 -0.73728675 1
-17.749235 -2.1196096 -1.8223314 39
-7.5600128 -0.34990987 -0.81627947 0
-7.4811645 -0.34626043 -0.94052565 2
-7.4281044 -0.34380457 -1.0654589 42
-7.4478259 -0.34471735 -1.2015673 18
-7.3985581 -0.34243706 -1.3246303 37
-7.3825088 -0.34169421 -1.4535582 38
-7.3723874 -0.34122574 -1.5823298 33
-7.4185843 -0.34336394 -1.7239717 10
-8.1563873 -0.37751263 -2.0395775 5
-5.6940379 -0.26354453 -1.9609331 6
-1.6043644 -0.074256875 -0.74865532 12
-2.0675309 -0.081233524 0.54618442 3
-4.3285222 -0.17006813 0.83708668 31
-5.7792163 -0.22706605 0.80913711 20
-6.3750806 -0.25047764 0.55391413 6
-7.6240273 -0.29954889 0.39252269 0
-8.7562551 -0.34403425 0.29575175 4
-18.366579 0.61569858 0.51106626 33
-13.022925 -1.4630556 0.28732187 15
-11.297832 -0.4438931 0.1811704 1
-15.210676 0.50990397 0.15406804 20
-17.827688 -2.0028448 0.075772896 63
-18.349817 -0.7209664 -0.030448651 37
-18.361162 0.61551702 -0.13852032 39
-17.842136 -2.004468 -0.24130405 43
-18.342415 -0.72067553 -0.35502812 43
-18.367828 0.61574048 -0.46391624 39
-17.819216 -2.001893 -0.55818874 47
-18.349228 -0.72094327 -0.68073636 52
-18.328789 0.61443174 -0.78787452 57
-17.774879 -1.996912 -0.87324077 54
-18.32238 -0.71988839 -1.0043046 33
-18.339994 0.61480737 -1.1127083 54
-17.776609 -1.9971064 -1.1903439 53
-7.9769092 -0.31341368 -0.57853568 2
-8.162385 0.27362576 -0.63988614 2
-17.784737 -1.9980195 -1.5075394 45
-7.6550179 -0.30076653 -0.69072801 1
-7.7042012 0.25826618 -0.74034601 1
-7.7152243 -0.86676395 -0.79148901 5
-7.7093043 -0.30289945 -0.83215034 1
-7.4794335 -0.2938678 -0.94002718 1
-7.4303236 -0.29193825 -1.0654589 40
-7.4421592 -0.29240328 -1.2002945 46
-7.4086375 -0.2910862 -1.3260387 38
-7.3807926 -0.28999218 -1.4527862 39
-7.3824062 -0.29005557 -1.5840068 33
-7.4091206 -0.29110518 -1.7212582 1
-8.1704578 -0.32101819 -2.0424855 4
-5.6844006 -0.22334073 -1.9570295 6
-1.5831076 -0.062200479 -0.73851556 12
-2.0100648 -0.064924628 0.53087085 6
-5.7925386 -0.18709764 0.81079972 21
-6.3965888 -0.20660833 0.55564404 6
-11.794244 -0.38095132 0.60707438 22
-14.33236 -0.4629319 0.48396969 2
-18.401783 0.745525 0.51217824 42
-13.00896 -1.3695905 0.28679579 7
-11.8483 -0.38269731 0.18995015 6
-15.214738 0.6164059 0.15414903 17
-17.869083 -1.881267 0.075891159 59
-16.923151 -0.54661381 -0.028074306 3
-18.360415 0.74384898 -0.13855048 40
-17.887516 -1.8832077 -0.24173409 43
-18.343002 -0.59247464 -0.35495076 43
-18.371073 0.74428076 -0.46411812 37
-17.852638 -1.8795356 -0.55881101 46
-18.349821 -0.59269488 -0.68058819 49
-18.336031 0.74286109 -0.78838962 46
-17.816198 -1.8756993 -0.87460613 50
-18.322968 -0.59182757 -1.0040859 46
-18.347221 0.7433145 -1.1134347 52
-17.821873 -1.8762966 -1.1924685 53
-7.9948525 -0.25823188 -0.57969213 2
-18.32476 0.74240458 -1.4369318 46
-7.8486724 -0.8263126 -0.66479462 2
-7.6569314 -0.24731709 -0.69072801 1
-7.9250021 0.32107145 -0.76176101 1
-7.6815124 -0.80871385 -0.78743219 1
-7.7350802 -0.24984129 -0.83472401 0
-7.4852695 -0.24177246 -0.94052565 1
-7.4163508 -0.23954639 -1.0631895 50
-7.4440193 -0.24044007 -1.2002945 43
-7.4065533 -0.23922995 -1.3253345 38
-7.3669462 -0.23795064 -1.4496984 37
-7.3764329 -0.23825707 -1.5823298 32
-7.3992891 -0.23899531 -1.7185447 0
-8.1763783 -0.2640951 -2.0434549 5
-5.6971626 -0.18401702 -1.9609331 7
-1.5798796 -0.051029745 -0.73682559 13
-1.9834052 -0.050205082 0.5237245 11
-2.6147745 -0.066186659 0.50543946 2
-6.3938918 -0.16184583 0.55529809 5
-11.708761 -0.29637882 0.60255313 19
-18.291723 -0.46301052 0.6175437 28
-18.364178 0.8724575 0.51128864 36
-13.046062 -1.281474 0.28740954 5
-18.359762 -0.46473277 0.29428175 36
-15.206069 0.72241998 0.15410854 18
-17.905664 -1.7588176 0.075992525 66
-18.074186 -0.45750409 -0.029977761 29
-18.362766 0.87239045 -0.1386108 41
-17.908188 -1.7590655 -0.2418416 44
-18.346691 -0.4644019 -0.35495076 44
-18.377409 0.87308615 -0.46442094 39
-17.909092 -1.7591542 -0.56018001 50
-18.337528 -0.46416995 -0.67999548 46
-18.346365 0.87161124 -0.78907639 52
-17.872595 -1.7555692 -0.87675172 47
-18.326653 -0.4638947 -1.0040859 42
-18.345573 0.87157369 -1.1136768 50
-17.854397 -1.7537817 -1.1937964 54
-7.9964609 -0.20241097 -0.57969213 2
-18.307182 0.86974972 -1.4359945 46
-7.6995449 -0.75630224 -0.6517002 12
-7.650506 -0.19365397 -0.69000965 1
-18.310993 0.86993074 -1.7606163 41
-7.7226133 -0.75856823 -0.79108334 3
-7.7485633 -0.19613604 -0.83601087 1
-7.4986782 -0.18981081 -0.94202089 1
-7.4218011 -0.18786485 -1.0637568 96
-7.4336729 -0.18816535 -1.1983851 17
-7.4119797 -0.18761626 -1.3260387 37
-7.3723516 -0.18661316 -1.4504704 37
-7.3818274 -0.18685301 -1.5831683 33
-7.4825759 -0.18940322 -1.7375392 5
-8.1625051 -0.20661397 -2.0395775 5
-5.7020898 -0.14433454 -1.9622343 6
-1.5729489 -0.039815377 -0.73344564 14
-1.9798405 -0.036286213 0.52270359 5
-2.5719793 -0.04713884 0.49709135 4
-3.3785248 -0.061921082 0.47273558 4
-5.0800338 -0.093106076 0.44112465 3
-9.1343851 -0.16741359 0.46999967 17
-18.338476 -0.33610478 0.61902785 28
-14.744403 0.80369127 0.4106544 21
-13.070621 -1.1918229 0.28776026 7
-18.374556 -0.33676603 0.29447401 29
-14.76133 0.80461389 0.14965452 28
-18.216265 -1.6610198 0.07725963 49
-18.368891 -0.33666217 -0.030461915 32
-18.364218 1.0010009 -0.13867112 41
-18.234699 -1.6627007 -0.24608821 33
-18.333492 -0.33601341 -0.35464138 47
-18.370867 1.0013634 -0.46442094 39
-18.235479 -1.6627718 -0.57001209 36
-18.336325 -0.33606532 -0.6798473 46
-18.335844 0.99945426 -0.78890467 48
-17.940119 -1.6358399 -0.87948239 53
-18.317465 -0.33571967 -1.0034297 44
-18.347015 1.0000632 -1.114161 53
-18.172255 -1.6570069 -1.2142463 47
-7.9936905 -0.14650713 -0.57940304 2
-18.312611 0.99818784 -1.4369318 38
-7.6847901 -0.70072478 -0.65002143 29
-7.6596379 -0.14038466 -0.69072801 1
-18.312426 0.99817777 -1.7613811 41
-7.6167588 -0.69452149 -0.77972418 0
-7.5588832 -0.13853805 -0.81542158 0
-7.6268015 -0.13978285 -0.95797044 1
-7.4268899 -0.13611889 -1.0643241 44
-7.4427023 -0.1364087 -1.199658 28
-7.4091721 -0.13579416 -1.3253345 37
-7.377399 -0.13521183 -1.4512423 39
-7.3790407 -0.13524193 -1.5823298 33
-7.4798203 -0.13708898 -1.7366346 8
-8.1559887 -0.1494817 -2.0376387 4
-5.7067404 -0.10459226 -1.9635355 6
-1.5949377 -0.029231772 -0.74358547 13
-1.9877801 -0.022551181 0.5247454 3
-2.591881 -0.029404651 0.50088596 2
-3.3828361 -0.038377963 0.47328979 4
-4.7936578 -0.054383606 0.41621408 4
-7.1740503 -0.081388943 0.36909464 0
-18.360363 -0.20829664 0.61970246 14
-18.390116 1.1312335 0.51240063 42
-11.835317 -0.99592161 0.26040462 27
-11.749736 -0.13329966 0.18828392 4
-15.238415 0.93736243 0.15455393 16
-18.283218 -1.5385015 0.077496156 49
-17.046881 -0.19339529 -0.02826664 5
-18.360773 1.1294284 -0.13870127 41
-18.253832 -1.5360287 -0.24619572 35
-18.33139 -0.20796794 -0.35456401 43
-18.375402 1.1303284 -0.46472377 38
-18.250626 -1.535759 -0.57013655 36
-18.34222 -0.2080908 -0.67999548 45
-18.340385 1.1281743 -0.78941971 47
-18.221821 -1.533335 -0.89274585 44
-18.319363 -0.20783147 -1.0034297 43
-18.347557 1.1286155 -1.1146452 52
-18.227129 -1.5337816 -1.2171677 48
-7.9825501 -0.090561301 -0.57853568 2
-18.317135 1.1267442 -1.4378692 36
-7.6775789 -0.6460551 -0.64901417 31
-7.6564474 -0.086861692 -0.69036883 1
-18.31296 1.1264874 -1.7621459 43
-7.7086596 -0.64867049 -0.7886492 1
-7.5715957 -0.085899055 -0.81670839 0
-7.5918741 -0.086129114 -0.95348465 1
-7.4118218 -0.084086441 -1.0620549 50
-7.4395242 -0.084400713 -1.1990216 47
-7.4178138 -0.084154412 -1.326743 37
-7.3781629 -0.083704576 -1.4512423 38
-7.3719835 -0.083634473 -1.5806526 34
-8.82866 -0.10016034 -2.0495906 4
-8.1257887 -0.092186332 -2.0298836 4
-5.7035489 -0.064706236 -1.9622343 7
-1.5697261 -0.017808398 -0.73175567 14
-2.0226965 -0.0088261431 0.53393358 4
-2.5959506 -0.011327568 0.50164485 2
-3.4226353 -0.01493485 0.47883183 3
-4.8935447 -0.021353241 0.42486358 4
-6.7190509 -0.029318932 0.34566659 7
-8.5710382 -0.037400179 0.28927544 5
-13.455233 0.92200685 0.37507102 21
-10.03578 -0.77397436 0.22068633 7
-11.514413 -0.05024375 0.18450285 5
-15.219527 1.0429034 0.15443246 18
-18.305479 -1.4117458 0.077546842 41
-18.3678 -0.080148868 -0.030455282 34
-18.35643 1.2578567 -0.13873142 40
-18.292027 -1.4107083 -0.246572 30
-18.340395 -0.080029286 -0.35471871 46
-18.367064 1.2585853 -0.46472377 38
-18.312725 -1.4123046 -0.57175452 37
-18.343225 -0.08004164 -0.67999548 46
-18.344023 1.2570064 -0.78993481 45
-18.236065 -1.4063925 -0.89294088 85
-18.34433 -0.080046453 -1.0047421 43
-18.347198 1.257224 -1.1151295 49
-18.253309 -1.4077225 -1.2182301 44
-7.9949565 -0.034886416 -0.57940304 2
-18.31678 1.2551397 -1.4384941 39
-7.677928 -0.59213328 -0.64867842 34
-7.6568675 -0.033411145 -0.69036883 1
-18.328484 1.2559416 -1.7644404 38
-7.7487082 -0.59759194 -0.7923004 0
-7.7986941 -0.034030013 -0.84115815 13
-7.5367274 -0.032886907 -0.94650674 1
-7.4399452 -0.032464594 -1.0660262 39
-7.443881 -0.032481767 -1.199658 48
-7.4142833 -0.032352615 -1.3260387 35
-7.3785672 -0.032196768 -1.4512423 38
-7.3762984 -0.03218687 -1.5814912 34
-7.4069738 -0.032320723 -1.7194492 4
-8.1378765 -0.035510052 -2.0327919 4
-5.7000794 -0.024872597 -1.9609331 7
-1.5625614 -0.0068183192 -0.72837573 14
-2.0575166 0.0053862771 0.5431217 7
-2.6705859 0.0069912029 0.51606429 2
-3.5573442 0.0093126073 0.49767476 5
-5.3119993 0.013906037 0.46119148 4
-6.9587736 0.018217051 0.35799712 7
-9.0268297 0.023630919 0.30465668 6
-13.492326 1.0192327 0.3762942 15
-10.060885 -0.70529079 0.22112472 17
-16.665804 0.04362864 0.26704529 0
-14.302514 1.0804356 0.14520052 21
-18.36676 -1.2875514 0.077766478 46
-18.355911 0.048053093 -0.030435385 32
-18.367144 1.3874846 -0.13888222 43
-18.345316 -1.2860482 -0.2471633 36
-18.340508 0.048012767 -0.35471871 46
-18.369791 1.3876846 -0.46502659 38
-18.338091 -1.2855417 -0.57225233 38
-18.347334 0.048030637 -0.68014365 51
-18.34277 1.3856434 -0.7902782 44
-18.28928 -1.2821199 -0.89508647 45
-18.328466 0.047981247 -1.0038671 46
-18.349918 1.3861833 -1.1158557 56
-8.6276999 -0.60482126 -0.57551879 1
-8.0428791 0.021055082 -0.58287251 2
-18.327452 1.3844862 -1.4400563 43
-7.6818752 -0.53851682 -0.64867842 32
-7.6728497 0.020086398 -0.6918056 1
-18.295446 1.3820684 -1.7621459 39
-7.7487221 -0.543203 -0.79189467 1
-7.8424878 0.020530486 -0.84587657 22
-7.5050235 0.019647053 -0.94251931 1
-7.439991 0.019476809 -1.0660262 39
-7.447876 0.01949745 -1.2002945 42
-7.4143286 0.019409629 -1.3260387 37
-7.3825374 0.019326404 -1.4520143 38
-7.3763437 0.019310189 -1.5814912 34
-7.4070191 0.019390494 -1.7194492 3
-8.1301651 0.021283584 -2.030853 4
-5.696332 0.014912165 -1.9596318 7
-1.5879492 0.0041570184 -0.74020553 12
-2.1309083 0.020455688 0.56251895 48
-4.8932471 0.046972804 0.94561195 13
-8.8612909 0.085064106 1.2397532 19
-6.3956451 0.061395098 0.55529809 7
-18.251022 0.17520098 0.93897182 13
-18.384686 0.17648408 0.62051201 36
-13.512776 1.1156988 0.3770726 15
-10.73607 -0.67733747 0.23585469 5
-11.901924 0.11425271 0.19071917 12
-14.218884 1.1739994 0.1444312 17
-18.359335 -1.1582885 0.077698894 45
-17.163185 0.16475828 -0.028458975 4
-18.364985 1.5163273 -0.13894254 37
-18.353848 -1.1579423 -0.2471633 35
-18.355722 0.17620604 -0.35502812 52
-18.359655 1.5158873 -0.46502659 39
-18.346619 -1.1574862 -0.57225233 39
-18.342556 0.17607966 -0.67999548 48
-18.328669 1.5133287 -0.79010648 48
-18.309746 -1.15516 -0.89567161 50
-18.331678 0.17597525 -1.0040859 44
-18.339794 1.5142473 -1.1158557 52
-8.5480633 -0.53929639 -0.56994152 2
-8.0744514 0.077510826 -0.58518547 2
-18.333239 1.513706 -1.4413061 40
-7.6695356 -0.48387018 -0.64733541 51
-7.6685386 0.073614262 -0.69144642 1
-18.317097 1.5123733 -1.7652051 40
-7.7682114 -0.49009565 -0.79351741 0
-7.8580604 0.075433575 -0.84759235 29
-7.5007343 0.072003424 -0.94202089 1
-7.4515514 0.071531288 -1.0677282 40
-7.4357109 0.071379229 -1.1983851 41
-7.4297614 0.071322113 -1.3288556 39
-7.374373 0.07079041 -1.4504704 37
-7.37994 0.070843853 -1.5823298 33
-8.8405104 0.084864624 -2.0523043 3
-8.1181765 0.077930562 -2.0279448 4
-5.6923065 0.054643389 -1.9583306 7
-1.5661297 0.015034087 -0.7300657 14
-2.1075115 0.034946997 0.5563935 27
-5.3051147 0.087970011 1.0252984 20
-5.8620977 0.097205974 0.82022119 4
-6.4149833 0.10637398 0.557028 6
-9.2225351 0.15292913 0.47452089 0
-15.441084 0.25604582 0.52120852 1
-13.504659 1.2100086 0.3770726 16
-11.850525 -0.66462135 0.26022926 1
-18.375116 0.30469826 0.29447401 24
-14.130666 1.2660985 0.14362139 10
-14.936395 -0.83768839 0.063186318 8
-18.361452 0.30447167 -0.030448651 32
-18.381838 1.6470007 -0.13915366 40
-18.353498 -1.0293323 -0.24705578 34
-18.346046 0.30421624 -0.35487342 47
-18.368542 1.6458093 -0.46553129 40
-18.330301 -1.0280312 -0.57150561 40
-18.348873 0.30426309 -0.68029183 49
-18.337559 1.6430333 -0.7909649 44
-18.313375 -1.027082 -0.89547652 46
-18.333998 0.30401644 -1.0043046 42
-18.328775 1.6422464 -1.1158557 53
-8.5396652 -0.47893608 -0.56914479 2
-8.1455154 0.13506986 -0.59038973 2
-18.330168 1.6423712 -1.441931 43
-7.6727266 -0.43031496 -0.64733541 35
-7.6797876 0.12734711 -0.69252396 1
-18.310059 1.6405692 -1.7655876 42
-7.5847068 -0.42537847 -0.7744503 0
-7.8692713 0.13048916 -0.84887916 2
-7.5079856 0.12449827 -0.94301772 1
-7.4627481 0.12374814 -1.0694302 40
-7.4389801 0.12335402 -1.1990216 44
-7.4448309 0.12345103 -1.3316724 38
-7.3972445 0.12266196 -1.4551021 39
-7.3909974 0.12255836 -1.5848454 34
-8.8319111 0.14645176 -2.0504951 5
-8.121314 0.13466856 -2.0289142 4
-5.6917863 0.094381846 -1.9583306 7
-1.5768615 0.026147697 -0.73513561 12
-2.1149492 0.049841587 0.55843532 21
-5.3082972 0.12509707 1.0260572 38
-8.9305258 0.21045969 1.2497289 18
-6.406116 0.15096863 0.55633599 6
-9.229229 0.21749903 0.4749319 1
-18.360445 0.43268827 0.6198374 28
-13.503841 1.3050286 0.37729499 16
-13.276822 -0.65166634 0.29144275 6
-16.69722 0.39349216 0.26762205 4
-14.017969 1.3547145 0.14256862 4
-15.840789 -0.7775135 0.066987634 5
-18.378872 0.43312252 -0.030481812 36
-18.373873 1.7756746 -0.13918382 38
-18.340261 -0.90019512 -0.24678701 32
-18.351473 0.43247682 -0.35502812 47
-18.372524 1.7755443 -0.46593502 39
-18.341026 -0.90023261 -0.57163006 38
-18.342304 0.43226075 -0.68014365 50
-18.341553 1.7725512 -0.79165167 44
-18.316111 -0.8990097 -0.89528149 66
-18.323442 0.43181625 -1.0038671 42
-18.340708 1.7724695 -1.1173084 54
-8.4949646 -0.41695836 -0.56595778 2
-8.2081881 0.19343686 -0.5950157 1
-18.322226 1.7706834 -1.4422435 42
-7.6874871 -0.37732494 -0.64834267 52
-7.6946425 0.18133447 -0.69396073 1
-18.314013 1.7698897 -1.7671173 43
-7.5835171 -0.3722218 -0.77404463 0
-7.5938363 0.17895883 -0.81928205 0
-7.5188365 0.17719136 -0.94451302 5
-7.4656606 0.1759382 -1.0699975 32
-7.4576774 0.17575008 -1.2022038 42
-7.435914 0.17523719 -1.330264 21
-7.388361 0.17411654 -1.4535582 38
-7.3899617 0.17415427 -1.5848454 33
-8.8150921 0.20773934 -2.0468771 3
-8.096899 0.19081417 -2.023098 4
-5.6720815 0.13367014 -1.9518245 7
-1.5875137 0.037411869 -0.74020553 12
-2.0913553 0.063896842 0.55230987 17
-5.303369 0.16203299 1.0252984 37
-8.9169598 0.27243844 1.2480663 20
-6.4128723 0.19593148 0.557028 4
-11.535356 0.35243788 0.59371626 4
-18.360973 0.5609799 0.61997235 50
-13.506332 1.4005085 0.37762859 16
-10.596071 -0.44595787 0.2325229 3
-16.690069 0.509929 0.26755798 45
-13.996235 1.4513079 0.14244714 0
-18.359583 -0.7727015 0.077614427 44
-18.380922 1.9059681 -0.1393346 37
-18.350096 -0.77230221 -0.24684078 34
-18.348005 0.56058371 -0.35502812 52
-18.363657 1.9041779 -0.46603596 39
-18.342869 -0.77199805 -0.57150561 37
-18.350828 0.5606699 -0.68058819 51
-18.340654 1.9017925 -0.79216671 42
-18.321939 -0.77111721 -0.89528149 63
-18.323973 0.55984944 -1.0040859 44
-18.343773 1.9021159 -1.1182767 54
-8.4657669 -0.35629952 -0.56383312 2
-8.5455914 0.2610921 -0.61959118 1
-18.325283 1.9001987 -1.4434932 36
-7.6859517 -0.32347938 -0.64800692 31
-7.7210627 0.2359004 -0.69647509 9
-18.328932 1.9005771 -1.7697941 38
-7.5938826 -0.31960446 -0.77485597 0
-7.6162524 0.23269814 -0.82185572 1
-7.5412178 0.23040563 -0.94750357 28
-7.4721656 0.22829588 -1.0711322 43
-7.4641633 0.22805139 -1.2034765 40
-7.4266381 0.2269049 -1.3288556 35
-7.3908882 0.22581263 -1.4543301 41
-7.3924751 0.22586112 -1.5856839 34
-7.8008366 0.23833773 -1.8117079 2
-7.8083267 0.23856656 -1.9513638 2
-5.6899137 0.17384303 -1.9583306 6
-1.5908377 0.048604611 -0.7418955 12
-2.0908582 0.078495696 0.55230987 16
-5.3060331 0.19920087 1.0260572 38
-8.8990059 0.33408946 1.2458495 18
-6.4113483 0.24069698 0.557028 5
-11.524631 0.43266153 0.59330523 5
-18.384575 0.69019985 0.62091678 30
-13.508149 1.496087 0.37796217 16
-10.339148 -0.36285543 0.22682382 5
-18.38069 0.690054 0.29473034 21
-15.226113 1.686359 0.15508032 13
-18.356535 -0.64422798 0.077580631 45
-18.363039 0.68939131 -0.030468548 36
-18.359217 2.0333641 -0.13927428 69
-18.347046 -0.64389497 -0.24673326 29
-18.351637 0.68896329 -0.3551828 49
-18.373762 2.0349751 -0.4666416 39
-18.343815 -0.6437816 -0.57138115 37
-18.358448 0.689219 -0.68103272 51
-18.338846 2.0311079 -0.79268181 42
-18.314898 -0.64276677 -0.89469635 24
-18.339573 0.68851042 -1.0051796 43
-18.349888 2.0323308 -1.1194873 53
-8.1808605 -0.2871097 -0.54471111 1
-18.311045 0.68743932 -1.3279432 41
-18.335352 2.0307207 -1.4453679 41
-7.6880221 -0.26981342 -0.64800692 49
-7.7550573 0.29114294 -0.69970787 27
-18.323133 2.0293677 -1.770559 38
-7.5720668 -0.26574391 -0.7724219 0
-7.650209 0.28720671 -0.8257162 1
-7.5632219 0.283941 -0.95049411 37
-7.525784 0.28253549 -1.079075 15
-7.4584432 0.28000736 -1.2028401 200
-7.4288082 0.27889478 -1.3295598 34
-7.3891315 0.27740526 -1.4543301 38
-7.3985348 0.27775827 -1.587361 33
-7.5420012 0.28314433 -1.7520111 4
-7.554399 0.28360978 -1.8883541 5
-5.6923413 0.21370378 -1.9596318 7
-1.572345 0.059029501 -0.73344564 12
-2.0709407 0.092230372 0.54720533 15
-5.3045135 0.23623912 1.0260572 35
-6.4134927 0.28562808 0.55737394 5
-9.2865028 0.41357902 0.47822005 1
-18.391289 0.81906509 0.62132156 37
-13.298825 1.5669606 0.37240228 1
-11.55266 -0.32471523 0.25339034 2
-15.262911 0.67974126 0.24480754 18
-15.221914 1.7935523 0.15516129 16
-15.017935 -0.42211509 0.063456632 4
-18.353783 0.81739479 -0.030461915 28
-18.376352 2.1652303 -0.13951556 37
-18.3431 -0.51557684 -0.24662575 31
-18.33839 0.81670928 -0.35502812 47
-18.378965 2.1655383 -0.46714631 37
-18.331877 -0.51526141 -0.57088333 38
-18.353189 0.81736839 -0.68103272 48
-18.340096 2.1609583 -0.79336858 43
-18.306959 -0.514561 -0.89411116 52
-18.33432 0.81652802 -1.0051796 44
-18.323357 2.1589859 -1.1187609 51
-8.3861341 -0.23571242 -0.55825585 2
-18.325729 0.81614542 -1.3293887 45
-18.32865 2.1596096 -1.4459928 39
-7.6857347 -0.21602601 -0.64767116 38
-18.311497 0.81551158 -1.6526467 26
-18.312471 2.1577034 -1.7709414 37
-7.5657821 -0.21265446 -0.7716105 0
-7.6837749 0.34220073 -0.82957667 15
-7.5888095 0.33797139 -0.95398307 20
-7.5078063 0.33436385 -1.0768056 5
-7.5588799 0.33663848 -1.2193872 55
-7.4306135 0.33092606 -1.330264 34
-7.4419079 0.33142903 -1.4651372 76
-7.4120445 0.33009908 -1.5907152 31
-7.4503131 0.33180338 -1.7312076 15
-7.5367279 0.3356519 -1.8844765 6
-5.6604815 0.25209233 -1.9492221 6
-1.6081134 0.071618125 -0.75034529 11
-2.0625217 0.10628695 0.54516351 15
-3.5926812 0.18513995 0.69516897 35
-3.6001163 0.18552309 0.50432521 20
-6.4073629 0.33018759 0.557028 5
-14.804751 0.76292622 0.76264489 5
-14.763991 0.76082581 0.49894619 35
-13.446267 1.6795899 0.37685019 2
-13.365806 -0.28230947 0.29310861 3
-14.746537 0.75992632 0.23660457 13
-15.228866 1.9022565 0.15536375 19
-18.359741 -0.38779023 0.07756374 39
-17.233109 0.88806564 -0.028611518 2
-18.368727 2.2944603 -0.13957588 33
-18.346252 -0.38750529 -0.24662575 37
-18.340229 0.94511831 -0.3551828 42
-18.383238 2.296273 -0.46765101 37
-18.343021 -0.38743708 -0.57113224 41
-18.347036 0.94546914 -0.68103272 51
-18.348354 2.2919157 -0.79439867 42
-18.318092 -0.38691053 -0.89450127 47
-18.336149 0.94490814 -1.0056171 47
-18.359343 2.293288 -1.1219083 53
-8.3955574 -0.17732902 -0.55878705 2
-18.33552 0.94487566 -1.3305453 38
-18.324995 2.2889979 -1.4469301 38
-7.6790853 -0.16219588 -0.64699966 27
-18.309336 0.94352639 -1.653006 46
-10.039426 1.254037 -0.97170419 11
-7.5670824 -0.15983017 -0.7716105 0
-9.6710024 0.49837118 -1.0444773 2
-7.6972451 0.39665851 -0.96793896 6
-7.5131974 0.38717407 -1.0779402 9
-7.5169077 0.38736525 -1.2130229 2
-7.435987 0.38319522 -1.3316724 34
-7.4433322 0.38357371 -1.4659091 155
-7.4290886 0.38283971 -1.5949079 255
-7.4711623 0.38500789 -1.7366346 12
-7.5264487 0.38785693 -1.8825377 6
-5.6736927 0.29237974 -1.954427 4
-1.5786089 0.081349708 -0.73682559 12
-2.0540075 0.12023148 0.5431217 16
-3.5952218 0.21044655 0.69592792 4
-3.6026878 0.21088359 0.50487942 2
-6.4327488 0.37654141 0.55944985 5
-9.3197012 0.54552937 0.48027515 1
-18.402004 1.0771626 0.62213111 33
-13.465926 1.7776077 0.37773979 3
-13.387444 -0.18927434 0.293547 5
-16.685295 0.97667491 0.26781434 8
-15.231077 2.0106213 0.15552571 20
-18.365999 -0.25966215 0.077580631 41
-18.35256 1.0742683 -0.030481812 28
-18.383984 2.4268298 -0.13981715 36
-18.344511 -0.25935835 -0.246572 32
-18.341169 1.0736016 -0.3553375 41
-18.358831 2.4235094 -0.46744913 38
-18.337284 -0.25925615 -0.57088333 37
-18.347969 1.0739996 -0.68132907 50
-18.351717 2.4225702 -0.79525709 45
-18.320347 -0.25901669 -0.89450127 46
-18.329107 1.0728955 -1.0056171 42
-18.350801 2.4224496 -1.1223925 53
-8.388608 -0.1185998 -0.55825585 2
-18.328476 1.0728587 -1.3305453 39
-18.336243 2.4205277 -1.4491172 40
-7.6760449 -0.10852545 -0.6466639 33
-18.310257 1.0717921 -1.6537243 53
-7.5879083 -0.10727936 -0.7736389 0
-9.6553774 0.56517816 -1.0431906 0
-18.280869 1.0700719 -2.2997272 48
-7.7079511 0.45118546 -1.1063071 3
-7.5455585 0.44167981 -1.2181143 27
-7.4606462 0.43670943 -1.336602 37
-7.4483089 0.43598729 -1.467453 30
-7.4457579 0.43583795 -1.5991006 26
-7.5149693 0.43988925 -1.7474886 5
-7.5235577 0.44039199 -1.8825377 6
-5.6752896 0.33220348 -1.9557282 4
-1.5707639 0.091944784 -0.73344564 13
-2.0569775 0.13482118 0.5441426 16
-5.3258352 0.34907302 1.0313697 22
-5.7633858 0.37775156 0.8080287 0
-6.3901987 0.41883495 0.55599004 6
-9.335597 0.6118862 0.48130268 2
-13.483376 0.88374543 0.45604059 3
-13.437347 1.869364 0.37729499 3
-10.889104 -0.077922493 0.23874807 6
-13.864469 0.90872353 0.22263387 6
-15.236478 2.1196537 0.15572818 21
-15.031481 -0.10756536 0.063490421 4
-18.312681 1.2002743 -0.030428754 13
-18.374517 2.5562086 -0.13987747 37
-18.349873 -0.13131179 -0.24662575 33
-18.337219 1.2018826 -0.35541487 41
-18.37711 2.5565691 -0.46835756 38
-18.338648 -0.13123146 -0.57088333 34
-18.35199 1.2028507 -0.6817736 55
-18.342276 2.5517232 -0.79560047 45
-18.313719 -0.13105308 -0.89411116 63
-18.333126 1.2016144 -1.0062734 47
-18.353216 2.5532451 -1.123603 51
-8.4091873 -0.06017619 -0.55958378 2
-18.324522 1.2010504 -1.3308344 37
-18.322849 2.5490205 -1.4494296 38
-7.6766152 -0.054933902 -0.6466639 36
-18.314255 1.2003773 -1.6548018 46
-10.020939 1.3940833 -0.97170419 0
-7.7237678 -0.055271324 -0.78743219 3
-9.5996065 0.62919027 -1.0376143 0
-18.268991 1.1974108 -2.2992287 89
-15.942624 1.0449328 -2.2892046 1
-7.6211028 0.49951252 -1.2308427 12
-7.5399265 0.49419197 -1.3513905 19
-7.4999137 0.4915694 -1.4782602 18
-7.5635185 0.49573827 -1.6250954 2
-7.5156035 0.49259773 -1.7483931 3
-7.516428 0.49265179 -1.8815683 7
-5.6803808 0.37231112 -1.9583306 4
-1.5881723 0.10409412 -0.7418955 12
-2.0637009 0.14973807 0.54618442 15
-5.2958488 0.38425639 1.0260572 27
-5.6499796 0.40995139 0.79251105 3
-6.4109659 0.46516711 0.55806589 6
-9.34305 0.67791337 0.48191923 1
-12.436207 0.90234673 0.4208256 17
-13.475402 1.9706504 0.37874058 3
-10.497478 -0.0018319197 0.23015559 4
-13.785984 1.0002838 0.22148034 15
-15.229224 2.2271302 0.15580915 27
-18.363836 -0.0032046817 0.07756374 40
-18.367689 1.3327234 -0.030534869 35
-18.379972 2.6878974 -0.14005843 42
-18.354342 -0.0032030246 -0.24667951 39
-18.340345 1.3307395 -0.35564691 44
-18.366728 2.6859605 -0.46855944 41
-18.359106 -0.0032038563 -0.57150561 37
-18.35112 1.3315212 -0.68206996 49
-18.347738 2.6831837 -0.79663062 42
-18.310192 -0.0031953203 -0.89391613 47
-18.336241 1.3304416 -1.0069298 41
-18.346796 2.6830456 -1.1243293 48
-8.4213762 -0.0014696183 -0.56038052 2
-18.347523 1.3312601 -1.3331474 40
-9.9473839 1.4547111 -0.7876724 0
-7.6768122 -0.0013396841 -0.6466639 35
-18.301455 1.3279176 -1.6544427 47
-9.8100338 1.4346249 -0.95220125 0
-7.7478418 -0.0013520794 -0.78986627 2
-9.5949793 0.69619286 -1.0376143 0
-18.27998 1.3263594 -2.3017209 65
-15.93494 1.1562079 -2.2892046 1
-11.977954 0.86909676 -2.1478589 2
-10.659228 0.77341264 -2.1019857 2
-9.6195288 0.69797409 -2.0678458 2
-7.5663877 0.54900223 -1.7610561 0
-7.5205464 0.54567605 -1.8835071 7
-5.6663251 0.41113743 -1.954427 5
-1.5946388 0.11570386 -0.74527544 12
-2.0626051 0.16414176 0.54618442 15
-5.3008671 0.4218421 1.0275751 35
-5.5798478 0.44404331 0.78308958 19
-6.4115348 0.51022881 0.5584119 7
-9.3779116 0.74629253 0.48397431 2
-12.437575 0.98978007 0.42109546 28
-13.473173 2.0664971 0.37907416 3
-13.416465 0.09132544 0.29416075 10
-13.802586 1.0984074 0.22186485 10
-15.221212 2.334609 0.15589014 22
-18.37141 0.1250536 0.077597529 42
-18.385849 1.4631426 -0.030581295 30
-18.384481 2.819787 -0.14023937 37
-18.353916 0.12493452 -0.24667951 35
-18.346556 1.4600158 -0.35595629 42
-18.375196 2.818363 -0.46926603 40
-18.338692 0.12483089 -0.57088333 36
-18.357313 1.4608718 -0.68266267 51
-18.34041 2.8130274 -0.79714566 39
-18.317757 0.12468838 -0.89430624 45
-18.346413 1.4600043 -1.0080235 43
-18.347351 2.8140919 -1.1255399 50
-8.5049934 0.057893217 -0.56595778 2
-18.333805 1.4590011 -1.3328582 39
-9.6295347 1.4769651 -0.76330173 0
-7.6806202 0.052281734 -0.64699966 34
-18.295708 1.4559693 -1.6548018 86
-9.2527227 1.4191703 -0.89904624 0
-7.7596002 0.052819349 -0.79108334 2
-18.299675 1.4562849 -1.9800031 50
-18.294012 1.4558343 -2.3047113 42
-15.910691 1.26617 -2.2869353 1
-13.616702 1.0836148 -2.2013884 2
-11.916641 0.94832426 -2.1379998 2
-10.618357 0.845007 -2.0950382 2
-9.602725 0.76418322 -2.0653303 2
-8.7586775 0.69701409 -2.0396411 2
-7.5088162 0.59755033 -1.8815683 11
-5.6595464 0.45038575 -1.9531257 4
-1.572108 0.12510808 -0.73513561 14
-2.0575559 0.17820375 0.54516351 13
-5.3017058 0.45917773 1.028334 44
-5.6002917 0.48503807 0.7864148 21
-6.4197268 0.55600893 0.55944985 6
-9.3724728 0.81174451 0.48397431 2
-12.438328 1.0772765 0.42136532 30
-13.470262 2.1624086 0.37940776 3
-11.896009 0.16403538 0.26084301 24
-13.802551 1.1954311 0.22199301 12
-15.232187 2.4452541 0.15617357 24
-15.466392 0.21326777 0.065331951 11
-18.391125 1.592845 -0.030607825 35
-18.380144 2.9506021 -0.14036001 39
-18.348598 0.25301084 -0.24662575 33
-18.33193 1.5877181 -0.35587895 42
-18.38271 2.9510138 -0.46997261 41
-18.349365 0.25302142 -0.5712567 37
-18.354633 1.5896844 -0.68295902 50
-18.336107 2.9435327 -0.79783243 76
-18.320436 0.25262249 -0.89450127 46
-18.343731 1.5887402 -1.008461 46
-9.6702003 1.552377 -0.59388024 2
-8.6241055 0.11891874 -0.57392526 2
-18.331121 1.587648 -1.3334365 40
-9.2764378 1.4891654 -0.73611903 0
-7.6840534 0.10595626 -0.64733541 36
-18.300974 1.585037 -1.6562387 51
-8.9791899 1.4414477 -0.87342477 0
-7.6317143 0.10523455 -0.77810144 0
-18.316797 1.5864074 -1.9830058 51
-18.279448 1.5831727 -2.304213 41
-15.905409 1.3775585 -2.2875028 1
-13.61274 1.1789917 -2.2020247 1
-11.901886 1.0308156 -2.1365914 3
-10.63175 0.92080981 -2.0988979 2
-9.6088457 0.83221668 -2.0678458 3
-8.7497158 0.75780797 -2.0387368 3
-7.5315261 0.65230119 -1.8883541 10
-5.6524959 0.48955944 -1.9518245 5
-1.5748081 0.13639323 -0.73682559 13
-2.040859 0.19112144 0.54107994 11
-4.6727328 0.43758997 0.90690714 9
-5.6204338 0.52633983 0.78974003 10
-6.4275913 0.60192817 0.56048775 4
-9.3785086 0.87827438 0.48459083 2
-12.438463 1.1648316 0.42163515 28
-13.478497 2.2603638 0.38007495 4
-13.441869 0.27922252 0.2947745 7
-13.825726 1.2947453 0.2225057 12
-15.20291 2.5495505 0.1560521 23
-15.312559 0.31808159 0.064689949 3
-18.379557 1.7212005 -0.030607825 34
-18.37882 3.0821552 -0.14051081 38
-18.362379 0.38143429 -0.24684078 43
-18.348274 1.7182709 -0.35642037 50
-18.369547 3.0806 -0.47017449 41
-18.351149 0.381201 -0.57138115 39
-18.351046 1.7185305 -0.68325543 52
-18.346642 3.0767586 -0.79920596 71
-18.32222 0.38060009 -0.89469635 45
-18.360029 1.7193717 -1.0099922 43
-9.43468 1.5822097 -0.58008033 2
-8.6829205 0.1803668 -0.57790899 2
-18.347397 1.7181888 -1.3354604 38
-9.0337763 1.5149776 -0.71768481 0
-7.6910963 0.15976404 -0.64800692 35
-18.309296 1.7146207 -1.6580346 73
-8.7450771 1.4665624 -0.85162735 0
-7.6347718 0.15859404 -0.77850711 1
-18.305275 1.7142442 -1.9830058 55
-18.299562 1.7137092 -2.3082004 37
-15.863866 1.4856122 -2.282964 1
-13.576653 1.2714202 -2.1975698 1
-11.890478 1.1135142 -2.1358871 4
-10.609432 0.99354732 -2.0958102 4
-9.5794373 0.89709085 -2.0628147 3
-8.7209358 0.81669426 -2.0333097 3
-7.5151968 0.70377976 -1.8854458 8
-5.6451745 0.52865672 -1.9505234 7
-1.5629885 0.14637004 -0.73175567 12
-2.0779557 0.20923947 0.55128896 1
-4.4663696 0.4497405 0.86744338 4
-5.7388086 0.57786858 0.80692029 3
-6.4192677 0.64638734 0.5601418 5
-9.4198437 0.9485299 0.48705694 2
-12.445939 1.2532421 0.42217484 29
-13.462388 2.3544064 0.38007495 4
-13.423602 0.37260738 0.29442379 3
-13.820328 1.391636 0.22256979 13
-15.235961 2.6645825 0.15657848 24
-15.261985 0.42363653 0.064487211 2
-18.394951 1.8522772 -0.03065425 35
-18.372616 3.2131453 -0.14063144 40
-18.351273 0.50938785 -0.24673326 33
-18.347767 1.8475261 -0.35665244 48
-18.398798 3.2177241 -0.47148669 39
-18.344044 0.50918722 -0.5712567 39
-18.342579 1.8470036 -0.68340361 52
-18.34046 3.2075214 -0.79989266 75
-18.319117 0.50849527 -0.89469635 65
-18.351551 1.8479071 -1.010211 49
-9.1441622 1.5992018 -0.56289101 2
-8.7093763 0.24175166 -0.57976812 1
-18.342892 1.8470351 -1.3360386 41
-8.7794342 1.5354153 -0.6983133 0
-7.7376056 0.2147776 -0.65203595 18
-18.308771 1.8435992 -1.6591122 63
-8.4600754 1.4795635 -0.82485867 0
-7.6454124 0.21221852 -0.77972418 0
-18.312647 1.8439895 -1.9851505 48
-18.29505 1.8422177 -2.3091972 37
-15.829469 1.5939463 -2.2795601 1
-13.551729 1.3645896 -2.195024 1
-11.890251 1.1972872 -2.1372955 3
-10.574901 1.0648383 -2.0904067 4
-9.5768328 0.96433789 -2.0636532 4
-8.6995144 0.87599641 -2.0296917 3
-7.5062394 0.75583977 -1.8844765 6
-5.6375828 0.56767565 -1.9492221 7
-1.5799646 0.15909433 -0.74020553 13
-2.0572951 0.22095148 0.54618442 2
-5.2833152 0.56742287 1.0268162 14
-5.7309108 0.61549419 0.80636609 11
-6.3989911 0.68724537 0.5587579 4
-9.5086718 1.021222 0.49198917 16
-12.445304 1.3366134 0.4224447 27
-13.470081 2.4479308 0.38074213 4
-13.424832 0.46176574 0.29451147 3
-13.822725 1.4845471 0.22276205 11
-15.229758 2.7677186 0.15669996 26
-18.382263 1.974237 -0.03065425 33
-18.390257 3.3420787 -0.14093304 40
-18.343493 0.63094991 -0.24667951 31
-18.358969 1.9717351 -0.35711652 47
-18.388857 3.3418243 -0.47178951 42
-18.352253 0.63125122 -0.57163006 38
-18.349798 1.9707505 -0.6841445 49
-18.350239 3.3348064 -0.80126619 73
-18.319334 0.63011891 -0.89489138 48
-18.346834 1.970432 -1.0106485 43
-8.8348017 1.605557 -0.54449111 6
-18.320625 0.63016331 -1.2198236 43
-18.342138 1.9699278 -1.336906 38
-8.5101061 1.5465496 -0.67769194 0
-7.8714514 0.27074948 -0.66345161 3
-18.311983 1.9666891 -1.6605489 74
-8.2463655 1.4986199 -0.80497336 0
-7.7074695 0.26510912 -0.78621513 0
-18.311876 1.9666775 -1.9864373 48
-18.298214 1.9652102 -2.3111908 35
-11.212352 1.2041956 -1.6157757 1
-13.562014 1.4565469 -2.1982062 1
-11.882049 1.2761203 -2.1372955 2
-10.583216 1.136627 -2.0934944 2
-9.5546703 1.0261623 -2.0602989 4
-8.7012615 0.93450701 -2.0315008 3
-7.5049195 0.80602098 -1.8854458 5
-5.6412153 0.60586101 -1.9518245 6
-1.5860844 0.17034391 -0.74358547 12
-2.0557027 0.23530774 0.54618442 5
-5.2987351 0.60652423 1.0306108 29
-5.7461534 0.65773833 0.80913711 2
-6.4177923 0.73461807 0.56083375 4
-10.06488 1.1520851 0.52117151 10
-12.443613 1.4243687 0.42271453 26
-13.488025 2.5485911 0.38174292 4
-13.433269 0.55597359 0.2947745 1
-13.982887 1.600563 0.22551773 17
-15.233647 2.8784306 0.1569429 24
-14.667312 0.60704798 0.062003687 3
-18.387903 2.1047871 -0.03068741 32
