# .PCD v0.7 - Point Cloud Data file format
VERSION 0.7
FIELDS x y z intensity
SIZE 4 4 4 4
TYPE F F F F
COUNT 1 1 1 1
WIDTH 1375
HEIGHT 1
VIEWPOINT 0 0 0 1 0 0 0
POINTS 1375
DATA ascii
9.5999966 1.874746 -0.53573126 16
12.228682 1.4755019 -0.74688977 7
9.177804 2.4952748 -0.63288474 15
9.1976795 1.7961789 -0.67915058 27
12.577946 1.5176438 -0.99263591 9
8.957942 2.4354985 -0.78197312 26
9.1493549 1.7867419 -0.8405115 3
13.784136 1.6631817 -1.3334641 7
8.8626728 2.4095964 -0.9363181 37
9.0046892 1.7584908 -0.98957264 50
9.005805 1.7587087 -1.1523557 11
9.8785992 1.9291532 -1.4421706 4
9.0229368 1.7620542 -1.4815936 3
8.258482 1.6127667 -1.5049096 4
7.634748 1.4909602 -1.5299799 4
7.1014237 1.3868093 -1.5513036 5
6.6081409 1.2904781 -1.5629711 11
6.2312164 1.2168701 -1.5859072 6
4.6997876 0.91780323 -1.6473399 6
1.6652619 0.32520252 -0.79090452 4
5.9024181 1.1120732 1.5854663 19
5.268137 0.99256849 1.0359232 2
7.4160275 1.397252 1.0557576 13
13.729875 2.5868425 1.2130063 31
13.755472 2.5916653 0.72010446 28
13.765824 2.5936158 0.47277108 32
13.757638 1.5674852 0.38507885 36
13.692766 3.6254554 0.31055662 47
13.771894 2.5947595 0.22455645 23
13.762252 1.5680109 0.14022014 41
13.692068 3.6252706 0.059824266 48
10.876617 2.0492611 -0.01835143 4
13.790385 1.5712163 -0.10465175 41
11.216453 2.9697978 -0.15594187 0
10.363687 1.9526197 -0.20396712 0
13.77844 1.5698553 -0.35005692 38
10.114407 2.6780074 -0.32570344 0
10.142461 1.9109387 -0.38259932 0
13.78601 1.5707178 -0.59609944 40
9.6553955 2.5564742 -0.48762608 2
9.6239939 1.8132545 -0.5363875 15
13.79723 1.5719961 -0.84203649 44
9.174861 2.4292424 -0.63155681 15
9.2603579 1.7447418 -0.68290913 21
13.804112 1.5727804 -1.0885564 39
8.9584856 2.3719523 -0.78063005 27
9.2432184 1.7415127 -0.84805453 15
13.790908 1.5712758 -1.3330817 13
8.8669186 2.347708 -0.93510103 34
9.0435114 1.7038859 -0.99257523 50
9.0445728 1.7040858 -1.1558447 12
9.9145231 1.867993 -1.4455746 3
9.0150213 1.698518 -1.4784114 3
8.2922134 1.5623341 -1.5091349 4
7.6598964 1.4431994 -1.5330677 4
7.1219954 1.3418535 -1.5538193 5
6.6203837 1.247345 -1.5638757 10
6.2353363 1.1747983 -1.5849378 7
4.7057714 0.88661325 -1.6473399 6
1.6709449 0.31482235 -0.79259449 3
5.8986206 1.0687709 1.5824035 19
8.6756306 1.5719372 1.7037711 18
7.4022136 1.3412068 1.0524324 12
13.727993 2.4873745 1.2112764 32
13.753575 2.4920099 0.71907693 27
13.771793 2.4953108 0.4723663 34
13.764271 1.4709759 0.38496765 38
13.698379 3.5247927 0.31011823 77
13.777866 2.4964111 0.22436419 27
13.768887 1.471469 0.14017965 42
13.689927 3.5226178 0.059706002 40
10.902467 1.9754175 -0.018371327 4
13.789087 1.4736279 -0.10456128 39
10.481586 2.6970651 -0.14545974 0
10.345583 1.8745158 -0.20334834 0
13.785088 1.4732006 -0.34995598 40
10.067032 2.5903943 -0.32358766 0
10.163421 1.8415098 -0.38289568 0
13.804587 1.4752843 -0.59644282 42
9.6536617 2.4840281 -0.48665082 1
9.6403484 1.7467343 -0.53660625 13
13.795959 1.4743623 -0.8413102 40
9.1838655 2.3631425 -0.63102567 16
9.2683859 1.6793386 -0.68262005 14
13.806826 1.4755236 -1.0879315 41
8.9632463 2.3063741 -0.77962279 27
9.1767502 1.662735 -0.84087068 12
13.8055 1.475382 -1.3334641 17
8.8715305 2.2827744 -0.93388402 35
9.0747528 1.6442541 -0.99471992 43
9.0757751 1.6444393 -1.1583368 32
9.9000502 1.7937896 -1.4416033 2
9.042202 1.6383562 -1.4809572 3
8.2641735 1.4973854 -1.5020927 4
7.6543374 1.3868891 -1.5299799 5
7.1004024 1.2865216 -1.5471109 5
6.6519341 1.2052637 -1.5693027 4
6.2433858 1.1312388 -1.5849378 7
4.7118464 0.8537392 -1.6473399 6
1.6802368 0.30444205 -0.79597443 3
5.9021282 1.0269024 1.5813826 20
8.6825247 1.5106595 1.7030122 22
7.3957853 1.2867815 1.0502156 13
13.733245 2.3894267 1.2102385 34
13.754895 2.3931937 0.71825486 36
13.753431 2.3929389 0.47115198 30
13.766247 1.3740546 0.38474527 39
13.776969 3.4426467 0.31134573 78
13.751616 2.3926229 0.22365925 23
13.766883 1.3741181 0.14005817 44
13.768515 3.4405344 0.059942529 26
10.947519 1.9047424 -0.018424384 3
13.779138 1.3753413 -0.10441048 38
10.438075 2.60831 -0.14459966 0
10.425399 1.8138994 -0.20466326 0
13.787078 1.3761338 -0.3497541 37
10.088751 2.5210195 -0.32371211 0
10.246915 1.7828454 -0.3855629 0
13.798643 1.3772882 -0.59575611 43
9.6591406 2.4136665 -0.48606569 1
9.6523075 1.6793905 -0.53660625 9
13.801942 1.3776174 -0.84106809 40
9.1885233 2.2960668 -0.63022888 20
9.3624249 1.6289542 -0.68869162 5
13.808854 1.3783073 -1.0873066 37
8.9752617 2.2427762 -0.77928704 28
9.2273836 1.6054586 -0.84446257 8
13.807538 1.3781761 -1.3326993 17
8.87181 2.2169249 -0.93226129 35
9.1447811 1.5910867 -1.0011541 36
9.1222248 1.5871623 -1.1628226 43
9.9240351 1.7266679 -1.4433053 2
9.0573101 1.5758678 -1.4815936 2
8.3054609 1.4450547 -1.5077264 4
7.6754332 1.3354371 -1.5322958 4
7.1169171 1.2382617 -1.5487881 5
6.6601863 1.1587958 -1.5693027 5
6.2434845 1.0862945 -1.582999 7
4.7251444 0.82212085 -1.6499424 7
1.6894648 0.29394746 -0.79935437 3
5.920598 0.98758179 1.5844454 19
8.685112 1.4487149 1.7014943 21
7.400681 1.2344662 1.0496614 13
13.737801 2.2915256 1.2092005 31
13.743685 2.2925072 0.71681631 27
13.765859 2.2962058 0.47101706 33
13.755597 1.276068 0.38418928 34
13.765689 3.3379016 0.31055662 53
13.771929 2.2972183 0.22372334 26
13.772158 1.2776042 0.14001769 40
11.265442 2.7316422 0.04896095 1
10.980277 1.8315585 -0.018457547 3
13.788404 1.2791113 -0.10441048 40
13.005902 3.1536686 -0.17986263 0
10.40625 1.7358083 -0.20404448 0
6.3745899 0.5913527 -0.16160356 4
12.487897 3.0280628 -0.40000412 0
10.093515 1.6836427 -0.37933937 0
13.795984 1.2798146 -0.59524101 38
9.6679897 2.3442922 -0.48567557 1
9.6716757 1.613278 -0.53704375 41
13.803271 1.2804905 -0.84058386 38
9.181056 2.2262206 -0.62863541 18
9.4601431 1.5779934 -0.69505233 16
13.806227 1.2807647 -1.0863693 41
8.9713326 2.1753671 -0.77760828 26
9.2305069 1.5396893 -0.84374422 17
13.828718 1.2828511 -1.3338466 19
8.8832026 2.1539972 -0.93185556 37
9.3125753 1.5533786 -1.0183119 11
9.1800594 1.5312743 -1.1688037 40
9.5023251 1.5850297 -1.3803309 2
9.0641956 1.5119478 -1.4809572 2
8.3231134 1.388332 -1.5091349 4
7.7000546 1.284403 -1.5353836 4
7.1292458 1.1891896 -1.5496266 5
6.6565843 1.1103475 -1.5665891 6
6.2700553 1.0458728 -1.5878459 7
4.7270379 0.78849077 -1.6486411 6
1.6735954 0.27916309 -0.79090452 6
5.9314976 0.9447636 1.5854663 20
8.6761055 1.3819222 1.6976998 24
7.4095316 1.1801834 1.0496614 14
13.734552 2.1876271 1.2074705 33
13.744341 2.1891861 0.71599424 31
13.766529 2.1927202 0.47047737 32
13.760598 1.1748601 0.38407809 40
13.762534 3.2305076 0.30994287 59
13.756801 2.1911707 0.22321065 23
13.777168 1.1762749 0.13997719 44
11.141081 2.6151686 0.048335843 1
11.032909 1.7573118 -0.018523868 3
13.789439 1.1773225 -0.10435016 42
10.618405 2.4924798 -0.14658858 0
10.45029 1.6645128 -0.20466326 0
6.3110218 0.53882599 -0.15988758 34
10.088766 2.3681564 -0.32259202 0
10.137165 1.6146384 -0.38052481 1
6.3151784 0.53918087 -0.27229658 12
9.6849136 2.2733595 -0.48567557 1
9.7976265 1.5605571 -0.54338765 20
13.800353 1.1782544 -0.83985758 42
9.2010136 2.1597726 -0.628901 19
9.4950953 1.5123701 -0.69678706 18
13.811272 1.1791866 -1.0860568 38
8.9792767 2.107724 -0.77693677 26
9.30056 1.4813848 -0.84913212 35
6.3158541 0.53923857 -0.60879695 38
8.8910055 2.0870037 -0.93104422 40
9.2490911 1.473187 -1.0101619 46
9.2302322 1.470183 -1.173788 26
9.4863167 1.5109719 -1.3763595 3
9.1062346 1.4504328 -1.4860486 3
8.3175135 1.324806 -1.506318 3
7.6821308 1.2236029 -1.5299799 4
7.1300468 1.1356674 -1.5479496 5
6.6722398 1.0627483 -1.5683981 5
6.2660561 0.99805176 -1.5849378 7
4.7326913 0.75381875 -1.6486411 6
1.7006592 0.27087945 -0.80273432 6
5.9341254 0.90274984 1.5844454 20
8.6855421 1.3213189 1.6976998 26
7.3862591 1.1236609 1.0452278 15
13.729792 2.0886931 1.2057407 33
13.751391 2.0919793 0.71558326 29
13.765694 2.0941548 0.46993768 32
13.748533 1.0772045 0.38352209 50
13.765255 3.129915 0.30950448 35
13.771763 2.0950782 0.22321065 25
13.777068 1.0794402 0.13989621 44
11.139565 2.532891 0.048251368 1
11.38895 1.7325845 -0.019100875 1
6.3603258 0.49833471 -0.048103616 32
10.604346 2.4111943 -0.14615855 0
10.485378 1.5951253 -0.20512736 9
6.3186159 0.49506673 -0.15998852 34
10.069966 2.2896879 -0.3214719 0
10.191661 1.5504425 -0.38215479 8
6.3347249 0.49632886 -0.27298334 30
9.7083406 2.2074623 -0.48606569 1
9.9662256 1.5161475 -0.55213785 9
6.3408847 0.49681148 -0.38567111 6
9.2236519 2.0972548 -0.62943214 21
9.6316347 1.4652466 -0.70603901 13
6.3331223 0.4962033 -0.49772397 77
8.9860001 2.0432179 -0.77626526 28
9.3776302 1.4266053 -0.85523838 40
6.3353424 0.49637723 -0.61032659 71
8.9092388 2.0257642 -0.93144989 43
9.3456478 1.4217398 -1.0195987 26
9.4992342 1.4451047 -1.2066839 5
9.5553522 1.4536419 -1.3848696 3
9.1161385 1.3868248 -1.4860486 3
8.3148813 1.2649308 -1.5042053 3
7.709887 1.1728939 -1.5338397 5
7.1532683 1.0882163 -1.5513036 5
6.6640887 1.0137981 -1.5647801 7
6.2767081 0.95486647 -1.5859072 7
4.7228804 0.71848494 -1.6434363 6
1.6845877 0.2562739 -0.79428446 7
5.9326277 0.86018991 1.5824035 20
8.6906681 1.2600867 1.6969409 25
7.4017644 1.0732045 1.0463362 16
13.732206 1.9910748 1.2047027 34
13.74194 1.9924861 0.71435016 33
13.776021 1.9974276 0.46980277 33
13.759706 0.98147976 0.38363329 40
13.775053 3.0311625 0.30924144 37
13.782095 1.9983083 0.22314656 25
6.3635049 0.45390877 0.064583056 18
11.106192 2.443887 0.048031736 1
13.783846 1.9985622 -0.023093488 32
6.3995581 0.45648044 -0.048375044 23
10.472486 2.3044417 -0.14411588 0
11.180969 1.6211631 -0.21850859 0
6.3657932 0.454072 -0.16109885 18
10.116942 2.2262053 -0.32246757 0
10.277398 1.4901515 -0.38497019 14
6.3619523 0.45379803 -0.27401346 83
9.7157106 2.1379154 -0.48567557 0
10.205823 1.4797736 -0.56482565 5
6.3362336 0.45196351 -0.38518691 52
9.2302713 2.0310957 -0.628901 19
10.170695 1.4746803 -0.74478155 4
6.3483653 0.45282885 -0.49866128 50
9.0195084 1.9847178 -0.77794403 28
9.757967 1.4148376 -0.8890025 4
6.3426251 0.45241943 -0.61070901 69
8.9270506 1.9643729 -0.93185556 46
9.926034 1.4392062 -1.0817955 9
9.960783 1.4442445 -1.2640027 2
10.015905 1.4522369 -1.4501133 2
9.0982409 1.3191819 -1.4815936 3
8.3507862 1.2108063 -1.5091349 4
7.7295403 1.1207298 -1.5361555 5
7.1761732 1.0404954 -1.5546578 5
6.6632915 0.96613109 -1.5629711 12
6.2832212 0.91102356 -1.5859072 8
4.7390113 0.68712378 -1.6473399 6
1.6935117 0.24554747 -0.7976644 6
5.9308262 0.81769574 1.5803617 20
8.6953621 1.1988484 1.696182 23
7.416925 1.0225874 1.0474446 15
13.745772 1.8951591 1.2047027 32
13.747602 1.8954114 0.71393919 34
13.773788 1.8990219 0.46926305 34
13.762234 0.88514 0.38352209 36
13.780233 2.9315922 0.30889073 36
13.764014 1.8976742 0.22263387 26
6.3705101 0.40972951 0.06462355 18
11.115158 2.3646269 0.047997948 1
13.789537 1.9011931 -0.023080222 31
6.3786387 0.41025233 -0.048194092 16
10.511791 2.2362673 -0.1444384 0
11.576307 1.5960504 -0.22601137 0
6.3648176 0.40936339 -0.16099791 9
10.089222 2.1463702 -0.32109854 0
10.31131 1.4216424 -0.38585928 34
6.3609781 0.40911645 -0.27384177 91
9.7304001 2.070035 -0.48567557 0
10.702565 1.4755857 -0.59173256 5
6.3432188 0.40797424 -0.38542902 30
9.2520351 1.968268 -0.62943214 21
10.655001 1.4690278 -0.77947634 3
6.3314738 0.40721884 -0.49709907 26
9.0214491 1.9192134 -0.77693677 29
10.280652 1.4174156 -0.93569762 2
6.3456292 0.40812927 -0.61070901 77
8.9444399 1.9028306 -0.93226129 46
10.696195 1.4747074 -1.1645815 3
11.126522 1.5340376 -1.4105393 1
10.033644 1.38336 -1.4512479 3
9.1228762 1.2577906 -1.4841392 3
8.3473349 1.150865 -1.5070223 5
7.7332878 1.066205 -1.5353836 5
7.1677647 0.98823512 -1.5513036 5
6.6853137 0.9217186 -1.5665891 8
6.2855835 0.86660689 -1.5849378 8
4.7399459 0.65350652 -1.6460387 6
1.6772271 0.23124291 -0.78921455 4
5.9363899 0.77627087 1.5803617 16
8.6762609 1.1345495 1.6908696 17
7.3963871 0.96718711 1.0435652 15
13.742863 1.7970827 1.2033188 34
13.756537 1.7988709 0.71373367 32
13.770855 1.8007431 0.46872336 34
6.4229736 0.36809662 0.17891766 13
13.769025 2.8288796 0.3081893 33
13.761064 1.7994628 0.22237754 23
6.3851953 0.36593157 0.064745016 55
11.115722 2.283752 0.047930371 1
13.790575 1.8033218 -0.023060326 33
6.3853407 0.36593992 -0.048224252 34
10.491886 2.1555836 -0.14395462 0
12.201818 1.5955683 -0.23800033 2
6.3675199 0.36491862 -0.16099791 10
10.088295 2.0726647 -0.32060069 0
11.581379 1.5144368 -0.43298033 5
6.3636789 0.36469847 -0.27384177 94
9.732873 1.9996424 -0.48509043 0
11.231405 1.4686724 -0.62038946 3
6.3459125 0.3636803 -0.38542902 35
9.2733688 1.9052362 -0.62996334 24
11.305845 1.4784067 -0.82631427 2
6.3301811 0.36277875 -0.49678662 28
9.0541477 1.8601967 -0.77861553 25
11.143542 1.4571831 -1.0132833 1
6.3284478 0.36267942 -0.60879695 24
8.9769945 1.8443455 -0.93428969 44
12.283575 1.6062592 -1.336159 3
11.152702 1.4583809 -1.4125329 2
10.046983 1.3137918 -1.4518154 2
9.1275196 1.1935583 -1.4835029 3
8.3785906 1.0956247 -1.5112475 4
7.7522178 1.0137172 -1.5376993 4
7.1861229 0.93969196 -1.5538193 5
6.6954489 0.87552905 -1.5674937 12
6.2876325 0.82220101 -1.5839684 7
4.7481427 0.62088996 -1.6473399 6
1.6608263 0.21717763 -0.7807647 3
5.9455023 0.73528343 1.5813826 19
8.6722765 1.072505 1.6885928 27
7.418685 0.91747266 1.045782 16
13.743209 1.6996298 1.2022809 36
13.752902 1.7008287 0.71291161 31
13.775155 1.7035807 0.46845353 34
6.3934398 0.3216404 0.17802808 7
13.764903 2.7280202 0.30766323 42
13.769321 1.7028592 0.22231345 23
6.3875942 0.32134634 0.064745016 55
11.166707 2.2130926 0.048082422 1
13.786949 1.7050393 -0.023033798 29
6.3757558 0.32075077 -0.048133772 51
10.451754 2.071398 -0.14320205 0
13.78439 1.7047228 -0.26863021 41
6.3619256 0.32005501 -0.16079603 16
10.133893 2.0084026 -0.32159635 0
12.028044 1.4875145 -0.44928005 3
6.3540959 0.31966111 -0.27332672 88
9.7583532 1.9339755 -0.48567557 0
12.077749 1.4936615 -0.66654676 2
6.3602595 0.31997117 -0.38615534 94
9.3060188 1.8443289 -0.63129121 20
12.258222 1.5159807 -0.89512563 12
6.3405252 0.3189784 -0.49741152 87
9.2624063 1.8356854 -0.7954033 1
11.825576 1.4624752 -1.0743461 5
6.3268495 0.31829038 -0.60841453 27
9.0052662 1.7847236 -0.93591243 44
12.30633 1.5219302 -1.3374457 2
11.162612 1.3804861 -1.4125329 2
10.059839 1.2441056 -1.4523827 3
9.1199522 1.1278694 -1.4809572 3
8.3743124 1.0356556 -1.5091349 4
7.763001 0.9600544 -1.5384713 5
7.1769819 0.88758111 -1.5504651 5
6.6820631 0.82637423 -1.5629711 9
6.3086247 0.78019094 -1.5878459 6
4.7561159 0.58819133 -1.6486411 6
1.6766943 0.20735766 -0.78752458 3
5.9543324 0.69420594 1.5824035 20
8.6756516 1.0114801 1.6878339 27
7.397366 0.8624469 1.0419025 16
13.738907 1.6017969 1.200897 33
13.752538 1.603386 0.71229511 30
13.770829 1.6055187 0.46791384 34
6.3955293 0.27699795 0.17802808 9
13.783612 2.6318583 0.30766323 70
13.757039 1.6039109 0.22192894 22
6.3856854 0.27657163 0.06470453 58
11.174027 2.1335814 0.048048634 1
13.798517 1.6087466 -0.023033798 30
6.3858314 0.27657795 -0.048194092 25
10.438457 1.9931309 -0.14282577 0
13.768148 1.6052061 -0.26808876 53
6.3719945 0.27597865 -0.16099791 58
10.139813 1.9361074 -0.32134745 0
13.785094 1.6071818 -0.51447904 50
6.3641577 0.27563924 -0.27367008 50
9.7676926 1.8650542 -0.48548052 0
13.777885 1.6063414 -0.75973648 44
6.3543606 0.27521491 -0.38567111 98
9.3069067 1.7770712 -0.63049448 15
13.798107 1.608699 -1.0067272 47
6.3425975 0.27470544 -0.49741152 92
9.1810322 1.7530365 -0.78734517 19
12.622948 1.471689 -1.1458255 9
6.328917 0.27411291 -0.60841453 29
9.0214138 1.722559 -0.9363181 55
12.565516 1.4649931 -1.3644692 10
11.160151 1.3011439 -1.4110377 2
10.048615 1.1715518 -1.449546 2
9.1472168 1.0664592 -1.4841392 6
8.3969822 0.97899055 -1.5119518 3
7.7656159 0.90538055 -1.5376993 4
7.1830034 0.83745474 -1.5504651 5
6.7031503 0.78150946 -1.5665891 12
6.3023539 0.73478121 -1.5849378 7
4.7563491 0.55453503 -1.6473399 6
1.6997075 0.19816615 -0.7976644 3
5.951345 0.65177864 1.5803617 18
8.6746941 0.95003396 1.686316 26
7.4071445 0.81121463 1.0424567 17
13.729948 1.5036746 1.199167 33
13.743542 1.5051633 0.71126753 28
13.76978 1.508037 0.46750906 35
6.4013028 0.23248787 0.17813928 1
13.770184 2.5297856 0.3069618 68
13.767901 1.5078312 0.22192894 22
6.3834639 0.23183998 0.064664036 12
11.25553 2.0678067 0.048335843 1
13.785555 1.5097646 -0.022994004 30
6.3995991 0.23242599 -0.048284568 8
10.54653 1.937553 -0.14411588 0
13.77902 1.5090488 -0.26808876 45
6.3817582 0.23177804 -0.16119979 59
10.141286 1.8631036 -0.32097408 0
13.815846 1.513082 -0.51521993 49
6.3579397 0.23091298 -0.27332672 53
9.7686863 1.7946517 -0.48489538 0
13.812586 1.512725 -0.76104897 44
6.3521371 0.23070224 -0.38542902 81
9.3230114 1.7127746 -0.63076007 28
13.809003 1.5123324 -1.0067272 44
6.3443608 0.2304198 -0.49741152 80
9.2244091 1.6946598 -0.79003119 4
13.824924 1.5140761 -1.2539425 37
6.3306766 0.2299228 -0.60841453 36
9.0880146 1.6696023 -0.94199771 43
12.614971 1.3815647 -1.3687587 8
11.184745 1.2249293 -1.4130313 2
10.064422 1.102234 -1.4506806 5
9.1505146 1.0021448 -1.4835029 5
8.376214 0.91734511 -1.5070223 3
7.7678461 0.8507179 -1.5369275 4
7.2003388 0.78856575 -1.5529808 5
6.7161894 0.73554271 -1.5683981 10
6.3073301 0.69076532 -1.5849378 7
4.763865 0.52172834 -1.6486411 6
1.6938417 0.18550593 -0.79428446 6
5.9672923 0.61139709 1.5834244 21
8.6772079 0.88904977 1.6855571 27
7.4086871 0.75907958 1.0419025 18
13.752004 1.4090034 1.200205 34
13.753715 1.4091787 0.71126753 31
13.760089 1.4098318 0.46683446 34
6.3827863 0.18720658 0.17758329 43
13.759943 2.428726 0.30634806 56
13.7582 1.4096382 0.2216085 23
6.3769307 0.18703483 0.064583056 13
11.293326 1.993351 0.048437212 1
13.7878 1.412671 -0.022980738 30
6.3850722 0.18727362 -0.048163932 23
10.504658 1.8541454 -0.14336331 0
13.769328 1.4107784 -0.26770201 45
6.3752265 0.18698485 -0.16099791 70
10.165857 1.7943448 -0.32134745 0
13.80619 1.4145553 -0.51447904 51
6.3474126 0.18616907 -0.27281165 31
9.8045845 1.7305776 -0.48606569 1
13.798971 1.4138155 -0.75973648 41
6.3535929 0.18635033 -0.38542902 36
9.3740463 1.6545845 -0.63341588 23
13.803349 1.4142641 -1.0055708 45
6.3378425 0.18588838 -0.49678662 22
9.3184452 1.6447706 -0.79708207 35
13.835156 1.417523 -1.2539425 38
6.3440666 0.18607093 -0.60956174 69
9.1386375 1.6130333 -0.94605452 39
12.624309 1.2934619 -1.3687587 8
11.169334 1.1443881 -1.4100409 4
10.083689 1.033155 -1.4523827 4
9.1533594 0.93783522 -1.4828664 3
8.3902483 0.85964835 -1.5084307 3
7.781405 0.7972675 -1.5384713 5
7.2251225 0.74027187 -1.5571735 5
6.7172847 0.68823987 -1.5674937 7
6.3274412 0.64829725 -1.5888153 6
4.7749162 0.48922858 -1.6512436 7
1.6734561 0.17145903 -0.78414464 8
5.9791155 0.57045734 1.5854663 20
8.6832037 0.82844979 1.6855571 26
7.4138055 0.70733863 1.0419025 18
13.737703 1.310691 1.1981291 32
13.751287 1.3119872 0.71065104 27
13.769596 1.3137339 0.46683446 35
6.3959303 0.14291048 0.17791688 65
13.768678 2.331269 0.3061727 66
13.775667 1.3143132 0.22173667 22
6.3900776 0.14277971 0.06470453 16
11.346406 1.9211377 0.048606157 0
13.785381 1.3152399 -0.022960842 30
6.3782268 0.14251491 -0.048103616 18
10.548893 1.7861054 -0.14379334 0
13.786803 1.3153756 -0.26785672 48
6.3603859 0.14211628 -0.16059417 25
10.193904 1.7259997 -0.32184526 0
13.799812 1.3166168 -0.51388633 50
6.3605442 0.14211981 -0.27332672 63
9.796731 1.6587516 -0.48509043 1
13.804529 1.3170668 -0.75951767 42
6.3507476 0.14190093 -0.38518691 84
9.4089804 1.5930988 -0.63500941 11
13.800971 1.3167273 -1.0047034 44
6.3310122 0.14145996 -0.49616173 5
9.31005 1.5763483 -0.7954033 19
13.84075 1.3205225 -1.2535833 37
6.3412309 0.14168827 -0.60917938 51
9.2085285 1.559159 -0.95213979 28
12.633031 1.2052962 -1.3687587 6
11.192855 1.0678914 -1.4120345 4
10.086714 0.96235627 -1.4518154 2
9.1557522 0.8735348 -1.4822299 3
8.4117231 0.80254835 -1.5112475 4
7.7828736 0.74255085 -1.5376993 5
7.2184339 0.68869859 -1.5546578 5
6.7258043 0.64169765 -1.5683981 8
6.3279495 0.60373896 -1.5878459 6
4.7706847 0.45516297 -1.6486411 6
1.7070938 0.16287094 -0.79935437 6
5.9904718 0.53147388 1.5875081 20
8.6924191 0.77119017 1.686316 28
7.4025502 0.65675324 1.0396857 20
13.738155 1.2188473 1.1974372 34
13.751728 1.2200514 0.71024001 32
13.770042 1.2216762 0.4665646 34
6.3967376 0.10048775 0.17791688 61
13.768046 2.2373359 0.30582199 58
13.768146 1.221508 0.22148034 23
6.3708873 0.10008167 0.064502075 35
13.775181 2.2384951 0.058945738 33
13.777863 1.2223701 -0.022934314 30
6.3790312 0.1002096 -0.048103616 58
10.564455 1.7167457 -0.14384711 0
13.775306 1.2221432 -0.26746997 49
6.3571901 0.099866487 -0.16049322 7
10.232752 1.6628432 -0.32271647 3
6.3387313 0.56237137 -0.23590167 27
6.3693385 0.10005733 -0.27367008 89
9.8193474 1.5956641 -0.48567557 7
13.801025 1.2244251 -0.75886142 43
6.367517 0.10002872 -0.38615534 60
9.5060081 1.5447458 -0.64085221 1
13.801453 1.224463 -1.0041251 45
6.3597221 0.099906266 -0.49834886 29
9.3399725 1.5177647 -0.79708207 26
13.837299 1.2276433 -1.2525058 37
6.3579559 0.09987852 -0.61070901 71
9.2815132 1.5082649 -0.95863074 37
12.664515 1.1235939 -1.3713323 5
6.3094625 0.55977464 -0.7954843 23
10.092875 0.89543843 -1.4518154 2
9.1495428 0.81174618 -1.4803207 3
8.4168615 0.74674278 -1.5112475 5
7.7915368 0.69126409 -1.5384713 4
7.2267389 0.64115524 -1.5554963 5
6.7260313 0.59673256 -1.5674937 10
6.3318148 0.56175774 -1.5878459 8
4.7735987 0.42351303 -1.6486411 6
1.7081366 0.15154564 -0.79935437 7
5.9978909 0.4899551 1.588529 21
8.6858482 0.70952863 1.6840392 26
7.4069543 0.60505849 1.0396857 20
13.746329 1.1229087 1.1974372 36
13.75991 1.1240181 0.71024001 32
13.77425 1.1251895 0.46642968 34
6.3892865 0.055758625 0.17769448 16
13.767524 2.1387067 0.30547127 67
13.76438 1.1243832 0.22128807 24
6.3914285 0.055777319 0.06470453 16
13.762804 2.1379735 0.058827475 45
13.778088 1.1255029 -0.022921048 23
6.3835754 0.055708785 -0.048133772 64
10.635467 1.6521593 -0.14465342 5
6.3337145 0.51738781 -0.12290625 41
6.3657298 0.055553045 -0.16069511 26
10.283617 1.5975015 -0.32396102 3
6.3265667 0.51680392 -0.23530896 46
6.3658857 0.055554409 -0.27349839 71
9.9092054 1.5393388 -0.48957658 18
13.809237 1.1280475 -0.75886142 42
6.3600755 0.055503704 -0.38567111 106
9.5836058 1.4887587 -0.64536715 7
6.3461628 0.51840472 -0.46144074 52
6.3522897 0.055435754 -0.49772397 46
9.4094191 1.4617 -0.80211836 42
6.3172469 0.51604259 -0.57147598 2
6.3385906 0.055316206 -0.60879695 26
9.3783236 1.4568694 -0.96755576 21
6.3261156 0.51676708 -0.6845938 17
6.3132162 0.51571339 -0.7954843 58
10.102826 0.82527858 -1.4523827 2
9.162859 0.74849463 -1.4815936 3
8.4257936 0.68828535 -1.5119518 5
7.8118196 0.63813108 -1.5415591 5
7.2193441 0.589733 -1.5529808 5
6.7300334 0.54976225 -1.5674937 10
6.3433175 0.51817226 -1.5897847 7
4.7802086 0.3904852 -1.6499424 6
1.6694051 0.13637018 -0.7807647 5
6.0013213 0.4459753 1.588529 20
8.6829834 0.64525723 1.6825215 26
7.4151416 0.55104029 1.0402399 20
13.738295 1.0209318 1.1960533 35
13.76778 1.023123 0.71024001 30
13.774155 1.0235968 0.46615982 36
6.3975205 0.0089325737 0.17791688 24
13.767007 2.0353906 0.30512056 42
13.772252 1.0234553 0.22128807 25
6.3876662 0.0089188153 0.064664036 13
13.770192 2.0358615 0.058793686 44
6.3943596 0.47518307 -0.010631493 23
6.3838124 0.0089134341 -0.048133772 65
11.248698 1.66307 -0.1528241 1
6.3213844 0.46976009 -0.12259685 40
6.3739634 0.0088996822 -0.16089697 33
10.27923 1.5197384 -0.3234632 4
6.3341718 0.47071034 -0.23545714 40
6.3701181 0.0088943131 -0.27367008 105
10.145502 1.4999673 -0.50069445 2
6.3529344 0.47210467 -0.34891438 22
6.3603115 0.0088806208 -0.38567111 58
9.7916737 1.4476553 -0.65864629 5
6.3378568 0.47098422 -0.46057338 62
6.3644886 0.0088864528 -0.49866128 61
9.9797907 1.4754676 -0.84979558 10
6.3288064 0.47031161 -0.57219434 62
6.3467889 0.0088617401 -0.60956174 10
10.006795 1.4794601 -1.0312481 5
6.3297338 0.47038057 -0.6845938 25
6.3405747 0.47118616 -0.79847485 43
10.112553 0.75149262 -1.45295 2
9.1680994 0.68130761 -1.4815936 3
8.4109793 0.62504387 -1.5084307 5
7.800632 0.57968718 -1.5384713 5
7.2429748 0.5382461 -1.5571735 6
6.7261109 0.49983647 -1.5656847 7
6.3314652 0.47050923 -1.5859072 8
4.779171 0.3551538 -1.6486411 6
1.677591 0.12466656 -0.78414464 3
6.0042887 0.40406731 1.588529 21
8.6833563 0.58435911 1.6817626 26
7.4109025 0.49872744 1.0391316 23
13.729183 0.92392534 1.1946694 35
13.758644 0.92590797 0.70941794 34
13.772987 0.92687321 0.46588999 35
6.4054232 -0.035774656 0.17813928 18
13.772962 1.9381148 0.3049452 38
6.384737 0.42967016 0.10253719 10
6.3955727 -0.035719641 0.064745016 13
13.764266 1.9368911 0.058709212 45
6.3895392 0.4299933 -0.010618229 47
6.383719 -0.035653435 -0.048133772 18
11.953143 1.6820321 -0.16223115 0
6.3564315 0.42776528 -0.12321564 48
6.3818674 -0.035643097 -0.16109885 64
10.368772 1.4590812 -0.32595235 9
6.3532562 0.4275516 -0.23604985 88
6.358036 -0.035509996 -0.27315503 29
10.408928 1.4647321 -0.51317769 4
6.3441205 0.42693681 -0.34825811 61
6.356226 -0.035499886 -0.38542902 10
10.279763 1.446556 -0.69078189 6
6.3449712 0.42699406 -0.46086249 54
6.35642 -0.03550097 -0.49803641 69
10.345078 1.4557471 -0.88001353 2
6.3319354 0.42611676 -0.57219434 89
6.3427143 -0.035424422 -0.60917938 22
10.710418 1.5071572 -1.1026485 3
6.3328633 0.42617923 -0.6845938 18
6.3159904 0.42504376 -0.79498589 20
10.125454 0.68140715 -1.4540846 2
9.184453 0.61808109 -1.4835029 2
8.4387102 0.56789523 -1.512656 5
7.808404 0.52547789 -1.5392432 5
7.2504582 0.48793012 -1.558012 5
6.3462119 0.42707753 -1.5888153 7
4.7890811 0.32228819 -1.6512436 6
1.6711857 0.11246487 -0.7807647 3
6.0146842 0.36260581 1.5905708 20
8.6676245 0.52254295 1.6779679 26
7.4142036 0.4469783 1.0391316 22
13.747233 0.82877612 1.1957072 31
13.756798 0.82935274 0.70900697 33
6.4126992 0.38660085 0.21682166 31
6.4090157 -0.080542319 0.17825048 40
13.770301 1.8397973 0.30459449 36
6.3915739 0.38532728 0.10260127 27
6.3951674 -0.08036828 0.064745016 57
13.769523 1.8396933 0.058675423 43
6.3883924 0.38513547 -0.010611597 48
6.3793144 -0.080169059 -0.048103616 9
12.368965 1.6525701 -0.16771412 0
6.3472872 0.38265735 -0.1229836 10
6.3854613 -0.080246307 -0.16119979 73
11.809294 1.5777946 -0.37088123 2
6.3560863 0.38318783 -0.23604985 94
6.3736172 -0.080097467 -0.27384177 43
10.909946 1.4576362 -0.53736395 3
6.3429599 0.38239649 -0.34803936 76
6.3638077 -0.079974182 -0.38591322 14
10.799937 1.4429383 -0.7250421 3
6.3318682 0.38172781 -0.45970601 25
6.3679795 -0.080026612 -0.49897373 70
11.081932 1.4806145 -0.94179243 1
6.3307791 0.38166216 -0.57183516 102
6.3622193 -0.079954229 -0.61109138 70
11.667315 1.5588255 -1.2000126 1
6.327745 0.38147923 -0.68373591 38
6.3306894 0.38165674 -0.79648113 69
10.129965 0.61070275 -1.4540846 2
9.1806602 0.55347228 -1.4822299 2
8.4267473 0.5080213 -1.5098391 4
7.8079653 0.47071692 -1.5384713 4
7.2458801 0.43683061 -1.556335 5
6.747992 0.40681455 -1.5693027 12
6.3490391 0.38276297 -1.5888153 11
4.7912145 0.28884679 -1.6512436 6
1.6864059 0.10166794 -0.78752458 3
5.993897 0.31937191 1.5844454 10
8.682826 0.46264568 1.6802447 24
7.4052758 0.3945742 1.037469 16
13.760642 0.73320621 1.1963992 32
13.750286 0.73265439 0.70839041 32
6.4192343 0.34203508 0.21695659 12
6.4042997 -0.12520556 0.17813928 66
13.762972 1.7411082 0.30415609 35
6.4020958 0.34112188 0.10272945 17
6.3944507 -0.12501301 0.064745016 64
13.778061 1.7430171 0.058658529 43
6.3869314 0.34031388 -0.010604965 47
6.3825989 -0.12478131 -0.048133772 11
13.77694 1.7428752 -0.1866357 36
6.353797 0.33854839 -0.12306094 11
6.3887439 -0.12490144 -0.16130073 66
12.295995 1.5555257 -0.38581607 3
6.3586063 0.33880466 -0.23604985 84
6.3689075 -0.12451363 -0.27367008 65
11.399459 1.4421079 -0.56096506 1
6.3454747 0.33810496 -0.34803936 89
6.3790622 -0.12471216 -0.38688162 50
11.478922 1.4521606 -0.76992565 1
6.3463306 0.33815056 -0.46057338 89
6.371253 -0.12455949 -0.49928617 55
11.835419 1.4972597 -1.0049143 5
6.3452239 0.33809158 -0.57291275 38
6.3535442 -0.12421328 -0.61032659 61
12.17535 1.5402634 -1.2511287 2
6.3381968 0.33771718 -0.6845938 85
6.329236 0.33723971 -0.79598272 77
6.4133115 0.34171951 -0.92022055 16
6.4751487 0.34501436 -1.0450071 2
6.4719806 0.34484553 -1.1591395 15
6.4941936 0.3460291 -1.2791003 15
6.5027876 0.34648705 -1.3961732 14
6.7506676 0.35969478 -1.5693027 8
6.3360548 0.33760303 -1.5849378 13
4.7931142 0.25539076 -1.6512436 6
1.6943152 0.090277933 -0.79090452 4
5.9882531 0.2771619 1.5824035 20
8.6858435 0.40201786 1.6802447 26
7.4118071 0.34305003 1.0380232 19
13.757463 0.63675404 1.1957072 33
13.747085 0.63627368 0.70797938 25
6.4014983 0.29628861 0.21628197 13
6.4032698 -0.16991219 0.17813928 43
13.76288 1.6435595 0.30389306 46
6.4043207 0.29641926 0.10272945 8
6.4014187 -0.16986308 0.064826004 54
13.770036 1.6444141 0.058574054 43
6.3851552 0.2955322 -0.010598333 46
6.3975663 -0.16976085 -0.048254408 25
13.776858 1.6452289 -0.18647444 31
6.3520107 0.29399812 -0.1229836 13
6.3677297 -0.16896912 -0.16079603 15
13.783341 1.646003 -0.43211398 39
6.3608165 0.2944057 -0.23604985 50
6.3758726 -0.16918519 -0.27401346 51
12.218529 1.4591335 -0.60075533 4
6.3516703 0.29398236 -0.34825811 30
6.3660622 -0.16892488 -0.38615534 72
12.507276 1.4936156 -0.83818054 4
6.3525219 0.29402179 -0.46086249 91
6.3622556 -0.16882387 -0.49866128 10
12.625262 1.5077056 -1.071058 9
6.3434496 0.29360187 -0.57255352 42
6.3485422 -0.16845998 -0.60994416 48
12.640206 1.5094901 -1.2977823 63
6.3403997 0.29346073 -0.6845938 78
6.3314357 0.29304582 -0.79598272 79
6.3918085 0.29584014 -0.91681653 14
6.4142823 0.29688033 -1.0348244 14
6.4466968 0.29838061 -1.15421 20
6.4925299 0.30050197 -1.2783284 13
6.544117 0.30288965 -1.4045588 13
6.4883423 0.30030814 -1.5077969 30
6.361517 0.29443812 -1.590754 10
4.8023372 0.22227263 -1.653846 6
1.6912824 0.078279756 -0.78921455 7
5.9822311 0.23713365 1.5803617 21
8.6726227 0.34377989 1.677209 25
7.3980861 0.29325768 1.0358064 20
13.753421 0.54518104 1.1950153 35
13.74701 0.54492694 0.70777386 27
6.4153061 0.25430059 0.21668674 16
6.3900127 -0.21197824 0.17780569 21
13.761556 1.5509022 0.30363002 37
6.406146 0.25393751 0.10272945 27
6.3921561 -0.21204934 0.064745016 17
13.77269 1.5521569 0.058540266 43
6.3789816 0.2528607 -0.010585068 8
6.392302 -0.21205418 -0.048224252 72
13.783493 1.5533744 -0.18642069 34
6.365809 0.25233856 -0.12321564 60
6.3744617 -0.21146236 -0.16099791 21
13.77409 1.5523148 -0.4314917 41
6.3666234 0.25237083 -0.23619802 42
6.362628 -0.21106979 -0.27349839 27
13.78025 1.5530089 -0.67702007 40
6.3454986 0.25153345 -0.34782061 53
6.3807635 -0.21167141 -0.38712373 52
13.797947 1.5550034 -0.9239639 41
6.3463588 0.25156757 -0.46028423 107
6.3530245 -0.21075121 -0.49803641 4
13.815307 1.5569597 -1.171113 39
6.3333154 0.2510505 -0.57147598 21
6.3552442 -0.21082485 -0.61070901 49
12.661802 1.426962 -1.2989994 97
6.3461804 0.25156048 -0.68502277 66
6.3411717 0.25136194 -0.79697961 39
6.4054995 0.25391188 -0.91851854 13
6.4318938 0.25495815 -1.0373701 16
6.4918127 0.25733331 -1.1619564 18
6.5532064 0.25976691 -1.2899075 8
7.2885118 0.28891417 -1.5638818 5
6.3555746 0.25193286 -1.5888153 7
4.788588 0.18981804 -1.6486411 6
1.6990098 0.067348182 -0.79259449 7
5.9721441 0.19498612 1.577299 20
7.4619079 0.2436258 1.4427034 3
7.3999534 0.24160305 1.0358064 16
13.736978 0.44850221 1.1932853 32
13.754473 0.44907343 0.70797938 29
6.4049387 0.20911653 0.21628197 58
6.3843822 -0.25642332 0.17769448 4
13.764093 1.453952 0.30345467 35
6.3997679 0.20894773 0.10260127 31
6.3945165 -0.25683036 0.06478551 16
13.775234 1.4551288 0.058506474 46
6.3845892 0.20845215 -0.0105917 14
6.3946624 -0.25683621 -0.048254408 47
13.774113 1.4550104 -0.18615192 32
6.3634186 0.20776094 -0.12313829 60
6.3768258 -0.25611982 -0.16109885 18
13.792543 1.4569572 -0.43174061 39
6.3642349 0.2077876 -0.23604985 32
6.3969374 -0.25692758 -0.27504358 3
13.790755 1.4567684 -0.67702007 41
6.3431082 0.20709781 -0.34760186 14
6.3751411 -0.25605217 -0.38688162 72
13.800528 1.4578007 -0.92343277 42
6.3599229 0.20764682 -0.4611516 49
6.3513985 -0.25509855 -0.49803641 65
13.817911 1.4596369 -1.1704415 35
6.3309321 0.2067003 -0.57111675 24
6.3575959 -0.25534749 -0.61109138 49
12.675413 1.3389508 -1.2994051 212
6.3477821 0.20725042 -0.68502277 51
6.3189716 0.20630978 -0.79398906 12
6.4466906 0.21047971 -0.92419195 9
6.5085092 0.21249804 -1.0494621 7
8.4532928 0.27599379 -1.512656 4
7.8375888 0.2558915 -1.542331 5
7.2825327 0.23776935 -1.5622047 5
6.7800093 0.22136232 -1.5747297 8
6.3726935 0.20806377 -1.5926929 7
4.7935767 0.15650676 -1.6499424 6
1.6849444 0.055012196 -0.78583461 7
5.9618144 0.15090936 1.5742363 19
5.2805882 0.13366571 1.0207448 1
7.3975654 0.18725203 1.0352522 18
13.735912 0.34769243 1.1929394 34
13.753402 0.34813514 0.70777386 28
6.3903136 0.16175582 0.21574228 40
13.759155 -0.65367949 0.38307729 37
13.774382 1.3530173 0.30345467 34
6.389133 0.16172594 0.10240902 33
6.3884668 -0.30350772 0.064745016 3
13.773588 1.3529394 0.058455791 41
6.3899446 0.16174647 -0.010598333 14
6.3926077 -0.30370444 -0.048254408 60
13.784409 1.3540022 -0.18615192 32
6.3687687 0.16121046 -0.12321564 72
6.3987417 -0.30399588 -0.1617045 51
13.794894 1.3550322 -0.4314917 35
6.3735795 0.16133223 -0.23634622 42
6.3629475 -0.30229533 -0.27367008 17
13.789135 1.3544666 -0.67643487 39
6.3444557 0.16059503 -0.34760186 96
6.3651166 -0.30239838 -0.38639742 30
13.802898 1.3558184 -0.92290157 44
6.3453217 0.16061695 -0.45999512 34
6.3772407 -0.30297437 -0.50022352 51
13.812372 1.3567491 -1.1690985 33
6.3282948 0.16018596 -0.57075757 80
6.3555532 -0.30194405 -0.61109138 50
12.673007 1.2448325 -1.298188 205
6.3372035 0.16041146 -0.68373591 73
6.3242822 0.16008438 -0.79448748 12
6.5074348 0.16472046 -0.932702 15
6.5572653 0.16598181 -1.0570992 10
6.5774927 0.16649382 -1.1767449 8
6.6033354 0.16714796 -1.2991707 13
6.6037636 0.16715881 -1.4162983 14
6.7035465 0.16968457 -1.5566397 13
6.3818064 0.16154048 -1.5946316 8
4.7945952 0.12136395 -1.6499424 7
1.6997997 0.043026447 -0.79259449 7
5.9665899 0.10935597 1.5752572 20
8.5837355 0.15732317 1.658995 16
7.4066143 0.1357488 1.0363606 16
13.741989 0.2518639 1.1932853 33
13.755497 0.25211146 0.70777386 28
6.4072752 0.11743288 0.21628197 60
13.766234 -0.75037181 0.38341087 41
13.775527 1.2560948 0.30327931 30
6.3901067 0.1171182 0.10240902 33
6.3981738 -0.34875253 0.064866491 25
13.766764 1.2552958 0.058388211 40
6.386919 0.11705978 -0.0105917 49
6.3983197 -0.34876052 -0.048314728 20
13.777593 1.2562832 -0.1859369 33
6.3617415 0.11659834 -0.12306094 52
6.3765001 -0.34757116 -0.16119979 8
6.3346386 0.5776118 -0.19801076 24
6.3625603 0.11661334 -0.23590167 37
6.3646727 -0.34692645 -0.27384177 73
13.782339 1.256716 -0.67565471 36
6.3494158 0.11637242 -0.34782061 77
6.3708239 -0.34726176 -0.38688162 4
13.808053 1.2590606 -0.92263597 45
6.3462882 0.1163151 -0.45999512 29
6.3749704 -0.34748778 -0.50022352 56
13.825477 1.2606493 -1.1694342 37
6.337225 0.11614899 -0.57147598 62
6.369194 -0.34717292 -0.61262107 63
13.204495 1.2040265 -1.3517383 4
6.3461218 0.11631205 -0.6845938 76
6.3490543 0.1163658 -0.79747802 11
6.4807143 0.11877887 -0.92873061 14
6.534574 0.11976601 -1.0532806 15
6.562747 0.12028237 -1.173928 19
6.5807967 0.12061319 -1.2945391 15
6.6125903 0.1211959 -1.4179754 14
6.5565295 0.12016842 -1.5222688 27
6.3905387 0.11712613 -1.5965704 8
4.7953258 0.087888986 -1.6499424 6
1.6964337 0.031092325 -0.79090452 4
5.6423559 0.064013176 1.4895011 15
6.7074742 0.076097064 1.2962321 15
7.4073811 0.084037587 1.0363606 16
13.759351 0.15610142 1.1946694 36
13.752927 0.15602852 0.70756841 30
6.407939 0.072698802 0.21628197 45
13.756669 -0.84621447 0.38329968 40
13.779975 1.1595591 0.30319163 35
6.3867693 0.072458632 0.10234493 9
6.3995752 -0.3936573 0.064906985 53
13.783164 1.1598276 0.058422003 44
6.3955798 0.072558582 -0.010604965 51
6.3837523 -0.39268395 -0.048224252 5
6.3450007 0.53391993 -0.085577205 18
6.3464046 0.07200069 -0.12275155 12
6.3779097 -0.39232457 -0.16130073 24
6.3146133 0.53136289 -0.19726402 38
6.3752103 0.072327495 -0.23634622 13
6.3940058 -0.39331469 -0.27521527 62
13.79874 1.1611382 -0.67604482 40
6.3540668 0.072087616 -0.34803936 87
6.3682442 -0.39173001 -0.38688162 66
13.81253 1.1622986 -0.92237043 43
6.3668914 0.072233118 -0.46144074 49
6.3763695 -0.39222983 -0.50053596 70
6.3033204 0.53041261 -0.53284299 3
6.3418651 0.071949184 -0.57183516 89
6.3626404 -0.39138532 -0.61223865 10
6.3168182 0.5315485 -0.64625424 14
6.3467789 0.072004937 -0.6845938 66
6.3417749 0.071948163 -0.79648113 73
6.4853439 0.073576972 -0.92929798 15
6.5234041 0.07400877 -1.0513713 15
6.5201168 0.073971473 -1.1661817 17
6.585403 0.07471215 -1.295311 14
7.2781224 0.082571134 -1.5605277 4
6.5182471 0.073950261 -1.5132238 18
6.3756785 0.072332807 -1.5926929 7
4.807169 0.054537885 -1.653846 7
1.6857337 0.019124841 -0.78583461 3
4.5172267 0.019710474 1.1924176 21
6.3426023 0.027675321 1.2256527 19
7.41571 0.032357719 1.037469 17
13.748151 0.0599887 1.1936314 36
13.757675 0.060030263 0.70777386 30
6.4202833 0.028014272 0.21668674 25
13.766382 -0.94332528 0.38374448 44
13.775774 1.0624061 0.3029286 39
6.3951182 0.02790447 0.1024731 9
6.3966708 -0.43832439 0.064906985 62
13.782949 1.0629594 0.058388211 40
6.3919301 0.027890557 -0.010598333 54
6.3808551 -0.43724063 -0.048224252 21
6.3525615 0.48991802 -0.085630953 29
6.3667488 0.02778068 -0.12313829 29
6.3869829 -0.43766052 -0.16160356 13
6.3301277 0.48818791 -0.19763739 34
6.3675656 0.027784245 -0.23604985 41
6.3990774 -0.43848932 -0.27555865 70
13.794559 1.0638549 -0.67545962 47
6.3544154 0.027726866 -0.34803936 57
6.3852706 -0.43754321 -0.38809216 44
6.3311572 0.4882673 -0.42254284 78
6.3552723 0.027730605 -0.46057338 68
6.3655186 -0.43618974 -0.49991107 5
6.3267398 0.48792663 -0.53452176 72
6.3501801 0.027708385 -0.57255352 57
6.3597527 -0.43579465 -0.61223865 3
6.3164082 0.48712984 -0.64584851 38
6.347127 0.027695064 -0.6845938 13
6.3460913 0.027690545 -0.79697961 77
6.5173764 0.028437929 -0.93383664 3
6.5119152 0.0284141 -1.0494621 13
8.4695282 0.036955953 -1.5147686 4
7.8573895 0.034284946 -1.5454187 5
7.274611 0.031742048 -1.559689 5
6.7484899 0.029446371 -1.5665891 8
6.3760281 0.027821172 -1.5926929 8
4.8036504 0.020960255 -1.6525447 6
1.6967024 0.0074033937 -0.79090452 3
4.3934975 -0.0099686608 1.1597487 20
6.2051902 -0.014079315 1.1990906 17
7.4038773 -0.016799087 1.0358064 13
13.748246 -0.031194191 1.1936314 34
13.741793 -0.031179549 0.70695186 32
6.4083352 -0.014540242 0.21628197 6
13.759824 -1.0346071 0.38374448 40
13.778526 0.97073853 0.30284092 37
6.4111609 -0.014546654 0.10272945 7
6.4055886 -0.48163897 0.065028459 60
6.3561873 0.44781247 0.026913317 22
6.3919749 -0.014503121 -0.010598333 39
6.397758 -0.48105016 -0.048375044 45
6.3835988 0.44974366 -0.086007237 34
6.3707924 -0.01445506 -0.12321564 23
6.3998895 -0.48121044 -0.1620073 47
6.3571548 0.44788063 -0.19838412 66
6.36761 -0.014447839 -0.23604985 76
6.3761034 -0.47942194 -0.27470022 16
6.3407125 0.44672221 -0.31032524 68
6.3584538 -0.014427064 -0.34825811 21
6.3981538 -0.48107994 -0.38906056 56
6.3342557 0.44626731 -0.42254284 59
6.3593063 -0.014428998 -0.46086249 90
6.3744154 -0.47929502 -0.50084841 37
6.3377886 0.44651622 -0.53519326 72
6.342257 -0.014390314 -0.57183516 28
6.3567228 -0.4779647 -0.61223865 14
6.3234687 0.44550735 -0.64625424 57
6.343194 -0.01439244 -0.68416488 38
6.354073 -0.014417124 -0.79797643 56
6.3352823 -0.014374489 -0.90773916 0
9.248642 -0.02098478 -1.4905034 3
8.4695873 -0.019217137 -1.5147686 4
7.8495946 -0.017810399 -1.5438749 5
7.2746615 -0.016505901 -1.559689 5
6.7913966 -0.015409393 -1.5765387 8
6.3721919 -0.014458235 -1.5917234 7
4.7923365 -0.01087361 -1.6486411 6
1.7112161 -0.0038826773 -0.7976644 3
4.3314428 -0.040067889 1.1434141 22
6.1695957 -0.057071671 1.1922604 17
7.4115019 -0.068559885 1.0369148 11
13.743709 -0.12713578 1.1932853 35
13.753223 -0.1272238 0.70756841 31
13.78756 -0.12754142 0.4653503 35
13.768206 -1.1319523 0.38418928 36
13.776986 0.87401628 0.30266556 22
6.402904 -0.059229881 0.10260127 39
6.3861251 -0.5250349 0.064866491 10
6.4070621 0.40646601 0.027116053 39
6.3997173 -0.059200402 -0.010611597 4
6.4022164 -0.52635789 -0.048435364 43
6.3785996 0.40466034 -0.085899726 8
6.3705359 -0.05893046 -0.12321564 72
6.4083304 -0.52686054 -0.16231012 72
6.3561373 0.40323532 -0.19825967 55
6.3673539 -0.058901023 -0.23604985 61
6.3765841 -0.52425051 -0.27487189 8
6.3396893 0.40219185 -0.31013018 78
6.3542042 -0.058779381 -0.34803936 18
6.39464 -0.52573496 -0.38906056 70
6.3292508 0.40152964 -0.42201167 36
6.3590503 -0.058824215 -0.46086249 77
6.3748884 -0.52411115 -0.50116086 41
6.3367734 0.40200686 -0.53485751 65
6.3499689 -0.058740206 -0.57255352 70
6.3611679 -0.52298307 -0.61300343 28
6.3383393 0.4021062 -0.64747125 83
6.3429389 -0.058675174 -0.68416488 21
6.3300056 -0.058555536 -0.79498589 23
6.3271084 -0.058528736 -0.90660447 4
9.2443209 -0.085514329 -1.4898671 2
8.4889336 -0.078526638 -1.5182897 5
7.8492785 -0.072609529 -1.5438749 5
7.2821903 -0.067363694 -1.5613662 5
6.7989163 -0.062893182 -1.5783477 6
6.3835773 -0.0590511 -1.5946316 7
4.7997079 -0.044399563 -1.6512436 6
1.6893953 -0.015627703 -0.78752458 7
4.2885203 -0.06961558 1.1321841 20
6.1611934 -0.10001469 1.1907425 17
7.4068823 -0.12023596 1.0363606 10
13.758424 -0.22334059 1.1946694 35
13.752 -0.22323631 0.70756841 28
13.778339 -0.22366387 0.46508044 34
13.759968 -1.228045 0.38418928 43
6.384305 0.36029151 0.14019763 3
6.4023347 -0.10392914 0.10260127 35
6.3942561 -0.57067239 0.064987965 8
6.4017568 0.36127636 0.027082264 54
6.3791509 -0.1035528 -0.010578436 16
6.4183059 -0.57281882 -0.04858616 37
6.3652964 0.35921878 -0.085684709 7
6.3699694 -0.10340375 -0.12321564 46
6.3925471 -0.57051986 -0.1620073 45
6.3548055 0.35862672 -0.19813521 39
6.3707843 -0.10341698 -0.23619802 71
6.3687882 -0.56839949 -0.27470022 20
6.3423429 0.35792342 -0.31013018 82
6.3576322 -0.10320349 -0.34825811 30
6.3908134 -0.57036519 -0.38906056 57
6.3279152 0.35710922 -0.4217461 21
6.3624735 -0.10328207 -0.4611516 60
6.3710742 -0.56860346 -0.50116086 8
6.327487 0.35708505 -0.53385025 43
6.3533878 -0.10313458 -0.57291275 80
6.3732252 -0.56879544 -0.61453307 55
6.3250999 0.35695034 -0.64584851 29
6.3582802 -0.103214 -0.68588066 92
6.3334107 -0.1028103 -0.7954843 17
6.3305049 -0.10276312 -0.90717185 22
9.247448 -0.15011388 -1.4905034 3
8.4803057 -0.13766085 -1.5168812 5
7.8525047 -0.12746976 -1.5446467 4
7.2815428 -0.11820133 -1.5613662 5
6.794416 -0.1102938 -1.5774431 9
6.3868895 -0.10367842 -1.595601 7
4.7992811 -0.077906765 -1.6512436 6
1.7109951 -0.027774595 -0.7976644 7
4.2685628 -0.10059449 1.1270797 20
6.1563683 -0.14508319 1.1899836 13
7.4018412 -0.17443445 1.0358064 9
13.748449 -0.3240009 1.1939774 33
13.753988 -0.32413143 0.70777386 32
13.776329 -0.32465792 0.46508044 34
13.762536 -1.3300296 0.38452286 42
6.398757 0.31407076 0.14046067 1
6.401401 -0.15085772 0.10260127 35
6.3938823 -0.61791325 0.065028459 12
6.3962426 0.31394735 0.027048474 59
6.3902168 -0.15059415 -0.010598333 15
6.3900466 -0.61754256 -0.048405204 5
6.3637638 0.31235319 -0.085630953 8
6.3770366 -0.15028353 -0.12337033 22
6.3881936 -0.61736345 -0.1620073 16
6.3652501 0.31242615 -0.19838412 71
6.3698549 -0.1501143 -0.23619802 84
6.3883171 -0.61737543 -0.27573034 44
6.3487864 0.31161806 -0.31032524 86
6.3567052 -0.1498044 -0.34825811 101
6.3705645 -0.61565977 -0.38809216 2
6.3383355 0.31110507 -0.42227727 109
6.3575573 -0.14982449 -0.46086249 20
6.3984895 -0.61835849 -0.50366038 2
6.3259535 0.31049734 -0.5335145 28
6.3365297 -0.14932895 -0.57147598 18
6.3728485 -0.61588049 -0.61491549 52
6.331521 0.3107706 -0.64625424 18
6.3653049 -0.15000705 -0.68673849 72
6.3483577 -0.14960769 -0.79747802 6
6.3533325 -0.14972492 -0.91057587 31
9.2421503 -0.21780384 -1.4898671 2
8.4633226 -0.1994497 -1.5140644 4
7.8513594 -0.18502796 -1.5446467 5
7.315671 -0.17240374 -1.5689131 5
6.8012152 -0.16027988 -1.5792521 9
6.3820786 -0.15040235 -1.5946316 7
4.7872367 -0.11281775 -1.6473399 7
1.7179945 -0.040486872 -0.80104434 6
4.2638907 -0.13027361 1.1260588 20
6.1355782 -0.1874588 1.1861891 10
7.3964834 -0.22598293 1.0352522 7
13.765769 -0.42058212 1.1957072 34
13.747397 -0.42002082 0.70756841 30
13.777723 -0.42094737 0.46521536 36
13.760869 -1.4269025 0.38474527 42
6.376821 0.26838318 0.1399346 8
6.4081869 -0.19578776 0.10272945 26
6.4132833 -0.66501105 0.0652714 47
6.3862896 0.26878169 0.02699779 78
6.38901 -0.19520184 -0.010598333 56
6.3895583 -0.66255093 -0.048435364 52
6.3897657 0.26892799 -0.085953481 48
6.3758321 -0.19479921 -0.12337033 68
6.3797503 -0.66153395 -0.16190636 3
6.3712711 0.26814958 -0.19850859 68
6.3806376 -0.19494605 -0.23664257 17
6.3997517 -0.66360795 -0.27641708 56
6.3468156 0.26712033 -0.31013018 36
6.3634887 -0.1944221 -0.34869564 61
6.3780251 -0.66135508 -0.38881847 7
6.3443408 0.26701617 -0.42254284 114
6.3563566 -0.1942042 -0.46086249 5
6.3741837 -0.66095674 -0.5020982 10
6.3279672 0.26632705 -0.5335145 20
6.3472791 -0.19392684 -0.57255352 6
6.3723536 -0.66076696 -0.61529791 56
6.3414884 0.26689613 -0.64706558 28
6.3680773 -0.1945623 -0.68716747 62
6.3471589 -0.19392318 -0.79747802 6
6.3363013 -0.19359146 -0.90830648 59
9.2443523 -0.28244042 -1.4905034 3
8.4814024 -0.25913021 -1.5175855 5
7.8498764 -0.23983534 -1.5446467 5
7.2751966 -0.22227728 -1.5605277 5
6.7999306 -0.20775659 -1.5792521 10
6.396389 -0.19542728 -1.5985091 7
4.8014555 -0.14669769 -1.6525447 6
1.6850559 -0.051483095 -0.78583461 7
4.2551475 -0.15974781 1.124017 20
6.1144967 -0.22955196 1.1823944 12
7.398684 -0.27776325 1.0358064 5
13.758513 -0.51652557 1.1953613 38
13.760097 -0.51658499 0.70839041 31
13.778443 -0.51727372 0.4653503 33
13.770444 -1.525136 0.38530126 39
6.3785391 0.22385804 0.1399346 45
6.3866801 -0.23977034 0.10240902 9
6.4124599 -0.71020758 0.065311894 51
6.3760171 0.22376955 0.026947105 15
6.3954854 -0.24010091 -0.010611597 55
6.4126062 -0.71022379 -0.048646476 49
6.3874903 0.22417219 -0.085899726 64
6.3703198 -0.23915614 -0.12329299 74
6.3908744 -0.70781684 -0.16231012 18
6.3769827 0.22380343 -0.19863304 69
6.359149 -0.23873675 -0.23590167 8
6.3989348 -0.70870966 -0.27658877 60
6.3445325 0.22266456 -0.30993515 41
6.3659673 -0.23899272 -0.34891438 69
6.3930945 -0.70806277 -0.39002898 8
6.3460498 0.22271782 -0.42254284 108
6.3468719 -0.23827584 -0.46028423 34
6.3773413 -0.70631802 -0.5027231 31
6.3296719 0.22214302 -0.5335145 31
6.3497515 -0.23838395 -0.57291275 15
6.3636279 -0.70479923 -0.61491549 7
6.3352427 0.22233854 -0.64625424 64
6.3427191 -0.23811994 -0.6845938 36
6.3694463 -0.23912333 -0.80046856 67
6.3427086 -0.23811954 -0.90944117 56
9.2579403 -0.34756389 -1.4930491 3
8.5108643 -0.31951699 -1.5232192 5
7.859777 -0.29507369 -1.5469626 5
7.2851925 -0.2735025 -1.5630432 5
6.7983141 -0.25522399 -1.5792521 12
6.383234 -0.23964097 -1.595601 6
4.7965345 -0.18007268 -1.6512436 6
1.7136387 -0.064333849 -0.79935437 4
4.2539287 -0.18944994 1.124017 19
6.081358 -0.27083501 1.1763231 7
7.4044795 -0.32976061 1.0369148 4
13.758554 -0.61274117 1.1957072 37
13.748175 -0.61227888 0.70797938 30
13.770503 -0.61327326 0.46521536 34
13.775344 -1.6231061 0.38574603 38
6.4079289 0.18010925 0.14054835 51
6.4008331 -0.28506294 0.10266536 4
6.4192624 -0.75636184 0.065433368 51
6.3734264 0.17913947 0.026930211 14
6.4096379 -0.28545508 -0.010638125 41
6.4114637 -0.75544298 -0.048676636 50
6.3888998 0.17957439 -0.085899726 47
6.3645 -0.28344482 -0.12321564 61
6.4016619 -0.75428802 -0.16271389 25
6.3703971 0.17905433 -0.19838412 61
6.3892741 -0.28454813 -0.2370871 24
6.3978 -0.753833 -0.27676046 69
6.333952 0.17802997 -0.30934998 8
6.3641438 -0.28342897 -0.34891438 65
6.3998914 -0.7540794 -0.3907553 54
6.3394713 0.17818509 -0.42201167 43
6.3609967 -0.28328881 -0.46144074 39
6.3880963 -0.75268966 -0.50397283 52
6.331069 0.17794892 -0.5335145 40
6.3519125 -0.28288424 -0.57327193 104
6.3585525 -0.74920857 -0.61491549 7
6.3326631 0.17799373 -0.64584851 67
6.3567944 -0.28310165 -0.68630958 14
6.3676219 -0.28358385 -0.80046856 52
6.3488035 -0.28274578 -0.91057587 52
9.243453 -0.41165981 -1.4911399 2
8.4887581 -0.37804928 -1.5196981 4
7.8536048 -0.34976253 -1.5461906 5
7.2987342 -0.32505122 -1.5663974 5
6.7769046 -0.3018114 -1.5747297 4
