# .PCD v0.7 - Point Cloud Data file format
VERSION 0.7
FIELDS x y z intensity
SIZE 4 4 4 4
TYPE F F F F
COUNT 1 1 1 1
WIDTH 1369
HEIGHT 1
VIEWPOINT 0 0 0 1 0 0 0
POINTS 1369
DATA ascii
13.783443 -1.9739488 0.46993768 32
13.76997 -3.0073738 0.39197314 59
13.767234 -0.96028435 0.30257788 38
5.2457981 -0.75125909 0.084913611 3
13.790217 -3.011796 0.14289254 40
13.786381 -0.96161991 0.058371317 44
5.2385449 -0.75022036 -0.008774464 29
10.609606 -2.3171475 -0.081881702 0
13.797229 -0.96237659 -0.18588313 36
5.0277534 -0.72003251 -0.09823218 42
10.215864 -2.231154 -0.26395583 0
4.9455829 -0.34496152 -0.15432642 49
5.0212851 -0.7191062 -0.18803971 56
9.9285927 -2.1684136 -0.43660164 0
4.9181786 -0.34305006 -0.24069223 1
5.005353 -0.71682453 -0.27694395 0
9.221302 -2.0139406 -0.57233304 12
4.9091892 -0.34242302 -0.32746407 90
5.0115905 -0.71771783 -0.36689743 0
8.7853556 -1.9187295 -0.70456219 19
4.9424453 -0.34474266 -0.41734332 49
5.0123215 -0.71782249 -0.45653424 75
8.6279869 -1.8843601 -0.84818566 1
4.9304037 -0.34390277 -0.50385922 1
5.0154433 -0.71826959 -0.54647398 63
5.0130739 -0.71793026 -0.63598871 0
5.0209708 -0.7190612 -0.72675866 77
5.0154548 -0.7182712 -0.81653118 39
5.036974 -0.72135305 -1.0909438 44
5.0334392 -0.72084683 -1.1803689 76
6.3539495 -0.9099592 -1.603356 7
4.7626681 -0.6820693 -1.6551472 6
1.7154707 -0.24567528 -0.80780417 6
6.590034 -0.98841512 1.7590202 19
5.266572 -0.78991383 1.0290929 16
8.994812 -1.349099 1.2724513 22
13.769604 -2.0652525 1.2088546 36
13.763643 -2.0643585 0.71599424 33
13.789816 -2.068284 0.47061229 34
13.769224 -3.103029 0.39252913 59
13.776512 -1.0527887 0.3029286 38
5.2446561 -0.78662676 0.084977694 10
13.801156 -3.1102252 0.14321648 43
13.779699 -1.0530323 0.058371317 41
5.2057643 -0.78079355 -0.0087280385 21
10.617416 -2.3927383 -0.082062654 0
13.79453 -1.0541656 -0.1859369 34
5.0030923 -0.75039554 -0.097845435 62
10.212544 -2.3014965 -0.26425865 0
4.9471722 -0.37805846 -0.15445088 43
5.0322175 -0.7547639 -0.18863243 58
9.9217901 -2.2359722 -0.43694502 0
4.9476643 -0.37809607 -0.24225263 52
5.0202384 -0.75296718 -0.27803773 0
9.1882677 -2.0706658 -0.57112253 12
4.9267082 -0.37649465 -0.32879198 2
5.0225024 -0.75330675 -0.36805391 0
8.7685461 -1.9760776 -0.70424974 16
4.9400496 -0.37751418 -0.41734332 1
5.0113897 -0.75164008 -0.45689341 59
8.6036463 -1.9389156 -0.84703845 4
4.9518213 -0.37841377 -0.50629336 44
5.0263014 -0.75387657 -0.54818976 62
5.0160522 -0.75233936 -0.63698554 0
5.0278387 -0.75410712 -0.72846067 74
5.0457292 -0.75679046 -0.82225895 54
5.0310044 -0.75458199 -0.90984708 0
5.0380473 -0.7556383 -1.0019748 0
5.0630217 -0.75938416 -1.0976522 61
6.7586761 -1.0137092 -1.5864881 4
6.3516126 -0.9526552 -1.6043254 7
4.7655215 -0.71476316 -1.6577497 6
1.6851207 -0.25274509 -0.79428446 5
6.5867934 -1.0349977 1.7600411 20
5.2609291 -0.82666159 1.0290929 17
8.9890881 -1.4124756 1.2730055 21
13.778471 -2.1650419 1.2109303 36
13.772574 -2.1641154 0.71722734 32
13.786889 -2.1663647 0.47101706 34
13.758908 -3.201798 0.39286271 88
13.768826 -1.1489413 0.3029286 36
5.2390366 -0.82322156 0.084977694 13
13.80248 -3.2119372 0.14345941 43
13.783971 -1.1502049 0.058422003 44
5.2317986 -0.82208425 -0.008781096 22
10.631619 -2.4740551 -0.082303926 0
13.794806 -1.1511091 -0.18604441 33
5.0056334 -0.78654641 -0.098000132 92
10.227386 -2.379987 -0.26506615 0
4.9603491 -0.41391686 -0.15494871 45
5.0386724 -0.79173785 -0.18907697 53
9.9253998 -2.3097126 -0.43780348 0
4.9369416 -0.41196361 -0.24186254 49
5.0385327 -0.79171598 -0.27935025 14
9.1735878 -2.1347604 -0.57112253 13
4.9199824 -0.41054848 -0.32852641 0
5.0328856 -0.79082859 -0.36921042 20
8.7623053 -2.039052 -0.70487463 15
4.9055176 -0.40934142 -0.41465726 0
5.0217628 -0.78908086 -0.45833018 61
8.5899 -1.9989321 -0.84703845 4
4.949059 -0.41297477 -0.50629336 61
5.0366306 -0.79141706 -0.54990554 56
5.0381231 -0.79165155 -0.6404745 0
5.0420094 -0.7922622 -0.73129737 62
5.0520263 -0.79383624 -0.82416826 49
5.045063 -0.79274207 -0.91336817 0
5.0675445 -0.7962746 -1.0089222 2
5.0614605 -0.79531866 -1.0984907 55
6.782228 -1.0657066 -1.5937241 5
6.3486414 -0.99757624 -1.6052948 8
4.7604156 -0.74801475 -1.6577497 6
1.6940598 -0.26619142 -0.79935437 3
6.5641422 -1.078449 1.7559575 11
5.2705312 -0.86591649 1.0321286 18
8.9829178 -1.4758391 1.2735597 21
13.774817 -2.2631192 1.2119683 37
13.772898 -2.262804 0.71804935 29
13.787209 -2.2651553 0.47155675 34
13.759548 -3.3033757 0.39352992 69
13.772418 -1.2461171 0.30319163 37
5.2292151 -0.85912848 0.084913611 1
13.806945 -3.3147547 0.14374284 43
13.783572 -1.2471263 0.058455791 46
5.2654028 -0.86507392 -0.0088474192 10
10.633534 -2.5528862 -0.082454719 0
13.7944 -1.2481061 -0.18615192 35
5.019752 -0.82471496 -0.098386876 33
10.210521 -2.4513295 -0.26506615 0
4.9692841 -0.44961676 -0.15532207 47
9.9362345 -2.3854792 -0.43900529 0
4.957819 -0.44857943 -0.24303284 52
5.0328832 -0.82687229 -0.27935025 53
9.1468134 -2.195956 -0.57039618 11
4.9328961 -0.44632441 -0.32958874 1
5.0547991 -0.83047301 -0.37123427 56
8.7633667 -2.1038985 -0.70612437 16
4.9541459 -0.44824708 -0.41902208 1
5.0161319 -0.82412016 -0.45833018 5
8.575736 -2.0588522 -0.84703845 13
4.9658709 -0.44930795 -0.50832176 68
5.0545287 -0.8304286 -0.55247921 26
5.0481386 -0.82937872 -0.64246821 30
5.0580521 -0.83100742 -0.82607752 52
5.0549474 -0.83049738 -0.91618502 0
5.0541162 -0.83036077 -1.0073783 25
5.0712228 -0.83317131 -1.1018449 37
5.2520628 -0.86288226 -1.2355431 36
5.2731133 -0.86634076 -1.3348376 37
4.7588096 -0.78184372 -1.6590508 6
1.6778502 -0.27566066 -0.79259449 3
6.5865541 -1.1317772 1.7641248 20
5.2795243 -0.90718842 1.0351644 19
8.971858 -1.5416474 1.2735597 19
13.757857 -2.3640327 1.2119683 34
13.775626 -2.3670859 0.71907693 32
13.785993 -2.3688672 0.47209644 35
13.766013 -3.4118445 0.39441949 76
13.766893 -1.3474299 0.30327931 38
5.2819023 -0.90759701 0.0858749 1
13.797805 -3.419724 0.14390482 41
13.782022 -1.3489106 0.05848958 44
11.014559 -1.8926477 -0.018530501 0
10.684419 -2.6480854 -0.082997583 0
13.792842 -1.3499695 -0.18625942 36
5.0253959 -0.8635211 -0.098618917 7
10.223328 -2.5338058 -0.26587367 0
4.9539175 -0.48486292 -0.15494871 7
5.0307646 -0.8644436 -0.18922515 0
9.953392 -2.4669034 -0.44055048 0
4.9583735 -0.48529905 -0.24322788 54
5.0345592 -0.86509562 -0.27978778 95
9.149848 -2.2677486 -0.5716067 13
4.9453802 -0.48402736 -0.33065107 1
5.0564394 -0.86885536 -0.37181252 53
8.7399673 -2.1661618 -0.70549947 18
4.9467602 -0.48416239 -0.41868633 4
5.0217347 -0.86289197 -0.45940778 0
8.715003 -2.1599746 -0.86233485 6
4.970365 -0.48647273 -0.5091331 69
5.0404663 -0.86611068 -0.55162132 42
5.0653925 -0.87039375 -0.64545876 52
5.0574713 -0.86903268 -0.73526871 0
5.0797691 -0.87286413 -0.92181873 43
5.0478935 -0.86738688 -1.0073783 10
5.2302356 -0.89871901 -1.2319252 55
5.2436728 -0.90102798 -1.3290212 39
4.7492228 -0.81606591 -1.6577497 6
1.6829306 -0.28918043 -0.79597443 3
6.5937204 -1.1804578 1.7682083 20
5.2614651 -0.94194734 1.0328876 18
8.9491787 -1.6021498 1.2718971 20
13.752787 -2.4621282 1.2130063 36
13.766629 -2.4646063 0.71948791 30
13.77699 -2.4664612 0.4723663 33
13.768977 -3.5147872 0.39519787 72
13.769083 -1.4447601 0.30354235 40
13.787003 -2.4682539 0.22442828 31
13.789098 -3.5199232 0.14406678 40
13.780224 -1.4459292 0.058523368 42
10.993203 -1.9680867 -0.018517237 0
10.743184 -2.7423973 -0.083600767 0
13.787059 -1.4466462 -0.18631318 34
5.0153084 -0.89787859 -0.098541573 3
10.24026 -2.6140165 -0.26678213 0
4.8867922 -0.51276052 -0.15295739 0
5.0482159 -0.90376991 -0.19011423 0
9.9669037 -2.5442374 -0.44192398 0
4.938971 -0.51823556 -0.24244769 1
5.0480542 -0.903741 -0.28088155 70
9.1531363 -2.336508 -0.57281727 11
4.9656968 -0.52103984 -0.33224458 56
5.065959 -0.90694642 -0.372969 55
8.7362242 -2.2300835 -0.70643681 17
4.9670439 -0.52118117 -0.42070085 40
5.0312743 -0.90073687 -0.46084455 0
8.6418428 -2.2059908 -0.85659873 5
4.9589319 -0.52033001 -0.50832176 0
5.0616999 -0.90618396 -0.5546239 86
5.0670056 -0.90713382 -0.64645559 48
5.0590768 -0.90571427 -0.73640341 0
5.0456414 -0.90330899 -0.82607752 0
5.0774274 -0.90899956 -0.92252296 62
4.9721742 -0.89015639 -0.99348348 0
5.0741792 -0.90841806 -1.1051991 0
5.193151 -0.9297173 -1.2246892 54
5.2678151 -0.94308424 -1.3367763 34
4.7545795 -0.85120094 -1.6616533 6
1.6844395 -0.30156115 -0.7976644 4
6.5625057 -1.2222131 1.7620829 21
5.2624826 -0.98009455 1.0344054 20
8.9338808 -1.6638626 1.2713429 22
13.770521 -2.5646474 1.2161201 35
13.768723 -2.5643127 0.72051549 44
13.786947 -2.5677066 0.47331077 32
13.767307 -3.6169231 0.39586508 85
13.774558 -1.5426297 0.30389306 35
13.793026 -2.5688386 0.22481279 27
13.791267 -3.6232176 0.14435022 41
13.78172 -1.5434319 0.058574054 40
10.983129 -2.0455182 -0.018523868 0
10.820493 -2.842741 -0.084354736 0
13.780599 -1.5433064 -0.18636693 34
5.0443029 -0.93946034 -0.099237703 5
10.658787 -2.8002579 -0.27818826 1
4.9824238 -0.55798781 -0.15606882 0
5.0653615 -0.94338232 -0.19100331 10
9.960495 -2.6168039 -0.44243902 0
4.9630256 -0.5558154 -0.24381304 0
5.061255 -0.94261748 -0.28197533 65
9.159771 -2.4064391 -0.57426983 9
4.9619384 -0.55569363 -0.33224458 83
5.0634265 -0.94302189 -0.37325814 48
8.7320127 -2.2940593 -0.70737416 17
4.987051 -0.55850601 -0.4227154 18
5.0483627 -0.94021642 -0.4629997 0
8.6839962 -2.2814443 -0.86233485 2
4.9749522 -0.55715108 -0.51035017 0
5.0826187 -0.94659626 -0.55762655 84
5.0761566 -0.94539279 -0.6484493 54
5.0604153 -0.94246113 -0.7375381 0
5.0741525 -0.94501954 -0.83180529 0
5.0670872 -0.94370365 -0.92181873 75
5.0931678 -0.94856101 -1.0189574 0
5.1023188 -0.95026529 -1.1127459 0
6.734067 -1.2541651 -1.5901061 11
6.3217168 -1.1773682 -1.6062642 7
4.744803 -0.88368094 -1.6603521 6
1.6929857 -0.31530479 -0.80273432 6
6.4285083 -1.2437543 1.728393 16
5.2709355 -1.0197932 1.037441 20
8.9298258 -1.7276961 1.2724513 21
13.775756 -2.6652615 1.2181959 36
13.774018 -2.6649251 0.72174853 48
13.796159 -2.669209 0.47425523 34
13.757161 -3.717119 0.39630985 78
13.767423 -1.6392295 0.30398074 51
13.798316 -2.6696262 0.2251973 23
13.738607 -3.7121058 0.14406678 41
13.770609 -1.6396089 0.058574054 43
10.948945 -2.1183448 -0.018490708 0
10.854442 -2.9328182 -0.084776968 5
13.785375 -1.641367 -0.18658195 35
10.376478 -2.8036747 -0.2713244 0
4.9982572 -0.59512156 -0.1566911 0
5.0586519 -0.97872162 -0.19100331 31
9.9689894 -2.6935732 -0.44364086 0
4.9748936 -0.59233975 -0.24459325 1
5.0584722 -0.97868681 -0.28219408 25
9.158165 -2.4744923 -0.57523829 11
4.9737906 -0.59220845 -0.33330691 69
5.1154728 -0.98971504 -0.37759498 21
8.735034 -2.3601642 -0.70893639 17
4.9790726 -0.59283733 -0.42237964 10
5.0612321 -0.97922075 -0.46479565 13
8.7178268 -2.355515 -0.86730617 3
4.9867468 -0.59375107 -0.5119729 1
5.0602679 -0.97903425 -0.55591077 6
8.7750673 -1.6977543 -1.1224504 23
5.0653753 -0.98002237 -0.73924011 0
5.0868173 -0.98417085 -0.83498746 2
5.0526438 -0.97755915 -0.92041034 78
5.1249552 -0.99154955 -1.0266768 19
5.11092 -0.98883414 -1.1161001 31
6.740449 -1.3041068 -1.5937241 12
6.3095331 -1.2207355 -1.6052948 6
4.7348046 -0.91606528 -1.6590508 7
1.7049811 -0.32987085 -0.80949414 5
6.4125333 -1.284843 1.7263511 18
5.2525034 -1.0524143 1.0351644 31
8.906518 -1.7845485 1.2707887 23
13.765591 -2.7581332 1.2188879 39
13.767791 -2.758574 0.72236502 48
13.793832 -2.7637918 0.47479492 33
13.716795 -3.8040028 0.39586508 67
13.77212 -1.7324977 0.30433145 56
13.78815 -2.7626534 0.22532548 23
13.74452 -3.811692 0.1443907 51
13.783244 -1.7338972 0.058675423 44
10.94642 -2.1932719 -0.018510604 0
13.756397 -3.8149858 -0.10763749 48
13.801964 -1.7362521 -0.18695824 23
10.336584 -2.0710828 -0.20388979 0
10.442428 -2.8959408 -0.27354506 0
5.0061007 -0.62975478 -0.15706447 30
5.2127428 -1.0444477 -0.19707866 19
9.9701614 -2.7649696 -0.44449928 0
4.9589634 -0.62382501 -0.24400809 0
5.0557861 -1.0129992 -0.28241283 25
9.1646385 -2.5415785 -0.57669091 12
4.9816337 -0.62667692 -0.33410364 60
5.0970607 -1.0212692 -0.37672761 21
8.746088 -2.4255042 -0.71112353 17
4.9948049 -0.62833375 -0.42405841 1
8.5063334 -2.3590145 -0.84780329 0
4.9826994 -0.62681097 -0.5119729 0
8.71523 -1.7462212 -0.95868868 44
8.724699 -1.7481185 -1.1174661 34
8.6693926 -1.7370371 -1.2668635 0
9.2930079 -1.8619874 -1.527416 3
8.4821491 -1.6995201 -1.5471625 4
7.8159385 -1.5660352 -1.5678049 5
7.2364526 -1.4499269 -1.5823298 4
6.7201896 -1.3464863 -1.5910106 8
6.3165183 -1.265605 -1.6091723 7
4.736042 -0.9489339 -1.6616533 7
1.6920912 -0.33903474 -0.80442423 5
6.4185548 -1.332724 1.7304348 19
5.271946 -1.0946465 1.0404767 21
8.8860855 -1.8450724 1.2696803 22
13.765509 -2.8582172 1.2206178 37
13.767754 -2.8586833 0.72339261 48
13.797687 -2.8648982 0.47560444 37
13.720668 -3.9084349 0.39675465 66
13.767618 -1.8296552 0.30450681 48
13.795939 -2.8645356 0.22577408 25
13.748349 -3.9163203 0.14471464 49
13.782699 -1.8316593 0.058726106 36
10.938675 -2.2712641 -0.018523868 0
13.760203 -3.919697 -0.10787877 48
5.4357142 -0.72238225 -0.073697455 7
10.32579 -2.1440072 -0.20396712 0
10.433494 -2.9720588 -0.27384788 0
5.0015821 -0.66468805 -0.15706447 44
10.019796 -2.854214 -0.44758967 0
4.9782505 -0.6615873 -0.2451784 33
5.1189818 -1.0628856 -0.28635043 20
9.1543503 -2.6076853 -0.57717508 10
4.9771376 -0.66143942 -0.33410364 1
5.0155888 -1.0414175 -0.37123427 1
8.7557878 -2.4941516 -0.7133106 16
4.9942479 -0.66371334 -0.42439416 32
8.7179375 -1.810159 -0.80279624 7
8.5432682 -2.4336138 -0.85315704 0
4.9860916 -0.66262937 -0.51278424 33
8.6677818 -1.7997447 -0.9548282 68
8.6850815 -1.8033369 -1.1139771 37
8.6531792 -1.7967126 -1.2662961 6
9.3029823 -1.9316353 -1.5312346 2
8.4816437 -1.7610958 -1.5492752 3
7.8048153 -1.6205617 -1.5678049 4
7.2223244 -1.4996156 -1.5814912 5
6.718256 -1.3949528 -1.5928196 7
6.307529 -1.309671 -1.6091723 6
4.7293019 -0.98197401 -1.6616533 6
1.693233 -0.35157636 -0.8061142 4
6.4539833 -1.3895063 1.7426857 18
5.2829766 -1.1373951 1.0442713 19
8.8723211 -1.9101609 1.2696803 19
13.775353 -2.9657562 1.2233857 37
13.758144 -2.9620509 0.7240091 48
13.788039 -2.9684873 0.47600922 34
13.706998 -4.0134015 0.39719945 90
13.769677 -1.9327508 0.30485752 7
13.79021 -2.9689546 0.22603042 23
13.746142 -4.0248628 0.14499807 51
5.2920752 -0.74281061 0.022571368 9
10.956925 -2.3589644 -0.018583558 0
13.769488 -4.0316987 -0.10818035 45
5.4540377 -0.76554418 -0.074019976 9
10.282428 -2.2137489 -0.20342569 0
10.396076 -3.0439651 -0.27344412 2
5.0163717 -0.70411211 -0.15768676 46
10.046737 -2.1630061 -0.38096935 0
10.025452 -2.9354467 -0.44879147 0
4.9890928 -0.70028317 -0.2459586 74
9.4529095 -2.0351582 -0.5296061 4
9.2039614 -2.6949148 -0.58153296 8
4.9879651 -0.70012486 -0.33516598 0
8.8923903 -1.9144816 -0.65920103 12
8.760232 -2.564991 -0.71518528 16
5.00109 -0.70196712 -0.42540142 62
8.669383 -1.8664694 -0.79956347 29
8.555769 -2.5051243 -0.85621631 1
5.0244489 -0.70524585 -0.51724678 49
8.6426916 -1.860723 -0.95354134 28
8.6328287 -1.8585995 -1.1089928 39
8.6359043 -1.8592618 -1.2657288 1
9.2885723 -1.9997774 -1.5312346 3
8.4762049 -1.8248793 -1.5506836 3
7.792726 -1.6777301 -1.5678049 4
7.2302551 -1.5566332 -1.5856839 5
6.7230864 -1.4474427 -1.5964376 12
6.2977591 -1.3558722 -1.6091723 7
4.7256742 -1.0174111 -1.6629546 6
1.6941545 -0.36474192 -0.80780417 2
6.4592261 -1.4378905 1.7467693 19
5.2634072 -1.1716888 1.0419946 18
8.8587704 -1.9720538 1.2696803 20
13.765983 -3.06445 1.2244236 37
13.756627 -3.0623674 0.72503668 47
13.782589 -3.0681469 0.47654891 33
13.720769 -4.1216483 0.39842263 68
5.2578435 -0.7754733 0.11652449 2
13.808186 -3.0738449 0.22667128 28
13.756016 -4.1322365 0.14540298 44
5.2313604 -0.77156729 0.022334842 16
10.983138 -2.4449601 -0.018656513 0
13.775483 -4.1380844 -0.10845178 44
5.2388482 -0.7726717 -0.071170986 17
10.30576 -2.2941687 -0.20419918 0
13.775318 -4.1380348 -0.36307806 47
5.0152893 -0.73969924 -0.15781121 45
10.007981 -2.22788 -0.38008028 0
10.134845 -3.0444553 -0.45462885 0
5.0196543 -0.74034309 -0.24771406 48
9.4111814 -2.0950263 -0.5280748 4
9.2078667 -2.765996 -0.58298558 8
5.0026979 -0.7378422 -0.33649391 0
8.8710203 -1.9747809 -0.6586228 14
8.7497501 -2.6283801 -0.71581018 16
5.0078969 -0.73860896 -0.42640868 59
8.6405878 -1.9234842 -0.7981267 24
8.7630587 -2.6323779 -0.87877852 5
5.0390868 -0.74320912 -0.51927519 52
8.6217279 -1.9192858 -0.95268351 5
8.6002741 -1.9145099 -1.1065007 44
8.6265793 -1.9203658 -1.2662961 7
9.2782402 -2.0654323 -1.531871 3
8.4709454 -1.88572 -1.5520921 3
7.7846546 -1.7329446 -1.5685768 4
7.2306652 -1.6096208 -1.5881995 5
6.7052116 -1.4926494 -1.5946286 7
6.2995043 -1.4023348 -1.6120805 7
4.7221489 -1.0511992 -1.6642557 6
1.6809503 -0.37419692 -0.80273432 3
6.4414921 -1.4812161 1.7447275 21
5.2704086 -1.2119263 1.0450302 13
8.8447866 -2.0338516 1.2696803 19
13.755904 -3.1631591 1.2254615 35
13.758271 -3.1637037 0.72626972 44
13.792002 -3.1714599 0.47762829 35
13.722231 -4.2267537 0.3993122 43
5.2364936 -0.80971605 0.11617377 1
13.801982 -3.1737547 0.22692762 27
13.75359 -4.236413 0.14568642 48
5.2218933 -0.8074584 0.022317948 24
11.055462 -2.5421946 -0.018809056 1
13.77684 -4.2435746 -0.10869306 49
5.0119767 -0.7749992 -0.068160735 19
10.320672 -2.3732305 -0.20481797 0
13.765202 -4.2399893 -0.36358276 45
5.0218563 -0.77652687 -0.15818459 17
10.019453 -2.3039653 -0.38111752 0
10.117163 -3.116312 -0.45480055 0
5.0222602 -0.77658927 -0.24810416 39
9.4080029 -2.163363 -0.52873105 5
9.2837257 -2.8595948 -0.58903819 5
5.0013695 -0.77335894 -0.33675948 0
8.8803463 -2.0420287 -0.66035753 11
8.7540541 -2.696444 -0.71768481 16
5.0183749 -0.77598852 -0.42775172 56
8.623065 -1.9828671 -0.79776752 20
8.7482729 -2.6946633 -0.87916088 3
5.0416408 -0.77958608 -0.52008659 53
8.5887394 -1.9749738 -0.95053875 14
8.5789623 -1.9727256 -1.1055039 45
8.6013861 -1.9778819 -1.2645941 5
9.2789898 -2.1336963 -1.5344167 3
8.4690866 -1.9474598 -1.5542047 3
7.791492 -1.7916474 -1.5724366 3
7.2001934 -1.6556787 -1.5840068 5
6.7022219 -1.5411706 -1.5964376 11
6.3046889 -1.4497583 -1.615958 7
4.7110085 -1.0832926 -1.6629546 6
1.6818303 -0.38673553 -0.80442423 3
6.4197054 -1.5234709 1.7416648 19
5.2771044 -1.2523184 1.0480659 14
8.8226643 -2.0937212 1.2685719 20
13.776137 -3.269238 1.2292674 35
13.77083 -3.2679787 0.72811931 41
13.788974 -3.2722843 0.47830293 33
13.749582 -4.3405032 0.40098017 41
5.2425561 -0.84816992 0.11643681 1
13.806728 -3.2764976 0.22737622 27
13.815221 -4.3612242 0.1466582 41
5.2121801 -0.84325558 0.022301054 51
11.088039 -2.631321 -0.018895274 0
13.85368 -4.3733654 -0.10953751 42
5.0340824 -0.81444192 -0.068537019 14
10.315527 -2.4479947 -0.20505001 0
13.861102 -4.3757081 -0.36691374 38
5.0320997 -0.81412113 -0.15868241 0
10.034238 -2.3812416 -0.38230297 0
10.251408 -3.2361908 -0.46183974 31
5.0127721 -0.81099421 -0.2479091 22
9.4198732 -2.2354457 -0.53026235 6
9.2978039 -2.9351544 -0.5912171 5
5.0234275 -0.81271815 -0.33861858 36
8.8581104 -2.1021328 -0.65977931 14
8.7730436 -2.7694969 -0.72080928 15
5.0089002 -0.81036782 -0.42741594 0
8.6051369 -2.0420992 -0.79740834 18
8.6646996 -2.7352946 -0.87265992 1
4.8946567 -0.79188484 -0.50548196 0
8.5553951 -2.0302951 -0.94839406 20
8.5688438 -2.0334864 -1.1060023 38
8.5796633 -2.0360539 -1.2634594 4
9.2677097 -2.1993353 -1.5350531 3
8.4629469 -2.0083559 -1.5556132 3
7.7864313 -1.8478109 -1.5739805 3
7.1998754 -1.7086143 -1.5865225 4
6.6950908 -1.5888231 -1.597342 10
6.2793107 -1.4901537 -1.6120805 7
4.7180524 -1.1196488 -1.6681594 6
1.6826169 -0.39930463 -0.8061142 4
6.3938866 -1.564574 1.7375811 20
5.252974 -1.2853945 1.0450302 13
8.4653692 -2.0714626 1.2192477 7
13.776202 -3.3710153 1.2313432 37
13.767081 -3.3687832 0.72914684 41
13.804625 -3.37797 0.47965217 35
13.79123 -4.4597631 0.40309295 39
5.2522798 -0.8874135 0.11678752 1
13.802942 -3.3775585 0.22769664 26
13.814884 -4.467412 0.14698213 42
5.2574387 -0.88828522 0.022520686 8
13.828007 -3.3836915 -0.023604169 21
13.849452 -4.4785905 -0.10974862 39
5.0913739 -0.86022729 -0.069397092 10
10.309839 -2.5228014 -0.20528205 0
13.856849 -4.4809823 -0.36762032 40
5.0381198 -0.85122955 -0.15905578 0
10.021253 -2.4521847 -0.38245115 0
10.205751 -3.3003025 -0.46080962 20
5.0345645 -0.85062885 -0.24927445 38
9.4001579 -2.300204 -0.5300436 5
9.3340702 -3.0184212 -0.59484869 4
5.041244 -0.85175741 -0.34021208 55
8.8664703 -2.1696115 -0.66151404 13
8.7952337 -2.8441739 -0.72424614 14
5.0345626 -0.8506285 -0.43010199 0
8.5829306 -2.1002297 -0.79668993 14
8.6150837 -2.7859178 -0.86960065 0
5.0420361 -0.85189122 -0.52130365 0
8.5641909 -2.0956442 -0.95096773 83
8.5544386 -2.0932577 -1.1060023 34
8.7652369 -2.1448398 -1.292961 4
9.2751455 -2.2696135 -1.5388716 2
8.4678431 -2.072068 -1.5591342 3
7.7885909 -1.905856 -1.5770682 3
7.1991692 -1.7616254 -1.5890381 4
6.6762657 -1.6336718 -1.595533 6
6.2800632 -1.5367216 -1.6149886 7
4.7174687 -1.1543573 -1.6707618 6
1.6938746 -0.41448846 -0.81287408 5
6.3565569 -1.6025555 1.7304348 19
5.2781458 -1.3306766 1.0518605 15
8.7810469 -2.2137952 1.2669092 4
13.779381 -3.4739285 1.233765 37
13.770342 -3.4716494 0.7305854 29
13.79621 -3.4781711 0.48019186 34
13.797718 -4.5685019 0.40420493 40
13.772605 -2.4260037 0.30661109 41
13.794538 -3.4777496 0.22795299 27
13.813736 -4.5738058 0.14730605 42
13.791549 -2.4293406 0.059148476 42
13.823441 -3.4850361 -0.023637332 28
13.836834 -4.5814538 -0.10989942 36
5.0458546 -0.8888123 -0.068859547 19
10.330755 -2.6044931 -0.20605554 0
13.851801 -4.5864091 -0.3683269 40
5.016305 -0.88360721 -0.15855795 0
10.019393 -2.5259953 -0.38304386 0
13.832064 -4.579874 -0.62597311 49
5.0363727 -0.88714212 -0.24966456 61
9.387743 -2.3667498 -0.53026235 6
9.3620443 -3.0998256 -0.597996 3
5.0430365 -0.88831592 -0.34074324 53
8.8433695 -2.2295074 -0.66093576 13
8.8130198 -2.9180403 -0.72737062 13
5.0599051 -0.89128727 -0.43278801 0
8.579648 -2.1630204 -0.79776752 13
8.6332235 -2.8585091 -0.87342477 1
5.0438037 -0.88845104 -0.52211499 0
8.6264772 -2.1748264 -0.95954657 6
8.5511618 -2.1558387 -1.1074976 4
8.7615671 -2.2088842 -1.294663 3
9.2322693 -2.3275533 -1.5344167 2
8.4493523 -2.1301715 -1.55843 4
7.7560673 -1.955387 -1.5732085 3
7.1677327 -1.8070616 -1.5848454 4
6.6684756 -1.6811936 -1.5964376 7
6.2654185 -1.5795786 -1.6140193 7
4.705627 -1.1863385 -1.6694607 6
1.6979705 -0.42807639 -0.81625402 6
6.3564444 -1.6498076 1.7334975 20
5.2497206 -1.3625587 1.0480659 14
7.4348502 -1.9297066 1.0746006 3
13.777937 -3.5760469 1.2358409 34
13.761236 -3.5717125 0.73140746 29
13.79094 -3.579422 0.48086646 33
13.795783 -4.674983 0.4050945 36
13.7632 -2.5235362 0.30678645 48
13.816378 -3.5860243 0.22872202 27
13.811773 -4.6804018 0.14762998 37
13.786056 -2.5277269 0.059199158 45
13.825875 -3.5884895 -0.023683757 30
13.842396 -4.6907787 -0.11020101 37
5.0473943 -0.92545938 -0.068967052 14
10.358772 -2.688607 -0.20698372 0
13.845955 -4.6919847 -0.36903346 36
5.0690012 -0.92942107 -0.16042481 35
10.01699 -2.5998976 -0.38363656 0
13.830032 -4.6865892 -0.62734663 45
5.0457754 -0.92516255 -0.25044477 59
9.4096518 -2.4422638 -0.5324499 4
13.847661 -4.6925631 -0.88658357 43
5.0524144 -0.9263798 -0.34180555 52
8.8468981 -2.2962017 -0.66238141 12
8.8566399 -3.0012534 -0.73268217 11
5.0417976 -0.92443323 -0.43178076 0
8.5797634 -2.2268674 -0.79920429 12
8.6583099 -2.9340453 -0.87801367 0
5.0492201 -0.92579418 -0.52333206 0
8.5533428 -2.2200098 -0.95311242 13
8.5320606 -2.2144861 -1.1069992 33
8.7650957 -2.2749701 -1.2974997 2
9.2540188 -2.4018695 -1.5407809 2
8.4266539 -2.1871278 -1.5570216 4
7.753624 -2.0124438 -1.5755243 3
7.1776567 -1.8629522 -1.5898767 4
6.6792054 -1.7335798 -1.6018646 11
6.2354569 -1.6184055 -1.6091723 7
4.6862469 -1.2163098 -1.6655569 7
1.6949406 -0.4399198 -0.81625402 6
6.3447719 -1.6941438 1.7334975 19
5.2628469 -1.4052545 1.0526195 10
8.8334827 -2.358665 1.2791017 18
13.729534 -3.6659796 1.233765 29
13.759122 -3.6738801 0.7326405 26
13.784927 -3.6807706 0.48154107 32
13.789254 -4.7803478 0.40587288 33
13.764889 -2.6233034 0.30722484 40
13.77555 -3.6782665 0.22846568 23
13.820333 -4.7911215 0.14807539 38
13.791649 -2.6284032 0.059300527 42
13.76184 -3.6746058 -0.023617435 36
13.839545 -4.7977819 -0.11044228 35
11.100934 -2.9641063 -0.2222213 0
13.827974 -4.7937708 -0.36943722 14
5.0859537 -0.96927774 -0.16117154 11
10.075834 -2.6903901 -0.38660017 0
13.823408 -4.7921877 -0.62854844 51
5.043118 -0.96111411 -0.2506398 50
9.4039488 -2.5109873 -0.53310615 3
13.848516 -4.8008919 -0.88876247 19
5.0850301 -0.96910167 -0.34446138 22
8.8460693 -2.3620255 -0.66353792 11
8.9221306 -3.0930524 -0.7398684 11
5.0508828 -0.96259391 -0.4331238 0
8.59095 -2.2939053 -0.80171865 11
8.8934336 -3.0831039 -0.90401757 60
5.0269985 -0.95804203 -0.52170932 0
8.6298513 -2.3042924 -0.96340704 3
8.5278969 -2.2770689 -1.1084944 31
8.7183952 -2.327935 -1.292961 1
9.2408409 -2.4674351 -1.5414174 2
8.4340048 -2.2519984 -1.5612469 4
7.7545533 -2.0705755 -1.5786121 4
7.1720333 -1.9150343 -1.5915537 4
6.6556463 -1.7771516 -1.599151 9
6.2390041 -1.6659023 -1.6130499 7
4.6849499 -1.250948 -1.6681594 6
1.7023363 -0.45454785 -0.82132393 6
6.352046 -1.7412986 1.738602 20
5.2723494 -1.4453193 1.056414 10
8.844389 -2.4245296 1.2829812 22
13.731822 -3.7643306 1.236187 42
13.69978 -3.7555473 0.73079091 35
13.73708 -3.7657721 0.48073155 40
13.783631 -4.8810401 0.40665129 35
13.758958 -2.7168605 0.30748788 37
13.743137 -3.7674327 0.22833751 29
13.825956 -4.896028 0.1484803 41
13.78961 -2.7229133 0.059368107 40
13.764171 -3.7731986 -0.02366386 40
13.837584 -4.9001455 -0.11068355 15
10.515979 -2.076498 -0.14406212 0
10.490918 -2.8758957 -0.21038704 0
10.080899 -2.7634964 -0.38748923 0
5.0248742 -0.99221784 -0.25005466 40
9.4294596 -2.5849159 -0.53551245 3
12.822766 -4.5407801 -0.82484716 2
5.0706601 -1.0012587 -0.34393021 25
8.8456011 -2.4248614 -0.66469437 13
8.9953957 -3.185437 -0.74767947 7
8.8061724 -1.7388775 -0.75611997 25
8.6024427 -2.3582044 -0.80423301 11
8.8840494 -3.1460071 -0.90516478 1
8.7332296 -1.7244743 -0.90751457 11
8.6067085 -2.3593736 -0.96254921 3
8.5240898 -2.3367252 -1.1099898 24
8.714221 -2.3888462 -1.294663 1
9.2090397 -2.5244918 -1.5388716 2
8.3998966 -2.3026798 -1.5577258 4
7.736866 -2.1209219 -1.5778401 4
7.1591749 -1.9625584 -1.5915537 3
6.6474719 -1.8222842 -1.6000556 8
6.2315612 -1.7082698 -1.6140193 7
4.6765509 -1.2819918 -1.6681594 6
1.6992843 -0.46582806 -0.82132393 5
6.3136759 -1.778262 1.7314557 21
5.2810316 -1.4874154 1.0602086 9
8.8234339 -2.4851415 1.282427 20
13.732058 -3.8676672 1.2386088 43
13.707834 -3.8608446 0.7326405 32
13.733543 -3.8680859 0.48154107 39
13.794335 -4.9934793 0.40798566 37
13.767079 -2.8184645 0.30810162 38
13.743449 -3.8708758 0.22878611 26
13.821527 -5.0033221 0.14880422 42
13.782021 -2.8215232 0.05941879 42
13.772145 -3.8789582 -0.02372355 36
10.524735 -2.154676 -0.14438465 0
10.532177 -2.966413 -0.21162461 0
12.48681 -4.5201616 -0.33521885 0
10.105407 -2.0688288 -0.32109854 0
10.107532 -2.8468108 -0.38926739 0
12.452972 -4.5079126 -0.56897283 0
5.0647936 -1.0368896 -0.25239527 23
9.4457827 -2.6604276 -0.53748125 3
12.456624 -4.5092344 -0.8032999 1
5.0674562 -1.0374347 -0.34419581 26
8.8591766 -2.4952085 -0.66700739 12
12.602611 -4.5620809 -1.0501257 5
8.7703876 -1.795517 -0.75410545 23
8.6011086 -2.422523 -0.80566978 10
8.8993092 -3.2215044 -0.90898889 3
8.5555754 -2.4096985 -0.95868868 3
8.5343103 -2.4037092 -1.1134787 28
8.708765 -2.4528446 -1.296365 1
9.2177992 -2.5962152 -1.5433266 2
8.3874054 -2.3623331 -1.55843 4
7.7294264 -2.1770115 -1.579384 5
7.1452994 -2.0124907 -1.5915537 3
6.6345878 -1.8686477 -1.6000556 11
6.2269545 -1.7538368 -1.615958 7
4.6674867 -1.3146089 -1.6681594 6
1.6959908 -0.47767991 -0.82132393 5
6.270752 -1.8158891 1.7232884 21
5.2775311 -1.5282716 1.0617265 7
8.8202 -2.5541604 1.2846438 20
13.722476 -3.9737651 1.2403387 43
13.729047 -3.9756677 0.7353121 35
13.735539 -3.9775481 0.48262048 38
13.791108 -5.1069589 0.40898645 67
13.761696 -2.9226277 0.30845234 48
13.764647 -3.9859769 0.22961922 28
13.788357 -2.9282897 0.059537053 44
13.75871 -3.9842577 -0.02375008 112
13.758538 -5.0948982 -0.11062323 0
10.47736 -2.2251198 -0.14395462 0
10.521673 -3.0468743 -0.21185665 1
12.198349 -4.5171475 -0.32835498 0
10.109524 -2.147001 -0.32172081 0
10.132467 -2.9341674 -0.39104554 0
12.224718 -4.5269122 -0.56004506 2
9.6881332 -2.0575085 -0.48353001 1
9.4759016 -2.7440386 -0.54032511 3
12.239771 -4.532486 -0.79143685 1
5.1143732 -1.0861604 -0.34791398 11
8.8483124 -2.5623012 -0.66758561 10
12.307057 -4.5574031 -1.0282546 2
8.7335968 -1.8547896 -0.75209093 23
8.602253 -2.4910469 -0.80746573 11
12.094069 -4.4785314 -1.2386265 1
8.6375904 -1.8344004 -0.90021223 1
8.541502 -2.4734547 -0.95911765 4
8.5317097 -2.470619 -1.1154723 26
8.7285833 -2.5276299 -1.3020383 6
9.2098989 -2.6670096 -1.5452359 2
8.3812103 -2.4270372 -1.5605427 4
7.7283392 -2.2379785 -1.5824717 5
7.1416254 -2.0680773 -1.5940694 4
6.6169686 -1.9161469 -1.599151 10
6.2251134 -1.8026731 -1.6188661 7
4.6577249 -1.3487875 -1.6681594 6
1.6959261 -0.49110758 -0.8230139 6
6.2542143 -1.8585212 1.7222676 19
5.2855568 -1.570672 1.065521 5
8.8097486 -2.6179316 1.2857522 22
13.728779 -4.0796852 1.2434525 41
13.716273 -4.0759692 0.73613417 34
13.745757 -4.0847306 0.48396969 37
13.792517 -5.2172613 0.41009843 70
13.760487 -3.0229216 0.30889073 62
13.755653 -4.0876713 0.22993965 28
12.641145 -4.7817345 0.1368189 0
13.791018 -3.0296288 0.059638422 43
13.772736 -4.0927477 -0.023823034 35
12.308469 -4.6558943 -0.099223129 0
10.457664 -2.297353 -0.14390086 0
13.743344 -4.0840139 -0.27729321 40
11.96081 -4.5243859 -0.32280335 0
10.121623 -2.2235312 -0.32259202 0
10.21519 -3.0355766 -0.39504638 0
12.002187 -4.5400376 -0.55128896 0
9.6696301 -2.1242368 -0.48333499 2
9.5177698 -2.8283291 -0.54382515 3
11.965092 -4.5260057 -0.77570009 1
8.9931889 -1.9756353 -0.6127004 15
8.8722763 -2.6365123 -0.670766 11
11.998932 -4.5388064 -1.0051337 1
8.7009697 -1.9114404 -0.75041217 21
8.5922899 -2.5533109 -0.80818409 10
12.058784 -4.5614462 -1.2382441 2
8.6129131 -1.8920959 -0.89899522 4
8.5621471 -2.5443535 -0.96340704 3
8.5446882 -2.5391655 -1.1194597 25
8.7334986 -2.5952728 -1.3054423 2
9.1872702 -2.7301171 -1.5445994 3
8.3716106 -2.4877331 -1.561951 4
7.6974788 -2.287406 -1.579384 5
7.1457586 -2.1234553 -1.5982621 4
6.5996957 -1.9611855 -1.5982466 8
6.2049365 -1.8438777 -1.6169274 7
4.6554465 -1.3834265 -1.6707618 6
1.7028821 -0.50603354 -0.82808381 6
6.2447867 -1.9032652 1.7232884 20
5.2970033 -1.6144029 1.0700746 1
8.8177834 -2.6874545 1.2896316 20
13.741895 -4.1882086 1.2472583 14
13.718054 -4.1809425 0.73777825 33
13.747499 -4.1899166 0.48504907 36
13.796786 -5.3292704 0.41132161 63
13.766347 -3.1251113 0.30950448 53
13.749735 -4.1905985 0.23032416 32
12.338814 -4.7661009 0.13390355 0
13.789035 -3.1302619 0.059722897 43
13.778265 -4.1992936 -0.023882724 37
12.051793 -4.6552339 -0.097413592 0
10.44137 -2.3703053 -0.14390086 0
13.745103 -4.1891866 -0.27791199 48
11.742427 -4.5357351 -0.31775638 0
10.125349 -2.2985649 -0.32321429 0
10.216691 -3.1138089 -0.39593548 1
11.813628 -4.5632381 -0.54407811 0
9.6935253 -2.2005365 -0.48528549 2
9.5933056 -2.9238157 -0.54929405 3
11.754429 -4.5403714 -0.76407909 0
8.9908543 -2.0410223 -0.61349714 10
8.8841829 -2.7076917 -0.67307895 10
11.70656 -4.5218806 -0.9832626 0
8.6757526 -1.9694908 -0.74940485 19
8.6009302 -2.6213629 -0.81069845 8
9.4452629 -3.6484118 -0.97246897 0
8.6033754 -1.9530604 -0.89940089 5
8.688735 -2.6481237 -0.97970694 4
8.5419397 -2.603384 -1.1214534 30
8.718955 -2.6573341 -1.3060098 1
9.1906519 -2.8010962 -1.548418 2
8.3540392 -2.5461161 -1.561951 4
7.6700587 -2.3376548 -1.5770682 4
7.1120543 -2.1675882 -1.5940694 4
6.5858431 -2.0072112 -1.5982466 8
6.1993375 -1.8894134 -1.6188661 7
4.6565294 -1.4192015 -1.6746655 6
1.681968 -0.51262456 -0.81963396 6
6.2461133 -1.951429 1.7273721 21
5.2593627 -1.6431454 1.0647621 0
8.8025875 -2.7501302 1.2901858 23
13.784591 -4.306622 1.2538319 36
13.726661 -4.2885237 0.73983335 36
13.752255 -4.2965198 0.48626339 39
13.792723 -5.4386611 0.41232237 58
13.779235 -3.229353 0.31029359 60
13.792677 -4.3091488 0.2315418 29
12.089423 -4.7670264 0.13155508 0
13.790213 -3.231926 0.059824266 45
13.851698 -4.3275881 -0.024061795 30
9.4254255 -3.7165756 -0.076392762 9
10.451827 -2.4495292 -0.14427714 0
13.738426 -4.2921991 -0.27837607 52
9.4003725 -3.7066967 -0.25507319 14
10.10127 -2.3673713 -0.32296538 0
10.290088 -3.2148592 -0.39963996 1
9.4393139 -3.7220519 -0.4359149 0
9.677927 -2.2681551 -0.48528549 1
9.6145945 -3.0038199 -0.55170035 2
9.4566994 -3.7289073 -0.61639589 17
8.9763861 -2.1037395 -0.61349714 14
8.910759 -2.7839255 -0.67654842 8
9.4006052 -3.7067883 -0.79173416 16
8.6734343 -2.0327384 -0.75041217 19
8.6052361 -2.688473 -0.81285363 9
9.3528872 -3.6879725 -0.96558559 15
8.570158 -2.0085342 -0.89737248 15
8.5903196 -2.6838129 -0.97069913 2
8.5614395 -2.6747899 -1.1264377 36
8.63972 -2.6992466 -1.2969323 1
9.1708727 -2.865191 -1.548418 2
8.3360605 -2.6043763 -1.561951 4
7.6722841 -2.3969975 -1.5809278 5
7.0967484 -2.2171869 -1.5940694 4
6.5679507 -2.0519783 -1.597342 8
6.1897001 -1.9338042 -1.6198355 7
4.6428976 -1.4505477 -1.6733643 6
1.6956507 -0.52976018 -0.82808381 7
6.2404017 -1.995167 1.7294139 21
8.7235575 -2.7890756 1.769797 25
8.7917013 -2.8108625 1.2912942 23
13.786092 -4.4076576 1.2565998 37
13.781627 -4.40623 0.74435455 29
13.82627 -4.4205031 0.48990631 35
9.3341351 -3.7522981 0.27977431 45
13.780839 -3.3262982 0.31081966 61
13.820938 -4.4187984 0.23250309 30
9.3001537 -3.7386379 0.10147031 17
13.787916 -3.3280065 0.059908736 47
13.849362 -4.4278865 -0.024108222 32
9.2558317 -3.7208204 -0.075216562 26
10.516999 -2.538501 -0.14540599 0
13.812509 -4.4161038 -0.28046447 43
9.2160444 -3.7048264 -0.25073281 22
10.116438 -2.441817 -0.32396102 0
13.84749 -4.4272881 -0.53892863 49
9.3068905 -3.7413461 -0.43093595 17
9.6782064 -2.3360407 -0.48606569 1
9.6515265 -3.0857637 -0.55498171 2
9.2576475 -3.7215502 -0.60501701 29
8.973875 -2.1660354 -0.61429393 13
8.9301014 -2.8551116 -0.67943966 9
9.2204142 -3.7065828 -0.77861148 25
8.6597614 -2.0902174 -0.75041217 19
8.6289568 -2.7588303 -0.81680477 9
9.1656713 -3.684576 -0.94875956 24
8.5682535 -2.06813 -0.89858949 7
8.6253643 -2.7576818 -0.9767043 1
8.5699739 -2.7399724 -1.1299267 1
8.6216288 -2.7564871 -1.2969323 1
9.1742373 -2.9331663 -1.5522366 3
8.307354 -2.656008 -1.5598384 4
7.6636939 -2.4502187 -1.5824717 5
7.0893388 -2.266587 -1.5957464 5
6.5653315 -2.0990527 -1.6000556 10
6.1693459 -1.9724492 -1.6178968 8
4.6367784 -1.4824601 -1.6746655 7
1.6921 -0.54099435 -0.82808381 7
6.2366338 -2.0444717 1.7324766 22
5.2993512 -1.7372152 1.0776637 5
8.7934465 -2.8826375 1.2946194 19
13.821571 -4.5309401 1.2628274 39
13.786917 -4.5195794 0.74640965 31
13.820086 -4.5304527 0.49085078 37
9.1658211 -3.7629156 0.27554879 20
13.771607 -3.4310942 0.31117037 64
13.818579 -4.5299587 0.23301576 24
9.1355944 -3.7505066 0.099972144 23
13.794201 -3.436723 0.060043897 47
13.854542 -4.541748 -0.024174543 32
9.0914001 -3.7323632 -0.074100681 21
10.517513 -2.6203606 -0.14567477 0
13.810168 -4.5272017 -0.28108326 47
9.0369749 -3.7100196 -0.24659429 22
10.133183 -2.5246074 -0.32508114 0
13.841253 -4.5373921 -0.53996587 51
9.1239462 -3.7457247 -0.42372507 26
9.6879597 -2.4136834 -0.48743102 1
13.852804 -4.5411782 -0.79845607 42
9.0897646 -3.7316916 -0.59581709 24
8.9538841 -2.230794 -0.61402833 15
8.9620066 -2.9378939 -0.68348742 9
9.0565023 -3.7180362 -0.76705104 23
8.6635447 -2.1584582 -0.75209093 22
8.62743 -2.8282144 -0.81860071 8
8.9947643 -3.6926904 -0.93384558 23
8.5953379 -2.1414649 -0.90305203 9
8.5784645 -2.8121626 -0.97370172 0
8.5911436 -2.816319 -1.1354094 0
8.6237659 -2.8270133 -1.3003364 1
9.175005 -3.0077186 -1.5560551 2
8.310111 -2.7241919 -1.5640638 5
7.6567163 -2.5099983 -1.5847875 4
7.0576673 -2.3136201 -1.5923922 5
6.5645781 -2.1519773 -1.6036736 8
6.147346 -2.0152018 -1.615958 7
4.6221924 -1.5152311 -1.6733643 6
1.7053143 -0.55903023 -0.83653361 8
6.2185421 -2.086731 1.7314557 22
5.3019872 -1.7791662 1.0806993 2
8.7843742 -2.9477367 1.2962821 22
13.793382 -4.6285892 1.2631733 36
13.777751 -4.6233439 0.7476427 29
13.810861 -4.6344543 0.49166033 36
8.9807358 -3.760407 0.27076727 23
13.77056 -3.5331175 0.31169644 54
13.828326 -4.6403151 0.2337207 30
8.9653006 -3.7539439 0.098392993 23
13.808617 -3.5428817 0.060212843 42
13.849043 -4.6472669 -0.02422097 33
8.9175425 -3.7339466 -0.07289432 26
10.54158 -2.7046568 -0.14626606 0
13.81614 -4.6362262 -0.28185675 47
8.8780718 -3.7174194 -0.2429605 23
10.138546 -2.6012504 -0.3258279 0
13.835766 -4.6428118 -0.54100317 52
8.9648705 -3.7537637 -0.41754434 25
9.6824827 -2.4842381 -0.48801619 1
13.839696 -4.6441302 -0.79954988 44
8.9124937 -3.7318327 -0.58589083 23
8.9419584 -2.2942414 -0.61429393 12
8.9791012 -3.0130804 -0.68637866 7
8.8684788 -3.7134025 -0.75330347 6
8.6637087 -2.2228508 -0.75343394 20
8.6376905 -2.8985147 -0.82147425 11
8.8145113 -3.6908057 -0.91778433 18
8.5724697 -2.1994417 -0.90224069 10
8.6076365 -2.8884296 -0.97927797 0
8.6126614 -2.8901157 -1.140892 12
8.6376047 -2.8984859 -1.3054423 0
9.1462965 -3.0691855 -1.5547823 2
8.3058214 -2.7871506 -1.5668806 5
7.6427269 -2.5646389 -1.5855595 4
7.0710068 -2.3727889 -1.5991006 5
6.5530887 -2.1989932 -1.604578 4
6.1588817 -2.0667109 -1.6227436 7
4.6043296 -1.5450562 -1.6707618 6
1.6841844 -0.56515491 -0.82808381 8
6.2001653 -2.1288378 1.7304348 21
8.7104855 -2.9907606 1.779663 27
8.8010492 -3.0218558 1.3018241 23
13.802191 -4.739007 1.2669791 34
13.790477 -4.7349849 0.75010878 29
13.808418 -4.7411451 0.49273971 32
8.8108492 -3.7617817 0.26643053 22
13.768759 -3.6352916 0.31222251 60
13.833421 -4.7497296 0.23436157 28
8.7990904 -3.7567611 0.096854337 43
13.799017 -3.6432805 0.060280424 44
13.835177 -4.7503328 -0.02425413 29
8.7992907 -3.7568469 -0.072140343 47
10.541777 -2.7832887 -0.14653483 0
13.828827 -4.7481523 -0.28278491 44
8.7967386 -3.7557571 -0.24144641 43
11.171582 -2.949573 -0.35968015 0
13.859725 -4.7587614 -0.54322582 46
8.8098087 -3.7613375 -0.41153526 48
9.6996698 -2.5609519 -0.48977163 1
13.84849 -4.7549033 -0.80195618 42
8.7870798 -3.7516336 -0.57935405 17
8.9488773 -2.3627241 -0.6158874 11
9.0974588 -3.1236289 -0.6970762 4
8.7983274 -3.7564356 -0.74955416 2
8.6518335 -2.2842972 -0.7537697 20
8.6775322 -2.9794459 -0.82722133 11
8.7958546 -3.7553797 -0.91854918 10
8.680027 -2.2917411 -0.91522253 3
8.6361599 -2.965241 -0.98485422 0
8.6485806 -2.9695055 -1.1483684 33
8.665843 -2.9754326 -1.3128178 0
9.1358519 -3.1368108 -1.5566915 3
8.2973337 -2.8489041 -1.5689932 4
7.6283493 -2.6192071 -1.5863314 5
7.05057 -2.4208257 -1.5982621 4
6.5523181 -2.2497501 -1.608196 5
6.1443033 -2.1096575 -1.6227436 7
4.5970087 -1.5783911 -1.672063 6
1.6939137 -0.5816083 -0.83484364 7
6.1713119 -2.1647906 1.7263511 20
8.7275171 -3.0614641 1.7872522 26
8.7920275 -3.0840931 1.3034867 22
13.804301 -4.8423133 1.270093 33
13.800236 -4.8408871 0.7523694 32
13.825711 -4.8498235 0.49449372 32
8.7527056 -3.8057845 0.26542976 43
13.740486 -3.7254837 0.31213483 43
13.82426 -4.8493142 0.23474608 28
8.7703133 -3.8134406 0.09681385 49
13.732083 -3.7232053 0.06009458 52
13.844888 -4.8565497 -0.024327086 29
8.7925224 -3.8230972 -0.072291136 49
10.60029 -2.8740766 -0.14760992 0
13.819674 -4.8477058 -0.28324902 43
8.7899723 -3.8219883 -0.24195109 41
10.183228 -2.760998 -0.32844147 0
8.7883339 -3.8212762 -0.41170695 55
9.7248869 -2.6367269 -0.49191719 1
8.7912979 -3.8225648 -0.58129084 48
8.9445658 -2.4251568 -0.61668414 14
9.1706581 -3.2169101 -0.70430428 1
8.7988205 -3.8258359 -0.75174129 43
8.6480331 -2.3447576 -0.75477695 20
8.7064505 -3.054074 -0.83189082 15
8.8145723 -3.8326848 -0.92313808 50
8.5609379 -2.3211429 -0.9042691 4
8.6876068 -3.0474639 -0.99300414 19
8.7298145 -3.0622694 -1.1618258 20
8.7019644 -3.0525005 -1.3213278 8
9.1111202 -3.1960251 -1.5560551 3
8.2596788 -2.8973541 -1.5654721 4
7.5959959 -2.6645455 -1.5832437 4
7.0269785 -2.4649439 -1.5965849 5
6.5372534 -2.2931569 -1.608196 5
6.1301765 -2.1503611 -1.6227436 7
4.58287 -1.6075925 -1.6707618 6
1.6763349 -0.58802962 -0.82808381 8
6.1487675 -2.2052107 1.7243093 20
8.7281122 -3.1302741 1.7918056 32
8.7889261 -3.1520844 1.3062577 21
13.796417 -4.9479842 1.2725148 30
13.799946 -4.9492497 0.754219 29
13.82162 -4.9570231 0.4955731 32
8.7588234 -3.8813765 0.26643053 43
13.717995 -3.822391 0.31222251 69
13.827716 -4.9592094 0.23538694 29
8.7727318 -3.8875399 0.097137772 48
13.740435 -3.8286436 0.060246632 51
8.7948723 -3.8973515 -0.072532408 44
10.641614 -2.9651861 -0.14847 5
8.7923222 -3.8962214 -0.24275862 44
10.198368 -2.84168 -0.32956159 0
12.582105 -4.5124803 -0.49551204 0
8.7870178 -3.8938706 -0.41290876 51
9.7370329 -2.7131331 -0.49347758 0
12.763641 -4.5775867 -0.74267358 2
8.7972498 -3.8984048 -0.58346981 48
8.9504852 -2.4939692 -0.61827767 12
12.542792 -4.4983811 -0.96567172 0
8.8010635 -3.9000947 -0.75424081 52
8.6468134 -2.4093537 -0.75611997 19
8.9736643 -3.2183392 -0.85954869 17
8.8094416 -3.9038074 -0.92543256 44
8.5445251 -2.380852 -0.9042691 5
8.7559624 -3.1402621 -1.0032988 24
8.8987494 -3.1914716 -1.1872454 4
8.8667974 -3.1800122 -1.3496946 0
9.0774345 -3.2555556 -1.5541458 3
8.2466631 -2.9576056 -1.5668806 4
7.5845976 -2.7201605 -1.5847875 4
7.0243244 -2.5192227 -1.5999391 5
6.5210848 -2.3387394 -1.608196 5
6.1259732 -2.1970356 -1.6256518 7
4.5786557 -1.6421015 -1.6733643 6
1.6756012 -0.60094219 -0.82977378 8
6.1070213 -2.2408979 1.7171631 18
8.7307405 -3.2036402 1.7971181 31
8.7841797 -3.2232492 1.3090287 22
13.789703 -5.0599656 1.2752826 27
13.797047 -5.0626602 0.75606859 30
13.811183 -5.0678473 0.49651757 33
8.7592859 -3.9586501 0.26732013 44
13.72805 -3.9338624 0.31309929 41
13.836047 -5.0769711 0.23615597 27
8.780447 -3.9682136 0.097542681 47
13.738916 -3.9369762 0.060364895 49
13.830294 -5.0748596 -0.024426568 1
8.7879372 -3.9715989 -0.07271336 51
13.749333 -3.9399614 -0.19222617 44
12.562469 -4.6096468 -0.25880697 0
8.8072519 -3.9803278 -0.24396989 42
10.354058 -2.9670231 -0.33528659 0
12.297265 -4.5123334 -0.48558402 0
8.7873726 -3.9713435 -0.41428226 51
9.7591295 -2.7965424 -0.49562314 0
12.482272 -4.5802193 -0.72823572 1
8.7975435 -3.9759402 -0.5854066 44
8.951148 -2.5650098 -0.6196056 11
12.355922 -4.5338569 -0.95381767 3
8.8085775 -3.9809268 -0.75736529 49
8.648077 -2.478163 -0.75779873 19
12.514056 -4.5918822 -1.2018596 1
8.8096151 -3.981396 -0.92849183 48
8.5268421 -2.4434223 -0.9042691 1
8.8633814 -3.252311 -1.0183119 11
8.9719896 -3.2921636 -1.2002044 1
10.055059 -3.6895833 -1.5346465 3
9.0644474 -3.3260899 -1.5560551 2
8.2506371 -3.027472 -1.5718101 4
7.5644541 -2.7756853 -1.5847875 4
7.0166841 -2.5746877 -1.6024548 5
6.4927921 -2.3824518 -1.6054826 7
6.0914879 -2.235198 -1.6208049 7
4.5771484 -1.6795295 -1.6772679 7
1.6609405 -0.60946214 -0.82470387 9
6.0767426 -2.2780471 1.7130795 19
5.692667 -2.1340649 1.1748053 12
8.7948475 -3.2970092 1.3140166 23
13.76897 -5.1617064 1.2766666 27
13.787551 -5.1686721 0.75750715 43
13.820387 -5.1809816 0.49813664 32
8.7568607 -4.0314088 0.2680985 45
13.730944 -4.0386324 0.31380072 42
8.7743301 -4.0394511 0.097785629 46
13.745634 -4.042953 0.06051695 49
12.491108 -4.682662 -0.022118546 0
8.7854309 -4.0445614 -0.07292448 44
13.756026 -4.0460095 -0.19270997 40
12.279082 -4.603178 -0.25362465 0
8.8046761 -4.0534215 -0.24467646 44
10.306243 -3.0313375 -0.33441541 0
12.097034 -4.5349317 -0.47891596 0
8.7884741 -4.0459623 -0.41565576 52
9.8121929 -2.8860245 -0.49932912 0
12.023648 -4.507421 -0.70329762 1
8.794961 -4.0489488 -0.58710134 46
8.9636536 -2.6364467 -0.62173027 14
12.058736 -4.5205746 -0.93328989 1
8.8023052 -4.05233 -0.75923991 48
8.6496859 -2.5441003 -0.7594775 20
12.145965 -4.5532751 -1.1695322 1
8.8141575 -4.0577865 -0.93193352 44
8.559206 -2.517488 -0.90954298 0
12.162149 -4.5593424 -1.4009295 3
11.282607 -4.22962 -1.5132145 4
10.047595 -3.7666388 -1.5374832 4
9.0447044 -3.3906755 -1.5566915 2
8.2071791 -3.0767043 -1.5675849 4
7.5448918 -2.8284264 -1.5847875 4
6.9912143 -2.6208639 -1.6007776 5
6.4796495 -2.4290888 -1.606387 10
6.0830026 -2.2803938 -1.6227436 7
4.5759368 -1.7154256 -1.6811715 7
1.6634347 -0.62358785 -0.82808381 8
6.0534678 -2.3176498 1.7110376 20
8.7034988 -3.3322489 1.8009126 24
8.7827148 -3.3625779 1.3156792 22
13.743763 -5.2619805 1.2777046 21
13.784707 -5.2776566 0.75935674 37
13.817482 -5.290205 0.49935094 32
8.7538443 -4.1043262 0.26887688 44
13.725386 -4.141325 0.31432679 45
12.493881 -4.7834473 0.21436681 0
8.774888 -4.114193 0.098109558 46
13.743879 -4.1469049 0.060635213 50
12.196623 -4.6696377 -0.021654289 0
8.7859526 -4.119381 -0.073165752 49
13.761907 -4.1523442 -0.19319376 39
12.093517 -4.6301627 -0.25045338 0
8.8051281 -4.1283712 -0.24548396 46
13.783279 -4.158793 -0.4481689 37
11.900826 -4.5563884 -0.47239605 0
8.7889614 -4.1207914 -0.41702926 56
9.8530045 -2.9729214 -0.50244993 0
11.812849 -4.5227051 -0.69279736 0
8.7990141 -4.125505 -0.58928031 50
8.9908829 -2.7127955 -0.62491727 12
11.758625 -4.5019445 -0.91247302 0
8.8062963 -4.1289191 -0.76205194 46
8.662241 -2.6136355 -0.76216358 21
12.020869 -4.6023479 -1.1605524 3
8.8180599 -4.1344347 -0.93537521 45
8.6480951 -2.6093671 -0.92090213 2
12.167164 -4.6583591 -1.4052188 2
11.260217 -4.3111224 -1.5142114 5
10.050637 -3.8480189 -1.5420219 3
9.0355654 -3.4593852 -1.5592372 2
8.1854992 -3.1339262 -1.5675849 4
7.5542846 -2.8922572 -1.590963 4
6.9763994 -2.6710064 -1.6016163 5
6.4698114 -2.4770525 -1.608196 8
6.0705581 -2.3241932 -1.623713 7
4.5567851 -1.7446252 -1.6785691 6
1.6590408 -0.63518566 -0.82808381 8
6.0443439 -2.3626697 1.7130795 20
5.3843217 -2.1046739 1.1171274 1
8.7885427 -3.4353476 1.3201127 19
13.717828 -5.3621526 1.2787424 19
13.795894 -5.3926678 0.76202834 58
13.821171 -5.4025483 0.50083512 31
8.7646694 -4.184289 0.27010006 43
13.726703 -4.2464986 0.31502822 43
12.255307 -4.7904692 0.2108421 0
8.7820473 -4.192585 0.098514467 48
13.745165 -4.2522101 0.06077037 52
9.4515696 -3.6945179 -0.016826013 1
8.7966852 -4.1995735 -0.073497497 47
13.774614 -4.2613206 -0.19378506 39
11.897008 -4.6504135 -0.24705006 0
8.7977428 -4.2000785 -0.24608961 46
13.807383 -4.2714581 -0.4499113 45
11.64535 -4.5520434 -0.4635053 0
8.7816162 -4.1923795 -0.41805938 53
9.9426956 -3.0758767 -0.50810635 0
9.4634771 -3.6991723 -0.55651295 0
8.7988234 -4.2005939 -0.5912171 53
9.0136662 -2.7884717 -0.62783867 12
9.4640169 -3.6993835 -0.73639697 17
8.8096437 -4.20576 -0.76486391 44
8.6818619 -2.6858246 -0.76552111 18
11.836318 -4.6266904 -1.1458255 2
8.8105402 -4.2061877 -0.93766963 44
8.6676826 -2.6814382 -0.92495894 1
9.4822731 -3.7065194 -1.0980953 1
9.4629383 -3.6989615 -1.2759649 20
9.4224119 -3.6831203 -1.449546 17
9.0075159 -3.5209422 -1.5586008 2
8.1780901 -3.1967285 -1.5704017 4
7.5119767 -2.9363518 -1.5863314 4
6.961225 -2.7210689 -1.6024548 5
6.4559898 -2.5235777 -1.6091006 10
6.0650282 -2.370755 -1.6266211 7
4.5550632 -1.7805256 -1.6824727 7
1.6579427 -0.64807212 -0.82977378 7
6.0141706 -2.3969774 1.7089958 18
5.2826862 -2.1054404 1.0989134 5
8.7582054 -3.4906256 1.3190043 32
9.3323135 -3.7194393 0.87221587 20
9.4070005 -3.7492063 0.52096599 6
9.391798 -3.7431474 0.34122089 18
8.7619038 -4.2545524 0.27087846 43
13.766863 -4.3591743 0.3166064 43
9.3364944 -3.7211058 0.16104747 14
8.7864294 -4.2664618 0.098878883 48
13.815809 -4.3746724 0.061209634 47
9.3191023 -3.7141738 -0.016633678 16
8.7974253 -4.271801 -0.073738769 45
13.845189 -4.3839755 -0.19518268 36
9.4028177 -3.7475393 -0.19576822 16
8.8056641 -4.2758017 -0.247099 43
13.854981 -4.3870764 -0.45240045 39
9.3647032 -3.7323484 -0.37370855 13
8.7787828 -4.2627482 -0.41926119 54
10.040153 -3.1791394 -0.51415294 3
9.323719 -3.7160141 -0.54973155 18
8.7851372 -4.2658339 -0.59218556 20
9.0330248 -2.8602397 -0.63049448 13
9.2725019 -3.6956015 -0.72338641 34
8.7959061 -4.2710629 -0.7661137 11
8.6904573 -2.7517684 -0.76787138 17
9.3628817 -3.7316225 -0.9087581 23
8.8146858 -4.2801819 -0.94111133 5
8.6307402 -2.7328594 -0.92293054 1
9.3207922 -3.7148476 -1.0822244 24
9.275979 -3.6969869 -1.2540342 20
9.2249022 -3.67663 -1.4228811 22
8.9986401 -3.5864522 -1.5611465 7
8.1749983 -3.2581856 -1.5739228 4
7.5069208 -2.9919202 -1.5894191 4
