# .PCD v0.7 - Point Cloud Data file format
VERSION 0.7
FIELDS x y z intensity
SIZE 4 4 4 4
TYPE F F F F
COUNT 1 1 1 1
WIDTH 1359
HEIGHT 1
VIEWPOINT 0 0 0 1 0 0 0
POINTS 1359
DATA ascii
-6.8769784 3.7385585 -1.9552413 6
-4.8982868 2.6628747 -1.9179929 5
-3.5547016 1.9324563 -1.8860031 4
-2.0546353 1.1356239 0.61968964 12
-3.2791433 1.8124256 0.72400784 11
-4.8088408 2.6579094 0.76868027 0
-6.1767612 3.4139769 0.61273074 19
-8.8664179 4.9005857 0.52117151 2
-11.150845 6.163218 0.43000039 32
-5.3961735 3.5177209 0.17914006 25
-12.534609 5.783843 0.30266556 9
-11.124259 6.1485238 0.2036645 18
-5.3979831 3.5189004 0.065230913 25
-18.417645 8.4984512 0.085673213 49
-11.101165 6.1357598 -0.021030858 14
-5.3914046 3.5146122 -0.04852584 28
-18.423409 8.501111 -0.2726967 34
-11.186609 6.1829858 -0.24720477 18
-5.3596921 3.4939392 -0.16150261 23
-18.419783 8.4994373 -0.63149375 33
-11.156532 6.1663618 -0.47254425 19
-5.3798933 3.5071082 -0.27590203 32
-18.355995 8.4700041 -0.98695517 40
-11.150983 6.1632948 -0.69782877 19
-5.3783278 3.5060878 -0.38930267 24
-18.359047 8.4714127 -1.3454444 50
-11.110552 6.1409478 -0.91999024 17
-5.3784256 3.5061512 -0.50303549 23
-9.1673584 4.2300925 -0.85046709 8
-7.5138426 4.1529994 -0.77406079 6
-5.3668623 3.4986131 -0.61529791 29
-18.377037 8.4797134 -2.0633075 33
-11.186834 6.1831102 -1.3786243 21
-11.157077 6.1666627 -1.6009371 18
-11.134501 6.1541848 -1.8228537 22
-11.201706 6.19133 -2.0626481 10
-9.9008284 5.4723182 -2.0232127 3
-8.9242229 4.9325352 -2.0054934 3
-8.0921021 4.472611 -1.9823145 4
-7.4102945 4.095767 -1.9654725 4
-6.8507104 3.7864776 -1.9552413 5
-4.8663354 2.6896875 -1.912788 6
-3.5474696 1.9607331 -1.889383 5
-2.050029 1.1518348 0.62071055 9
-3.2732582 1.8391217 0.72552574 13
-4.8108897 2.7030594 0.7720055 0
-6.1840444 3.4745839 0.61584461 17
-8.8877125 4.9936743 0.52445966 2
-10.96465 6.1606278 0.42446855 21
-5.3214693 3.5222042 0.17747208 25
-12.540977 5.8933206 0.30380538 9
-10.938104 6.1457124 0.20103697 16
-5.3199186 3.5211778 0.064583056 27
-18.426649 8.6591454 0.085994214 46
-10.915082 6.1327772 -0.020758936 14
-5.3033628 3.5102198 -0.04795282 29
-18.414291 8.6533384 -0.27344927 35
-11.01068 6.1864905 -0.24426553 19
-5.285152 3.4981663 -0.15998852 27
-18.399801 8.6465292 -0.63286281 33
-10.984271 6.1716523 -0.46706161 21
-5.3152885 3.5181134 -0.27384177 32
-18.336191 8.6166372 -0.98910075 42
-10.950992 6.1529541 -0.68798476 18
-5.283802 3.4972727 -0.38421848 20
-18.360867 8.628233 -1.3499594 48
-10.942197 6.1480122 -0.90958178 16
-5.2939601 3.5039964 -0.49741152 25
-8.9788761 4.2193999 -0.8356939 8
-7.3665781 4.1390052 -0.76184821 4
-5.2925024 3.5030313 -0.60956174 27
-18.385822 8.6399603 -2.0710156 36
-10.990842 6.175344 -1.3597509 23
-10.95113 6.1530313 -1.5775112 16
-10.946281 6.1503072 -1.7990255 21
-11.051481 6.2094154 -2.0429189 18
-9.8555174 5.5374475 -2.0218041 3
-8.8587742 4.9774151 -1.998546 3
-8.0538597 4.5251637 -1.9806374 4
-7.3883138 4.1512179 -1.9672815 4
-6.8274922 3.8361132 -1.9562107 6
-4.8507366 2.7254481 -1.9140893 6
-3.5242124 1.9801234 -1.8843131 5
-2.0486548 1.1699545 0.62275237 10
-3.2876222 1.8775095 0.73159707 13
-4.7712617 2.7247927 0.76868027 0
-6.1803994 3.5295293 0.61792046 22
-8.9393559 5.1051259 0.52959734 2
-10.799871 6.1676369 0.41974622 20
-5.2370129 3.5191269 0.17547053 25
-12.531996 5.9962578 0.30459449 9
-10.752538 6.1406054 0.19840947 18
-5.2420888 3.5225379 0.063935198 28
-18.40905 8.8082857 0.086196952 45
-10.736536 6.1314669 -0.020500278 23
-5.2355685 3.5181565 -0.047560751 26
-18.41116 8.8092957 -0.27430934 32
-10.831782 6.1858606 -0.24124895 20
-5.1975412 3.4926031 -0.15807068 25
-18.393089 8.8006487 -0.63472962 36
-10.809015 6.1728592 -0.46143079 22
-5.2507944 3.5283878 -0.27178153 28
-18.358484 8.784091 -0.9935869 41
-10.775975 6.1539903 -0.67967206 19
-5.1996069 3.4939911 -0.37986064 26
-18.364992 8.7872057 -1.3547398 47
-10.753504 6.1411576 -0.89743865 21
-5.2131004 3.5030587 -0.49209997 26
-8.7981911 4.209722 -0.82159215 8
-7.2302599 4.1290879 -0.75071323 2
-5.2216501 3.5088036 -0.60420799 28
-18.378902 8.7938614 -2.0771008 38
-10.816231 6.17698 -1.343451 21
-10.773498 6.152575 -1.5580727 17
-10.768981 6.1499963 -1.7768995 21
-10.853546 6.1982899 -2.0142798 19
-9.8132 5.6041646 -2.0211 3
-8.8272181 5.0410857 -1.9993179 3
-8.0118837 4.5754614 -1.9781218 4
-7.3557701 4.2007651 -1.9663769 4
-6.7904353 3.8779111 -1.9533025 6
-4.8315916 2.7592461 -1.9140893 6
-3.5197477 2.0100727 -1.889383 7
-2.0370924 1.1822859 0.62173146 9
-3.2846255 1.9063282 0.73387378 14
-4.7247148 2.742126 0.76424664 0
-6.1900754 3.5925906 0.62138027 20
-7.6251554 4.4254808 0.45355895 5
-10.621707 6.1646171 0.41448423 23
-5.1660728 3.5240569 0.17391375 26
-12.536568 6.1063666 0.30573431 9
-10.595258 6.1492667 0.19629464 19
-5.1645012 3.5229847 0.063287348 28
-18.429817 8.9768772 0.086585529 50
-10.579306 6.1400084 -0.020281414 19
-5.151402 3.5140491 -0.047017891 27
-18.424721 8.9743948 -0.27543819 36
-10.660357 6.1870484 -0.23838706 28
-5.1300874 3.4995096 -0.15675847 26
-18.410276 8.9673586 -0.63746768 34
-10.648117 6.1799445 -0.45639268 33
-5.1699104 3.5266747 -0.26886284 29
-18.354181 8.9400358 -0.99670774 46
-10.622212 6.1649103 -0.67267191 29
-5.1388054 3.5054564 -0.37719747 26
-18.364197 8.9449148 -1.3592547 46
-10.603406 6.153995 -0.88847578 28
-5.1325145 3.5011652 -0.48678839 27
-8.5930014 4.1855173 -0.8051402 6
-7.1426845 4.1454649 -0.74460697 0
-5.1378198 3.5047841 -0.59732461 29
-18.377882 8.95158 -2.0839975 35
-10.65246 6.1824656 -1.3284379 34
-10.620442 6.1638832 -1.5421231 29
-10.588803 6.1455207 -1.7542059 22
-10.697302 6.2084904 -1.9932779 17
-9.7704334 5.6705556 -2.0203958 4
-8.7884178 5.1006145 -1.998546 3
-7.9797482 4.6312795 -1.9781218 4
-7.322896 4.2500558 -1.9654725 4
-6.7564859 3.9213235 -1.9513638 6
-4.8187547 2.7967048 -1.9166917 6
-3.4899518 2.0254951 -1.8809332 6
-2.0454457 1.206302 0.626836 9
-3.2780027 1.9332029 0.73539162 15
-4.6542726 2.7448585 0.75593358 1
-6.1820064 3.6458399 0.62311018 22
-7.5631056 4.4603434 0.45170936 4
-10.454445 6.1655116 0.40962699 19
-5.0920348 3.5258937 0.17224579 26
-12.543792 6.2186065 0.3069618 9
-10.431495 6.1519766 0.19405164 20
-5.0838771 3.5202451 0.062598996 30
-18.420454 9.1319723 0.086838953 47
-10.415592 6.1425982 -0.020049285 19
-5.0774164 3.5157714 -0.046565507 28
-18.411789 9.127676 -0.27619073 36
-10.492889 6.1881843 -0.23560253 29
-5.0595059 3.5033696 -0.15534532 28
-18.408117 9.1258564 -0.63958347 32
-10.487648 6.1850934 -0.45135459 33
-5.0991659 3.5308313 -0.2664592 30
-18.359331 9.1016703 -1.0004137 46
-10.455064 6.1658764 -0.66479671 27
-5.0748167 3.5139711 -0.37429225 27
-18.358515 9.1012659 -1.3635041 51
-10.433036 6.1528854 -0.87777823 29
-5.0653257 3.5073993 -0.48272663 28
-8.4385815 4.1834412 -0.79338878 3
-10.507357 6.1967163 -1.0998487 26
-5.0706711 3.5111005 -0.59235328 30
-18.39694 9.1203146 -2.0933282 39
-10.475442 6.1778941 -1.3117092 31
-10.4575 6.1673131 -1.5246782 28
-10.433091 6.1529183 -1.7354838 23
-10.514235 6.2007723 -1.9671845 21
-9.7136488 5.7286267 -2.0168746 4
-8.7255487 5.1458945 -1.9923705 3
-7.9438524 4.6848888 -1.9772832 4
-7.2796216 4.2931585 -1.9618545 4
-6.7322884 3.9703686 -1.9523332 6
-4.7860808 2.8225923 -1.9114869 6
-3.4757261 2.0498104 -1.8809332 7
-2.0701497 1.2404313 0.63704503 8
-3.2880082 1.9701707 0.74070406 13
-4.6519871 2.7874651 0.7587046 2
-6.1940045 3.7114403 0.62691593 18
-7.4906621 4.4883962 0.44924325 2
-10.294553 6.1684842 0.40503961 24
-5.0214987 3.5291667 0.17068902 29
-12.560769 6.336648 0.30845234 9
-10.261353 6.148591 0.19168046 19
-5.0199103 3.5280502 0.062113106 30
-18.424105 9.2945795 0.087159947 48
-10.248932 6.1411481 -0.019810524 22
-5.0102077 3.5212309 -0.046173438 28
-18.415464 9.2902203 -0.27721208 36
-10.336224 6.1934533 -0.23305005 31
-4.9858532 3.5041144 -0.15383124 27
-18.418921 9.2919636 -0.64219707 29
-10.317346 6.1821413 -0.44587195 34
-5.0188107 3.5272775 -0.26354051 11
-18.352415 9.2584133 -1.0035344 43
-10.284999 6.1627593 -0.65670282 28
-4.9978976 3.5125794 -0.37041858 5
-18.372925 9.2687607 -1.3693469 51
-10.273472 6.1558523 -0.86794806 29
-4.9787283 3.4991071 -0.47679019 26
-8.2561464 4.1650548 -0.77895129 0
-10.344234 6.1982527 -1.0872771 31
-4.9906578 3.5074914 -0.58585232 32
-18.386112 9.2754126 -2.0994134 41
-10.322891 6.1854644 -1.2979829 32
-10.291629 6.1667323 -1.506735 29
-10.257418 6.1462331 -1.7133577 24
-10.338575 6.1948628 -1.9423641 20
-9.6801739 5.8003492 -2.0182831 3
-8.6927776 5.2087021 -1.9931425 2
-7.904242 4.7362127 -1.9756062 4
-7.2494717 4.3438749 -1.9618545 4
-6.6877608 4.0072985 -1.9474863 6
-4.7662587 2.8559365 -1.9114869 7
-3.4644408 2.0758889 -1.8826232 7
-2.0515285 1.2488204 0.6339823 6
-3.2775285 1.9951196 0.74146301 15
-4.622262 2.8136947 0.75704199 3
-5.7322383 3.489367 0.58263052 23
-5.7666764 3.5103307 0.34731066 2
-5.7710161 3.5129724 0.2280203 17
-4.9479098 3.5293086 0.16902104 29
-12.050158 6.1849666 0.29696646 22
-5.7428141 3.495805 0.10772814 14
-4.9398003 3.5235243 0.061424762 29
-12.028036 6.1736121 0.057104211 24
-5.7469602 3.4983289 -0.011155441 20
-4.9236312 3.511991 -0.045600418 30
-11.977241 6.1475406 -0.18093772 18
-10.17317 6.1926813 -0.23034286 27
-4.9124365 3.5040061 -0.15231715 26
-11.92984 6.1232114 -0.41742808 20
-5.7976537 3.5291874 -0.2516087 0
-4.9355006 3.5204575 -0.26045012 5
-12.042271 6.1809182 -0.66083086 17
-5.7554259 3.5034821 -0.36903983 14
-4.9212451 3.510289 -0.36654493 5
-12.015805 6.1673346 -0.8987335 29
-5.7387519 3.4933321 -0.48688358 28
-4.918467 3.5083075 -0.4733533 32
-11.992787 6.1555204 -1.135523 23
-10.188412 6.2019596 -1.0754236 30
-4.9174256 3.5075648 -0.58011615 31
-11.959041 6.1381993 -1.3703997 23
-10.167355 6.1891413 -1.2838279 27
-10.136453 6.1703305 -1.4902871 16
-5.7362194 3.4917908 -0.9622035 13
-10.193879 6.2052875 -1.9232714 27
-9.6394444 5.8677883 -2.0182831 4
-8.6696119 5.2774253 -1.9962302 2
-5.712811 3.4775414 -1.4339077 5
-7.2089844 4.3883023 -1.9591409 4
-6.6629362 4.0559082 -1.9484557 6
-4.755897 2.8950419 -1.9153905 6
-3.4498639 2.1000247 -1.8826232 8
-2.0592077 1.2732824 0.63908684 6
-3.2768817 2.0262144 0.74449867 13
-4.6328301 2.8646462 0.76202983 5
-5.6501184 3.4936724 0.57674885 22
-5.6740761 3.5084863 0.34320047 22
-5.6851468 3.5153317 0.22559167 20
-4.8680887 3.5239077 0.16713068 30
-11.843618 6.1838012 0.29293326 23
-5.6570387 3.4979513 0.10657459 16
-4.8697214 3.5250895 0.060857888 28
-11.828629 6.1759753 0.056360845 26
-5.661159 3.5004992 -0.011036061 20
-4.8503919 3.5110972 -0.045148034 17
-11.774486 6.1477056 -0.17851877 17
-5.690722 3.5187788 -0.12940349 31
-4.8489852 3.5100789 -0.15110588 26
-11.741494 6.1304803 -0.41232535 20
-5.6810794 3.5128167 -0.24760784 33
-4.8654828 3.5220213 -0.25804651 4
-11.842997 6.1834769 -0.65224862 23
-5.6730766 3.5078683 -0.36532101 28
-4.8675108 3.5234892 -0.36436599 6
-11.823862 6.1734858 -0.88757902 28
-5.6531458 3.4955442 -0.48167935 28
-4.8550916 3.5144992 -0.46960396 29
-11.783458 6.15239 -1.1197425 22
-5.6925101 3.5198846 -0.60344416 27
-4.854115 3.5137923 -0.57552725 31
-11.753632 6.1368175 -1.3517383 23
-5.6691127 3.5054171 -0.71890926 33
-5.6744313 3.5087059 -0.83785033 31
-5.667922 3.5046809 -0.95482814 29
-5.7032518 3.5265267 -1.0806469 31
-5.6799102 3.5120935 -1.1943504 31
-5.674922 3.5090094 -1.3122936 26
-5.6584554 3.4988272 -1.4263608 29
-5.6835489 3.5143435 -1.5512127 25
-5.6805491 3.5124886 -1.6683046 32
-4.7162671 2.9162385 -1.9075832 6
-3.4382024 2.1259649 -1.8843131 8
-2.0764697 1.3040828 0.64725411 5
-3.2959146 2.0699291 0.75208783 13
-4.6362009 2.9116676 0.76590925 5
-5.5715957 3.4991224 0.57121319 21
-5.6020832 3.5182695 0.34032333 17
-5.5995288 3.516665 0.22316305 20
-4.801476 3.5270345 0.1656851 27
-11.648285 6.1856842 0.28916311 25
-5.578289 3.5033262 0.10554922 16
-4.812757 3.5353212 0.060452979 29
-11.619186 6.1702313 0.055566791 26
-5.5688357 3.4973891 -0.010903415 22
-4.7870779 3.516458 -0.044786125 16
-11.579384 6.1490946 -0.17620733 20
-5.6050558 3.5201364 -0.12801123 26
-4.7695761 3.5036016 -0.14938992 27
-11.546575 6.1316719 -0.40697372 22
-5.6022563 3.5183783 -0.24523698 35
-4.7956853 3.5227809 -0.25564289 4
-11.64781 6.185432 -0.64386147 24
-5.5774207 3.5027807 -0.36072716 24
-4.784873 3.5148382 -0.36000812 4
-11.618325 6.1697745 -0.87536216 26
-5.567791 3.496733 -0.47647515 27
-4.7790151 3.5105352 -0.46460485 31
-11.581805 6.1503806 -1.1046336 22
-5.6171923 3.5277584 -0.59805626 31
-4.7717042 3.5051649 -0.56864387 33
-11.562891 6.1403365 -1.3346995 25
-5.6040878 3.5195284 -0.71376199 34
-5.5825782 3.5060196 -0.82788187 29
-5.5695477 3.4978361 -0.94234669 27
-5.6049199 3.520051 -1.0666455 29
-5.5818944 3.5055902 -1.1788576 30
-5.5871358 3.508882 -1.2976269 30
-5.570961 3.4987237 -1.4104285 25
-5.6159806 3.5269973 -1.5394542 23
-5.5868745 3.508718 -1.6479475 27
-4.6861839 2.9430583 -1.9036795 7
-3.4079258 2.1402755 -1.8758633 9
-1.9988393 1.2748733 0.62581509 3
-3.2880058 2.0971124 0.75360566 12
-4.6157608 2.9439635 0.76590925 5
-5.4865551 3.499362 0.56498551 20
-5.5133934 3.5164795 0.33641866 20
-5.5141721 3.5169761 0.22073443 22
-4.731854 3.5270152 0.16412833 28
-11.446475 6.181345 0.28521758 22
-5.5064874 3.5120749 0.10465202 16
-4.7366476 3.5305884 0.059805125 32
-11.417447 6.1656694 0.054806527 26
-5.4869523 3.4996154 -0.010790667 23
-4.7239275 3.5211072 -0.044424217 15
-11.402441 6.1575661 -0.17416465 19
-5.5263953 3.5247724 -0.12677366 25
-4.7065272 3.5081372 -0.14817865 25
-11.345181 6.1266441 -0.40137315 21
-5.5067844 3.5122643 -0.24212521 27
-4.729321 3.5251272 -0.25341094 4
-11.463729 6.1906629 -0.63605946 24
-5.4888501 3.5008259 -0.35657081 34
-4.7282057 3.5242958 -0.3575871 4
-11.420449 6.1672912 -0.86367655 24
-5.4826984 3.4969022 -0.47127092 28
-4.7224178 3.5199819 -0.46148041 33
-11.391284 6.1515408 -1.0905318 22
-5.5218921 3.5219002 -0.59051317 33
-4.7088084 3.5098376 -0.56405497 33
-11.365679 6.1377134 -1.3168495 21
-5.5156736 3.5179338 -0.705612 39
-5.4977345 3.5064924 -0.81891024 30
-5.4982557 3.5068247 -0.93440402 30
-5.533596 3.5293651 -1.0577356 31
-5.5074887 3.5127134 -1.1682943 29
-5.5029407 3.5098126 -1.2837319 29
-5.4936395 3.5038805 -1.3970119 25
-5.5386591 3.5325942 -1.5249823 24
-5.5098925 3.5142467 -1.6324375 29
-4.6655231 2.9757023 -1.9036795 6
-3.4142976 2.1776621 -1.887693 9
-4.6679645 3.0233109 1.468062 7
-3.2798779 2.1242859 0.7551235 11
-4.62502 2.995497 0.77089709 6
-5.3950958 3.4942536 0.55806589 23
-5.4283566 3.5157959 0.3327195 20
-5.4324422 3.5184419 0.21844074 23
-4.6592789 3.5237856 0.16246036 28
-11.269838 6.1879611 0.2818858 22
-5.4180532 3.5091226 0.10343439 16
-4.6704121 3.5322056 0.059278741 30
-11.226866 6.1643658 0.054096948 23
-5.4120264 3.5052195 -0.010691184 23
-4.6641378 3.5274603 -0.044092465 30
-11.190893 6.1446142 -0.17158444 15
-5.4378757 3.521961 -0.12530404 29
-4.6340814 3.5047288 -0.14666456 29
-11.165459 6.1306486 -0.39651933 17
-5.4284492 3.5158558 -0.23975433 34
-4.6727214 3.5339522 -0.25169408 5
-11.252133 6.1782393 -0.62669706 20
-5.3972297 3.495636 -0.35219571 25
-4.6589036 3.5235016 -0.35419765 5
-11.223184 6.1623435 -0.85199088 25
-5.3911805 3.4917178 -0.46548846 25
-4.6436586 3.511972 -0.45616886 28
-11.201321 6.1503396 -1.0764301 17
-5.4436698 3.5257137 -0.58476609 32
-4.6492577 3.5162065 -0.55984843 31
-11.176052 6.1364655 -1.2998108 16
-5.4375715 3.521764 -0.69874895 37
-5.4231529 3.5124254 -0.81143385 31
-5.4104943 3.5042272 -0.92362458 32
-5.4458447 3.5271223 -1.0456436 31
-5.4200373 3.5104077 -1.1549143 30
-5.4157128 3.5076067 -1.2690651 29
-5.4099545 3.5038774 -1.3819181 26
-5.4451838 3.5266943 -1.5059879 24
-5.4265933 3.5146537 -1.6149886 28
-4.6509843 3.0123134 -1.9062819 6
-3.3837965 2.191591 -1.8792433 9
-4.6596694 3.0643258 1.4721457 7
-3.2912185 2.1643951 0.76119488 9
-4.6470227 3.0560091 0.77810174 5
-5.3206267 3.4989893 0.55287623 22
-5.3536143 3.5206828 0.32963684 19
-5.3543038 3.5211363 0.21628197 22
-4.6060147 3.5343206 0.16145957 29
-11.072721 6.1807261 0.27802795 21
-5.3366146 3.5095036 0.10234493 16
-4.5980396 3.5282011 0.058671378 32
-11.040357 6.1626606 0.053404264 23
-5.3372927 3.5099492 -0.0105917 23
-4.5981445 3.5282815 -0.043700401 29
-11.004535 6.1426644 -0.1693805 16
-5.3630333 3.5268769 -0.12414382 29
-4.5682597 3.5053499 -0.14535235 28
-10.982745 6.1305022 -0.39154106 16
-5.3603544 3.5251153 -0.237828 32
-4.594038 3.5251303 -0.24877538 4
-11.083139 6.1865411 -0.61967522 20
-5.3126268 3.4937282 -0.34825811 29
-4.5898452 3.5219131 -0.3508082 6
-11.040488 6.162734 -0.84136754 20
-5.3066721 3.4898124 -0.46028423 28
-4.5747352 3.5103188 -0.45179462 30
-11.015415 6.1487379 -1.0626642 18
-5.3523517 3.5198524 -0.57758224 35
-4.5772133 3.5122204 -0.55411232 31
-7.3594151 4.1079807 -0.85923821 2
-5.3463964 3.5159361 -0.69017005 37
-5.3421273 3.5131285 -0.80296069 32
-5.3362741 3.5092795 -0.91511452 29
-5.3649964 3.528168 -1.0348244 32
-5.3427601 3.5135448 -1.1436468 28
-5.3451838 3.5151386 -1.258258 30
-5.333076 3.5071764 -1.3685014 27
-5.3715978 3.5325091 -1.4924204 25
-5.3532872 3.5204678 -1.6004479 28
-4.6266809 3.0426316 -1.9049808 6
-3.3744719 2.2191448 -1.8826232 9
-4.6510301 3.1053698 1.4762293 4
-3.2988927 2.2025833 0.76650727 9
-4.6156921 3.0817757 0.77643913 3
-5.2397299 3.4984291 0.54699457 23
-5.2691059 3.5180428 0.32593769 17
-5.2697468 3.5184708 0.21385334 22
-4.5465221 3.5393722 0.16023639 30
-10.897132 6.1828861 0.27469617 21
-5.2487869 3.5044763 0.1011273 17
-4.5259533 3.52336 0.058064014 30
-10.868342 6.1665516 0.05277916 20
-5.2494535 3.5049212 -0.010465687 24
-4.5229006 3.5209835 -0.043217856 29
-10.829192 6.1443381 -0.16733783 13
-5.2750874 3.5220363 -0.1226742 28
-4.5152779 3.5150495 -0.1444439 28
-10.814495 6.1359992 -0.38706061 16
-5.2757769 3.5224967 -0.23516077 34
-4.5377817 3.5325682 -0.24705851 5
-10.900684 6.1849017 -0.61187321 19
-5.244926 3.5018985 -0.34541431 28
-4.5241885 3.521986 -0.34766084 5
-10.865285 6.1648169 -0.8312754 22
-5.2324119 3.4935429 -0.4559474 26
-4.5123563 3.5127749 -0.44804528 31
-10.830084 6.1448441 -1.0488982 13
-5.2878909 3.5305848 -0.57327193 33
-4.5117373 3.5122931 -0.54914093 32
-7.2267246 4.1003461 -0.84706765 6
-5.2688022 3.5178399 -0.68330699 36
-5.267961 3.5172784 -0.7954843 30
-5.2589583 3.5112674 -0.90603715 31
-5.2811189 3.5260634 -1.0233687 32
-5.2624326 3.513587 -1.1316751 30
-5.2650247 3.5153177 -1.2451351 30
-5.2596722 3.511744 -1.3559233 24
-5.2884779 3.530977 -1.4761394 26
-5.2672591 3.5168095 -1.5820297 28
-4.5895991 3.0643542 -1.8984747 6
-3.3498528 2.2366083 -1.8775532 8
-4.6484461 3.1507843 1.4823548 1
-3.2899373 2.2299674 0.7680251 8
-4.6399732 3.1450412 0.78419799 1
-5.1558027 3.494678 0.54076689 23
-5.1882033 3.5166397 0.32244402 19
-5.2020359 3.5260153 0.21209934 21
-4.4683576 3.528898 0.15834603 29
-10.73245 6.1888924 0.27162743 21
-5.1778445 3.509618 0.10023011 16
-4.4761343 3.5350397 0.057740085 32
-10.696818 6.1683445 0.052154053 29
-5.1785021 3.5100639 -0.010372836 25
-4.4668193 3.527683 -0.042916264 29
-10.664763 6.1498604 -0.16545643 19
-5.1974034 3.5228755 -0.12143663 29
-4.4404187 3.5068333 -0.14282887 30
-10.646709 6.1394491 -0.38258019 26
-5.2047334 3.527844 -0.23308626 28
-4.4785109 3.5369165 -0.24516994 4
-10.701493 6.1710405 -0.60309595 26
-5.1806774 3.5115385 -0.34278923 29
-4.4618897 3.5237901 -0.34475559 6
-10.694055 6.1667509 -0.8214488 31
-5.1451492 3.487457 -0.45045406 27
-4.4407802 3.5071187 -0.44335863 33
-10.683333 6.1605687 -1.0388256 24
-5.1971602 3.5227108 -0.56608808 35
-4.4433608 3.5091567 -0.54378724 30
-7.1013989 4.0950379 -0.83570856 9
-5.1914434 3.5188358 -0.67644387 36
-5.1808581 3.5116608 -0.78601426 32
-5.1785979 3.5101287 -0.89639241 30
-5.2073407 3.5296111 -1.0138224 31
-5.1888852 3.5171018 -1.1211119 29
-5.1948714 3.5211592 -1.2343279 28
-5.1702776 3.5044894 -1.3391525 26
-5.199192 3.5240879 -1.4580495 24
-5.1976056 3.5230124 -1.5684583 28
-4.5680943 3.0963209 -1.8984747 6
-3.3311558 2.257906 -1.8758633 8
-4.6231494 3.1809676 1.4813339 0
-3.3228207 2.2862737 0.77940887 5
-4.6179032 3.1773579 0.78419799 1
-5.0820346 3.4967046 0.53557718 26
-5.1174521 3.5210736 0.31956691 19
-5.121304 3.5237236 0.20980565 23
-4.4092889 3.532505 0.15712285 29
-10.547521 6.1807728 0.26803264 22
-5.0972028 3.5071409 0.099140644 17
-4.4138889 3.5361905 0.057254195 30
-10.51545 6.1619797 0.051478263 27
-5.1011453 3.5098536 -0.010266719 24
-4.3983817 3.5237668 -0.04249404 28
-10.511144 6.1594558 -0.16373628 20
-5.116672 3.5205367 -0.12012171 31
-4.3846231 3.5127439 -0.14181948 30
-10.475959 6.1388378 -0.37797529 26
-5.1207023 3.5233099 -0.23041902 32
-4.4131665 3.5356116 -0.242938 5
-10.558187 6.1870227 -0.59743947 24
-5.1000991 3.5091338 -0.33907041 28
-4.3997908 3.5248957 -0.34185037 6
-10.533662 6.1726518 -0.812419 26
-5.0746627 3.491632 -0.44640633 28
-4.3788433 3.5081136 -0.43960929 33
-10.512824 6.1604404 -1.0264026 23
-5.12321 3.5250351 -0.56070018 35
-4.3845744 3.5127051 -0.5395807 34
-6.9593368 4.0781221 -0.822321 10
-5.1143293 3.5189247 -0.66958076 36
-5.1071706 3.5139992 -0.77853793 32
-5.1050358 3.5125306 -0.88788235 30
-5.1240115 3.5255868 -1.0023668 30
-5.1123028 3.5175302 -1.1098444 31
-5.1119614 3.5172956 -1.2204331 29
-5.1005759 3.5094619 -1.3274128 27
-5.1391525 3.5360045 -1.4481 25
-5.1089416 3.5152178 -1.5490707 28
-4.5401344 3.1238489 -1.8958722 6
-3.3242714 2.2872717 -1.8809332 8
-1.7375979 1.2135181 0.55945623 4
-3.5579267 2.4848144 0.83860451 3
-4.5956087 3.2095194 0.78419799 0
-5.0117602 3.5001547 0.53073347 24
-5.0370698 3.5178306 0.31607324 19
-5.034306 3.5159004 0.20724212 21
-4.3503866 3.5354626 0.15589967 25
-10.380415 6.1806059 0.26487622 21
-5.0266891 3.5105808 0.098243445 17
-4.3425336 3.5290804 0.056646831 29
-10.365632 6.171804 0.050954528 25
-5.0207682 3.5064456 -0.010153972 24
-4.3333206 3.5215933 -0.042101972 28
-10.344169 6.1590247 -0.16180111 22
-5.0493455 3.5264039 -0.11911619 29
-4.3289604 3.5180497 -0.14081009 29
-10.316048 6.1422811 -0.37374374 25
-5.046823 3.5246422 -0.22819634 32
-4.3418555 3.5285296 -0.24036269 34
-10.387722 6.1849566 -0.5902226 26
-5.0427318 3.5217848 -0.33688286 8
-4.337893 3.5253091 -0.33894512 32
-10.370286 6.1745749 -0.80312353 26
-5.0043716 3.4949944 -0.44235861 32
-4.3202033 3.5109332 -0.4361724 31
-10.359966 6.1684308 -1.0156585 25
-5.0560155 3.5310621 -0.55603069 34
-4.3228645 3.5130959 -0.5349918 37
-6.8349595 4.0696054 -0.81096184 11
-5.0472517 3.5249414 -0.6640045 37
-5.0239449 3.5086644 -0.7695663 32
-5.0252032 3.5095432 -0.87823766 29
-5.0571852 3.5318789 -0.9940933 31
-5.032742 3.5148082 -1.0978727 31
-5.0390153 3.5191894 -1.208854 27
-5.0182338 3.5046756 -1.312319 28
-5.0664248 3.5383317 -1.4345325 27
-5.0397334 3.519691 -1.5354993 28
-4.5306196 3.1641316 -1.9010772 6
-3.3022778 2.3062723 -1.8775532 8
-1.7353941 1.2300922 0.56149805 6
-3.5789413 2.5368462 0.8477115 3
-4.5827856 3.2483969 0.7858606 0
-4.9319329 3.4958818 0.5248518 30
-4.9667616 3.5205688 0.31319612 20
-4.9704995 3.5232186 0.20562303 22
-4.2824044 3.5301411 0.15434289 29
-10.224096 6.1846194 0.26198283 22
-4.9563766 3.5132079 0.097346246 17
-4.2838402 3.5313251 0.056201432 33
-10.202504 6.1715584 0.050363213 25
-4.9504795 3.5090277 -0.01006112 23
-4.2777653 3.5263171 -0.041800383 29
-10.187985 6.1627755 -0.16002722 14
-4.9756622 3.5268781 -0.11795596 29
-4.261097 3.5125768 -0.13939694 30
-5.7744527 3.4930022 -0.21008307 7
-4.9731765 3.5251162 -0.22597365 34
-4.2924466 3.5384192 -0.23898919 33
-10.221225 6.1828823 -0.58320081 26
-4.9300437 3.4945424 -0.33097646 4
-4.2762055 3.5250313 -0.33603987 31
-10.207403 6.1745214 -0.79382813 28
-4.944047 3.5044682 -0.43917823 30
-4.2648168 3.5156431 -0.43304795 31
-10.183642 6.1601486 -1.0025641 21
-4.9727383 3.5248055 -0.5495652 34
-4.2644372 3.5153301 -0.53078526 35
-6.7246642 4.0677915 -0.80122542 11
-4.9641185 3.5186954 -0.65628356 36
-4.9539967 3.5115209 -0.76258832 32
-4.9488935 3.5079038 -0.86916023 29
-4.9872994 3.5351267 -0.98518336 32
-4.9598961 3.5157025 -1.0873095 30
-4.947082 3.5066197 -1.1926433 30
-4.9489722 3.5079596 -1.3005794 28
-4.9939165 3.5398171 -1.4209651 25
-4.961215 3.5166376 -1.5190198 29
-4.4960761 3.1869349 -1.8958722 7
-3.3008854 2.3397529 -1.8860031 9
-1.7361829 1.2489531 0.56456071 7
-3.503757 2.520488 0.83405101 4
-4.5567799 3.2779982 0.78530639 0
-4.868588 3.5023026 0.52070004 31
-4.8934197 3.5201659 0.31011346 22
-4.8971028 3.5228152 0.20359918 22
-4.2239127 3.531739 0.15311971 29
-5.7206645 3.51525 0.14721189 23
-4.8830285 3.5126908 0.096384957 17
-4.2314663 3.5380547 0.055837013 33
-5.7151723 3.5118752 0.028332474 26
-4.8771544 3.5084653 -0.0099616367 23
-4.2223568 3.5304382 -0.041498791 27
-5.704484 3.5053074 -0.089985073 27
-4.8989749 3.5241621 -0.11671839 32
-4.1935234 3.5063295 -0.1379838 32
-5.6817989 3.4913678 -0.20759393 26
-4.9030175 3.52707 -0.22389914 34
-4.2155204 3.5247219 -0.2360705 32
-5.7254443 3.518187 -0.32807484 24
-4.8666201 3.5008869 -0.32835141 5
-4.2116728 3.5215049 -0.33289251 30
-5.7128134 3.5104256 -0.44617975 27
-4.8644037 3.4992929 -0.43426314 38
-4.1881614 3.5018461 -0.4277364 32
-5.691658 3.497426 -0.56272519 28
-4.9027333 3.5268657 -0.54453647 33
-4.2031364 3.5143673 -0.52619636 36
-5.6959243 3.5000477 -0.68154871 21
-4.8974633 3.5230746 -0.65070724 39
-4.8906989 3.5182087 -0.75660723 32
-4.8824978 3.5123091 -0.86178488 28
-4.9080005 3.5306547 -0.97436416 32
-4.890481 3.5180519 -1.0774505 32
-4.8906198 3.5181515 -1.184924 30
-4.8830872 3.5127327 -1.2896785 27
-4.9184742 3.5381894 -1.4064932 27
-4.8924394 3.5194607 -1.5054486 31
-4.4737172 3.2182457 -1.8958722 6
-3.2638686 2.3479202 -1.8741733 9
-1.7461637 1.2747259 0.57068616 8
-3.4924195 2.5495191 0.83556885 4
-4.5529819 3.3237455 0.78863162 1
-4.802177 3.5056615 0.51620233 28
-4.8267813 3.5236232 0.30744186 20
-4.8304138 3.5262749 0.20184518 22
-4.1686587 3.5352798 0.15200774 30
-5.6484895 3.5254586 0.14598441 24
-4.8228536 3.5207558 0.095680013 16
-4.1609049 3.5287042 0.055229649 32
-5.6294365 3.5135667 0.028028369 25
-4.8137736 3.5141273 -0.0098820496 23
-4.1671014 3.5339589 -0.041197203 32
-5.6187992 3.5069277 -0.089017488 19
-4.8354907 3.5299811 -0.11579022 32
-4.1475945 3.517416 -0.13727722 31
-5.6030197 3.4970791 -0.20560262 23
-4.8395324 3.5329316 -0.22212099 31
-4.172523 3.5385568 -0.23504037 34
-5.6363468 3.51788 -0.32436886 24
-4.8098021 3.5112281 -0.32616386 4
-4.1565347 3.5249977 -0.33047149 29
-5.6170645 3.5058451 -0.44060251 26
-4.7979665 3.5025878 -0.43050453 35
-4.1392808 3.5103655 -0.42523685 32
-5.6130013 3.503309 -0.55735308 26
-4.8297267 3.5257733 -0.53914863 35
-4.1481318 3.5178719 -0.52237225 38
-5.6072102 3.4996946 -0.6738407 29
-4.8181429 3.5173168 -0.64341521 40
-4.817935 3.5171654 -0.7491309 33
-4.8066893 3.5089557 -0.85270751 30
-4.8385782 3.5322351 -0.96545422 32
-4.8212776 3.5196054 -1.0675914 32
-4.8152194 3.515183 -1.172573 30
-4.8047428 3.5075347 -1.2754232 28
-4.8464475 3.5379798 -1.3929257 26
-4.8270025 3.5237844 -1.4928466 31
-4.4450307 3.2449396 -1.8932698 6
-3.2473977 2.3706491 -1.8741733 9
-1.7150242 1.2713692 0.56353986 8
-3.426312 2.5399685 0.82418507 4
-4.5380425 3.3641083 0.79029423 1
-4.7187266 3.4980519 0.50997466 27
-4.7623134 3.5303631 0.30497575 22
-4.7594743 3.5282586 0.19995625 23
-4.1123271 3.5396583 0.15089576 27
-5.5549588 3.5239224 0.14423084 25
-4.7487216 3.5202873 0.094718732 18
-4.1046119 3.5330172 0.05482474 30
-5.5461111 3.5183096 0.027741158 28
-4.7461109 3.518352 -0.0097958306 21
-4.1016741 3.5304885 -0.040805135 30
-5.5220184 3.5030258 -0.087888643 18
-4.7645063 3.5319891 -0.11470734 33
-4.091392 3.5216386 -0.13626783 29
-5.4995866 3.4887958 -0.20274012 25
-4.7589154 3.5278442 -0.21960193 32
-4.1131549 3.5403707 -0.23315181 34
-5.5361896 3.5120156 -0.32007775 27
-4.7550573 3.5249841 -0.32419506 4
-4.1003227 3.5293255 -0.32805043 25
-5.5372925 3.5127153 -0.43635318 26
-4.7304978 3.5067782 -0.42674595 32
-4.0832133 3.5145986 -0.42211241 33
-5.5232224 3.5037897 -0.55097377 24
-4.7557464 3.5254951 -0.53376073 34
-4.0920558 3.5222096 -0.51854813 38
-5.5074821 3.4938042 -0.66491568 29
-4.7506976 3.5217524 -0.63783896 39
-4.7441988 3.5169349 -0.74165457 33
-4.7426682 3.5158 -0.8458994 30
-4.7681417 3.5346839 -0.95654428 33
-4.7573905 3.5267138 -1.0591409 32
-4.7357225 3.5106511 -1.1594501 31
-4.7474828 3.5193694 -1.2670377 29
-4.7734313 3.538605 -1.3793583 26
-4.7511611 3.5220959 -1.4773365 31
-4.4272022 3.2819409 -1.8958722 7
-3.2357578 2.3987083 -1.8775532 8
-1.7215602 1.2949353 0.56864434 9
-3.3708332 2.5354972 0.81507802 4
-4.539772 3.414758 0.79472786 3
-4.6496048 3.4973729 0.50513095 22
-4.6928563 3.529906 0.3020986 24
-4.6899986 3.5277565 0.19806734 22
-4.0483575 3.5340974 0.14945018 28
-5.4797945 3.5301318 0.14291567 25
-4.6760859 3.5172913 0.093757443 18
-4.0557413 3.5405436 0.054500811 32
-5.4608865 3.5179513 0.027437054 25
-4.6830726 3.5225468 -0.0097162435 24
-4.0437808 3.5301025 -0.040473387 29
-5.4436307 3.5068347 -0.08702857 20
-4.6885953 3.526701 -0.11346977 29
-4.0335708 3.5211895 -0.1351575 29
-5.4347644 3.501123 -0.20124663 23
-4.6926422 3.5297451 -0.2176756 33
-4.0522113 3.537462 -0.23109156 34
-5.4611564 3.5181251 -0.31715199 28
-4.6760707 3.5172799 -0.3204762 4
-4.0304661 3.5184791 -0.3244189 29
-5.4388194 3.5037353 -0.43051034 23
-4.664453 3.5085413 -0.42298734 32
-4.0255322 3.5141718 -0.41867551 34
-5.4450145 3.5077262 -0.54560167 24
-4.6959968 3.532268 -0.52980959 33
-4.0343714 3.5218883 -0.51434165 36
-5.4361219 3.5019977 -0.65923607 29
-4.6878567 3.5261452 -0.63269162 39
-4.6814694 3.5213411 -0.73567349 35
-4.6705422 3.5131216 -0.83738935 31
-4.6928539 3.5299041 -0.94636154 33
-4.6823058 3.52197 -1.0478734 33
-4.6891422 3.5271125 -1.1540464 33
-4.6727872 3.5148103 -1.2536211 29
-4.6925611 3.5296841 -1.3630773 30
-4.6892405 3.5271862 -1.465704 32
-4.4011588 3.3104949 -1.8945711 8
-3.2015488 2.4081638 -1.8674134 10
-1.715553 1.3092681 0.56966525 9
-3.321831 2.5351403 0.80748886 5
-4.4969287 3.4319463 0.79140264 4
-4.6029019 3.5128224 0.50270909 22
-4.617291 3.5238037 0.29881045 22
-4.6334782 3.5361571 0.1967181 23
-3.9936485 3.535769 0.1483382 30
-5.3914299 3.5267084 0.14124978 25
-4.6164451 3.5231581 0.093052499 18
-4.0009775 3.5422575 0.054095902 30
-5.3759403 3.5165761 0.027132949 28
-4.6106715 3.5187519 -0.0096167596 24
-3.9830997 3.5264294 -0.040111478 29
-5.3554201 3.5031531 -0.086007237 21
-4.628891 3.5326564 -0.11261894 30
-3.9759569 3.5201056 -0.13404717 31
-5.3432732 3.4952075 -0.1987575 25
-4.6329336 3.5357418 -0.21604563 33
-3.9915111 3.5338764 -0.22903131 32
-5.3662496 3.5102372 -0.31305593 28
-4.6006026 3.5110674 -0.31697613 5
-3.9729211 3.5174179 -0.32175577 35
-5.3641257 3.5088477 -0.42652661 26
-4.598618 3.5095527 -0.41922873 37
-3.9740291 3.5183988 -0.41586351 34
-5.3736939 3.5151067 -0.54090112 27
-4.6205535 3.5262933 -0.52406251 36
-3.9709308 3.5156558 -0.50937033 39
-5.3449373 3.4962962 -0.65112245 30
-4.6125436 3.5201807 -0.62582856 40
-4.5999837 3.5105951 -0.72670186 32
-4.6018372 3.5120096 -0.82944667 30
-4.6335659 3.5362244 -0.93936086 31
-4.6137838 3.5211272 -1.0380144 32
-4.626966 3.5311873 -1.1447833 31
-4.6015 3.5117526 -1.241043 26
-4.6430278 3.5434453 -1.3558413 25
-4.6243982 3.5292275 -1.453102 29
-4.3809485 3.3434329 -1.8958722 7
-3.1961877 2.4392524 -1.8741733 9
-1.7186028 1.3306842 0.57374889 11
-3.2761037 2.5366299 0.80065858 6
-4.429008 3.4293036 0.78364378 4
-4.5278511 3.505836 0.49717343 27
-4.5578332 3.5290508 0.29654986 22
-4.5549417 3.5268118 0.19442441 22
-3.9450655 3.5421929 0.14744861 28
-5.3100452 3.5266497 0.13975924 25
-4.5474629 3.5210214 0.0921553 18
-3.9374599 3.5353642 0.053569518 33
-5.3112745 3.5274661 0.026930211 29
-4.5480409 3.5214684 -0.0095371725 24
-3.9315975 3.5301003 -0.039840046 31
-5.2875199 3.5116894 -0.085308425 19
-4.559845 3.5306084 -0.11153606 30
-3.9274817 3.5264049 -0.13323966 30
-5.268785 3.4992466 -0.19689065 24
-4.5544066 3.5263977 -0.21352658 34
-3.9251125 3.5242774 -0.22662768 34
-5.2817063 3.5078287 -0.30954504 30
-4.5570307 3.5284293 -0.31566361 4
-3.9245009 3.5237286 -0.31981891 39
-5.2730041 3.5020487 -0.42121494 24
-4.5298414 3.5073771 -0.41518101 32
-3.925631 3.5247433 -0.41336396 33
-5.2826166 3.5084329 -0.53418601 24
-4.5611725 3.5316362 -0.52011138 36
-3.9196258 3.519351 -0.50592864 40
-5.2773046 3.504905 -0.64584851 30
-4.5532665 3.5255146 -0.62111014 39
-4.540844 3.5158961 -0.72121918 34
-4.542768 3.517386 -0.82320595 32
-4.5650506 3.5346391 -0.93045092 31
-4.5423889 3.5170925 -1.0274512 34
-4.5525479 3.5249581 -1.1324322 32
-4.5459466 3.5198472 -1.2326576 27
-4.5719638 3.5399919 -1.3422738 25
-4.5536194 3.5257881 -1.4385613 30
-4.3455372 3.3646734 -1.8906673 7
-3.1790805 2.4615066 -1.8741733 9
-1.7153538 1.3474278 0.5757907 12
-3.2583148 2.5594394 0.80065858 3
-4.4516883 3.4968462 0.79195684 17
-4.4625263 3.5053596 0.49267566 23
-4.4922462 3.5287049 0.29387823 23
-4.4924836 3.5288913 0.19280532 23
-3.8788519 3.5319581 0.14589185 29
-5.2289281 3.5256286 0.13826871 25
-4.4818835 3.520565 0.091322184 17
-3.8831103 3.5358357 0.053164609 33
-5.2201886 3.5197358 0.026592316 29
-4.4855986 3.523483 -0.0094575854 25
-3.8772836 3.5305302 -0.039538458 30
-5.1965499 3.5037975 -0.084233336 20
-4.4973459 3.5327106 -0.11060788 31
-3.8672893 3.5214295 -0.13202839 25
-5.1845584 3.495712 -0.19465043 26
-4.4982429 3.5334151 -0.21204478 35
-3.8738208 3.5273769 -0.22508249 44
-5.2206502 3.5200472 -0.30739948 25
-4.4883142 3.5256162 -0.31260103 4
-3.8732376 3.5268459 -0.31763998 34
-5.1888609 3.4986129 -0.41643444 24
-4.4738717 3.5142715 -0.41228977 34
-3.8773415 3.5305827 -0.41086441 31
-5.2117267 3.5140307 -0.5294854 23
-4.4988117 3.5338621 -0.51580107 35
-3.8655219 3.5198202 -0.50210452 38
-5.2032161 3.508292 -0.6397633 31
-4.4847584 3.5228231 -0.61510497 38
-4.478735 3.5180917 -0.71523809 32
-4.4745083 3.5147717 -0.81526321 31
-4.5029974 3.5371501 -0.92281383 32
-4.4712777 3.512234 -1.0168879 33
-4.4938769 3.5299859 -1.1239409 34
-4.4751277 3.5152581 -1.2200794 27
-4.5103698 3.5429411 -1.3314199 27
-4.4922724 3.5287256 -1.4269288 33
-4.3189669 3.3925924 -1.8893661 7
-3.1589677 2.4814012 -1.8724834 8
-1.7033542 1.3563659 0.57476979 11
-3.3119309 2.6372612 0.81811374 1
-4.3943095 3.4991498 0.7858606 26
-4.4080052 3.5100558 0.48921588 27
-4.4249945 3.5235839 0.29100111 21
-4.4345789 3.5312161 0.19132116 23
-3.8259566 3.5304904 0.14477986 29
-5.1460152 3.5195942 0.1366905 24
-4.4240198 3.5228081 0.090617239 17
-3.8331184 3.5370991 0.05280019 34
-5.150507 3.5226665 0.02635579 28
-4.4277105 3.5257468 -0.0093846312 26
-3.8273268 3.5317547 -0.039267026 29
-5.1335816 3.5110905 -0.083588287 19
-4.433146 3.5300748 -0.10960236 30
-3.8115232 3.5171716 -0.13091806 34
-5.1183591 3.5006793 -0.19303249 25
-4.4434395 3.5382717 -0.21056299 35
-3.8239086 3.5286005 -0.2235373 42
-5.1510215 3.5230184 -0.30466878 24
-4.4148417 3.5154991 -0.30910096 5
-3.8233528 3.5280876 -0.31546107 31
-5.1029501 3.4901402 -0.41138837 28
-4.4067721 3.5090737 -0.40824205 32
-3.8157413 3.521064 -0.40680262 37
-5.1257963 3.5057659 -0.5231061 25
-4.4254112 3.523916 -0.51005399 34
-3.8186829 3.5237784 -0.49904522 35
-5.1207104 3.5022871 -0.63246095 32
-4.4208512 3.5202847 -0.60952872 39
-4.4087324 3.5106347 -0.7077617 33
-4.4077344 3.5098398 -0.80732054 31
-4.4361892 3.5324981 -0.91390395 32
-4.4201632 3.5197368 -1.01055 34
-4.427382 3.5254853 -1.1131338 32
-4.4149995 3.5156252 -1.2100168 29
-4.4471474 3.541224 -1.3196614 27
-4.4293041 3.5270157 -1.4143268 32
-4.2934122 3.4188061 -1.888065 7
-3.1225879 2.4864891 -1.8606535 9
-1.711895 1.3828059 0.58089525 12
-3.3026042 2.6677222 0.82039046 1
-4.3297124 3.4973826 0.77865595 33
-4.3523936 3.5157037 0.48575607 26
-4.3661041 3.5267785 0.28874052 21
-4.36939 3.5294325 0.18956716 25
-3.7778597 3.5352581 0.14389028 29
-5.0753279 3.5235062 0.135463 26
-4.3650947 3.5259628 0.089912303 16
-3.7791264 3.5364435 0.05239528 43
-5.0699306 3.5197592 0.026068579 29
-4.3594255 3.5213838 -0.0092917792 24
-3.7733715 3.5310581 -0.038965434 44
-5.0563765 3.5103493 -0.082728215 21
-4.3710604 3.530782 -0.10867418 32
-3.7605982 3.5191052 -0.13000961 31
-5.0478163 3.5044065 -0.1912901 24
-4.3782058 3.5365536 -0.20863666 35
-3.7816732 3.5388267 -0.22250718 43
-5.070509 3.5201604 -0.30135292 27
-4.3529072 3.5161185 -0.30647588 31
-3.7723913 3.5301409 -0.31328213 33
-5.0456743 3.5029194 -0.40873253 29
-4.3480282 3.5121775 -0.40506169 34
-3.7619498 3.52037 -0.40367818 34
-5.0553579 3.5096421 -0.5184055 26
-4.3697109 3.5296919 -0.50646204 36
-3.7678237 3.5258667 -0.49560353 38
-5.0503707 3.5061798 -0.6267814 30
-4.3652301 3.5260725 -0.60523927 40
-4.3501544 3.513895 -0.70227909 34
-4.3492413 3.5131574 -0.80107981 32
-4.3806996 3.538568 -0.90753973 32
-4.3679156 3.5282416 -1.004212 34
-4.3599172 3.521781 -1.1023266 34
-4.3629656 3.5242434 -1.2024699 28
-4.3738198 3.5330107 -1.3051895 31
-4.3623085 3.5237124 -1.4007554 35
-4.2635555 3.4439433 -1.8854625 7
-3.1248949 2.5241754 -1.8724834 9
-1.6992081 1.3922722 0.57987434 12
-3.2838995 2.6907136 0.82039046 0
-4.274549 3.5024173 0.77311391 40
-4.2845888 3.510644 0.48091236 22
-4.3104768 3.5318556 0.28668541 21
-4.3075361 3.5294461 0.18794809 25
-3.7269831 3.5367749 0.1428895 29
-4.9983015 3.5219972 0.13406016 25
-4.2939677 3.5183284 0.088951014 17
-3.7282331 3.537961 0.052030861 44
-4.9896483 3.5158999 0.025781369 29
-4.2976069 3.5213106 -0.0092121921 25
-3.7167122 3.5270283 -0.038633686 29
-4.979434 3.5087025 -0.081868142 20
-4.3060894 3.5282607 -0.10766865 33
-3.7156346 3.5260055 -0.12930302 35
-4.9676685 3.500412 -0.18917432 26
-4.3163066 3.5366321 -0.2068585 35
-3.7365835 3.5458853 -0.22130536 33
-4.9804916 3.5094476 -0.29745191 5
-4.2973599 3.5211079 -0.30428833 32
-3.7186921 3.5289071 -0.31086108 33
-4.972158 3.5035753 -0.40474877 26
-4.2894578 3.5146332 -0.40188134 29
-3.7141399 3.5245872 -0.40117863 31
-4.9753423 3.5058193 -0.5126977 25
-4.3110657 3.5323379 -0.50251091 36
-3.70557 3.5164547 -0.49063221 34
-4.9834819 3.511555 -0.62150753 32
-4.3066692 3.5287356 -0.60052091 40
-4.3009577 3.5240557 -0.69829166 36
-4.2909188 3.51583 -0.79483908 32
-4.3100696 3.5315216 -0.89799333 34
-4.2974916 3.5212159 -0.99364877 33
-4.3048658 3.5272579 -1.0946072 32
-4.2928762 3.5174344 -1.1898918 30
-4.3158956 3.5362954 -1.29524 31
-4.3015804 3.5245662 -1.3891228 32
-4.2364821 3.4712269 -1.8841614 7
-3.1015882 2.5413339 -1.8691034 9
-1.7013443 1.4139891 0.58395797 12
-3.2650347 2.7135739 0.82039046 0
-4.2134342 3.5017898 0.76646346 33
-4.2170696 3.5048113 0.47606862 22
-4.2396317 3.5235629 0.28360277 22
-4.2520461 3.5338802 0.18659885 22
-3.6733904 3.5349829 0.14177752 33
-4.9378119 3.5312154 0.1330957 25
-4.2323899 3.517544 0.088181987 20
-3.6717401 3.5333948 0.051585462 34
-4.9324474 3.527379 0.025612421 29
-4.23908 3.5231042 -0.0091392379 26
-3.6660597 3.5279284 -0.038362257 34
-4.9125261 3.5131326 -0.08116933 21
-4.2475204 3.5301189 -0.10681783 33
-3.6592336 3.5213597 -0.12819269 34
-4.9040866 3.5070972 -0.18768084 25
-4.2576947 3.5385752 -0.20522852 32
-3.6800625 3.5414035 -0.2194168 43
-4.9136248 3.5139182 -0.29491624 4
-4.2419567 3.5254951 -0.30210078 32
-3.6738272 3.5354033 -0.30916637 35
-4.905375 3.5080185 -0.4012962 26
-4.2187929 3.5062437 -0.3975445 30
-3.6664562 3.5283101 -0.39867908 36
-4.9085999 3.510325 -0.50833285 25
-4.2464705 3.5292463 -0.49784142 36
-3.6608472 3.5229123 -0.48795533 38
-4.9005837 3.5045922 -0.61420518 33
-4.2391095 3.5231287 -0.59451568 45
-4.2243614 3.5108714 -0.6898185 34
-4.2297273 3.515331 -0.78803104 34
-4.2519021 3.5337605 -0.8909927 33
-4.2425218 3.5259647 -0.9866066 34
-4.2348595 3.5195963 -1.0830282 33
-4.2351284 3.5198202 -1.1806679 30
-4.264133 3.5439258 -1.2870995 30
-4.23807 3.5222647 -1.3765209 34
-4.2121453 3.5007186 -1.8841614 8
-3.0865588 2.5652425 -1.8707933 9
-1.6884741 1.4233395 0.58293706 13
-3.2490134 2.7388332 0.82114941 0
-4.158596 3.5055876 0.76092142 53
-4.1650763 3.5110505 0.47295481 27
-4.1874404 3.5299029 0.28175318 22
-4.1936488 3.5351362 0.1851147 26
-3.6257286 3.5382011 0.14088793 33
-4.8515453 3.520973 0.13142981 24
-4.1771502 3.5212283 0.087541126 17
-3.6326697 3.5449746 0.051383007 40
-4.8526678 3.5217879 0.025325211 32
-4.1837974 3.5268316 -0.0090729147 24
-3.627027 3.5394683 -0.038211461 43
-4.8328509 3.507406 -0.080255501 21
-4.192194 3.5339098 -0.10604434 34
-3.6202517 3.5328562 -0.12768801 48
-4.8244758 3.5013278 -0.18556508 28
-4.1900997 3.5321445 -0.20315401 36
-3.6266479 3.5390983 -0.21769992 40
-4.8404717 3.5129366 -0.29199049 5
-4.1836491 3.5267069 -0.29969448 33
-3.6176229 3.5302908 -0.30650324 38
-4.8420029 3.5140479 -0.3981092 27
-4.1606579 3.5073259 -0.39436415 33
-3.607486 3.5203989 -0.39492974 43
-4.8420372 3.5140729 -0.50396806 26
-4.1882224 3.5305617 -0.49389029 37
-3.6133661 3.5261371 -0.48489606 54
-4.8373504 3.5106714 -0.60933697 32
-4.174881 3.5193155 -0.58893943 41
-4.1724372 3.5172555 -0.68533266 36
-4.1717806 3.5167019 -0.78179038 32
-4.1999536 3.5404508 -0.88526487 33
-4.1846867 3.5275812 -0.97886026 33
-4.183177 3.526309 -1.0760808 34
-4.1805487 3.5240929 -1.1722825 28
-4.2005591 3.5409613 -1.275341 28
-4.1807375 3.5242527 -1.3658577 35
-4.1760349 3.5202882 -1.8789564 12
-3.0519431 2.5727081 -1.8606535 10
-1.678497 1.4350917 0.58293706 12
-3.229815 2.7614474 0.82114941 0
-4.1009026 3.5062151 0.75482517 38
-4.10109 3.5063753 0.46845707 23
-4.1292982 3.5304933 0.27949259 23
-4.1293674 3.5305524 0.1833607 25
-3.5924127 3.5549901 0.14055434 41
-4.7882051 3.5263002 0.13037767 26
-4.1159892 3.5191143 0.086772099 17
-3.6078324 3.5702491 0.051383007 45
-4.7893133 3.5271163 0.025122475 29
-4.1195517 3.5221603 -0.0089866957 24
-3.6050718 3.5675173 -0.038241621 41
-4.7663798 3.5102267 -0.079556696 22
-4.1309462 3.5319023 -0.10511617 34
-3.5926571 3.5552318 -0.12758707 39
-4.7548447 3.5017314 -0.18382268 27
-4.1258445 3.5275402 -0.20122768 37
-3.5876489 3.5502758 -0.21684147 56
-4.7740078 3.5158441 -0.28945485 4
-4.1224995 3.5246804 -0.29706943 32
-3.5872128 3.5498443 -0.30601901 50
-4.7691469 3.5122645 -0.39412546 28
-4.1057501 3.5103598 -0.39147291 33
-3.5884902 3.5511084 -0.39555463 52
-4.7660351 3.5099728 -0.49859598 27
-4.1331944 3.5338244 -0.49029836 36
-3.588661 3.5512774 -0.48489606 55
-4.7646604 3.5089602 -0.60325176 33
-4.1290526 3.5302832 -0.58593678 41
-4.1206331 3.5230849 -0.68084687 38
-4.1200442 3.5225811 -0.77668434 32
-4.1331148 3.5337563 -0.87635493 34
-4.127039 3.5285616 -0.97111386 35
-4.1166954 3.5197177 -1.0652736 33
-4.1231461 3.5252333 -1.1630585 27
-4.1401997 3.5398138 -1.2644871 31
-4.1235881 3.5256112 -1.3551946 33
-4.1254849 3.5272326 -1.8672454 16
-3.0476871 2.6057305 -1.8691034 9
-1.6976566 1.4721124 0.59314609 13
-3.1867204 2.7633448 0.81507802 0
-4.0404091 3.5036159 0.74817473 34
-4.0524249 3.514035 0.46568921 26
-4.0653152 3.5252128 0.27682099 23
-4.0713954 3.5304852 0.18187654 24
-3.5844409 3.5969765 0.14122152 33
-4.7218261 3.5285223 0.12923785 26
-4.0611038 3.5215609 0.086131237 18
-3.5941131 3.6066825 0.051544972 35
-4.722919 3.5293388 0.024902843 31
-4.0616198 3.5220082 -0.0089137414 28
-3.5998418 3.6124313 -0.038452733 37
-4.7097187 3.5194747 -0.079019152 22
-4.082016 3.5396948 -0.10449738 35
-3.5903299 3.602886 -0.12839457 38
-4.6886477 3.5037289 -0.18220474 25
-4.079977 3.5379267 -0.20019042 39
-3.5712388 3.5837281 -0.21735655 44
-4.7141423 3.5227804 -0.28730929 4
-4.0495114 3.5115087 -0.29356933 25
-3.5707977 3.5832856 -0.30674532 40
-4.7029476 3.5144148 -0.39067286 25
-4.0449729 3.5075731 -0.38800344 33
-3.5748708 3.587373 -0.39680442 40
-4.7031007 3.514529 -0.49456692 27
-4.0753145 3.5338836 -0.48634723 37
-3.5806444 3.5931666 -0.48719051 40
-4.6954198 3.5087895 -0.59757215 34
-4.0712552 3.5303636 -0.58121842 43
-4.0569568 3.5179646 -0.67436737 37
-4.0564613 3.5175354 -0.76930892 34
-4.0785079 3.5366526 -0.86999071 35
-4.066606 3.5263321 -0.96266329 35
-4.0771966 3.5355155 -1.061414 34
-4.0600209 3.5206218 -1.1521574 31
-4.091836 3.5482101 -1.2572511 30
-4.0578265 3.5187192 -1.3416232 35
-4.0664673 3.5262117 -1.8516309 15
-3.0239432 2.6221936 -1.8657235 10
-1.6786256 1.4762663 0.59008336 12
-3.1496563 2.7699635 0.81052452 1
-3.9801548 3.5003448 0.74152428 38
-4.0008616 3.5185554 0.46257541 26
-4.0166078 3.5324035 0.27517691 23
-4.0166292 3.5324221 0.18052731 24
-3.5788612 3.6418746 0.14199992 34
-4.6556516 3.5299911 0.12809803 29
-4.0123935 3.5286973 0.085618556 19
-3.5856686 3.6488018 0.051787917 34
-4.6503539 3.5259745 0.024649421 31
-4.0098991 3.5265036 -0.0088540511 29
-3.5941613 3.6574438 -0.038663846 36
-4.6340404 3.5136049 -0.078159079 23
-4.0241709 3.5390546 -0.10364655 32
-3.5931187 3.656383 -0.12940396 35
-4.6226573 3.5049741 -0.1805868 28
-4.0281639 3.5425663 -0.19885682 40
-3.5713437 3.6342247 -0.21890174 44
-4.6416798 3.5193975 -0.28438354 4
-3.9979055 3.5159557 -0.29160056 34
-3.5736811 3.6366034 -0.30916637 37
-4.6401339 3.5182252 -0.38748586 25
-3.9994161 3.5172842 -0.38597956 35
-3.5832818 3.6463728 -0.40055373 38
-4.6435122 3.520787 -0.49087363 27
-4.0146456 3.5306778 -0.48203692 40
-3.5833817 3.6464744 -0.49101463 40
-4.6359291 3.5150371 -0.59310967 32
-4.0136595 3.5298104 -0.57650006 43
-3.9965343 3.5147498 -0.66838628 38
-3.9990993 3.5170054 -0.76306826 35
-4.0240641 3.5389607 -0.86362648 35
-4.0093641 3.5260327 -0.95491689 36
-4.0111537 3.5276067 -1.0506068 37
-4.011848 3.5282173 -1.145449 33
-4.0347805 3.5483854 -1.2473017 30
-4.0098495 3.5264597 -1.3338681 39
-4.0019865 3.5195446 -1.8334138 17
-3.011008 2.6480291 -1.8691034 9
-1.694255 1.5111181 0.59927154 12
-3.1419654 2.8023412 0.81356019 2
-3.9408388 3.5148621 0.73875326 29
-3.9405124 3.514571 0.45842364 26
-3.9590559 3.53111 0.27291629 22
-3.9680026 3.5390897 0.17944792 26
-3.5811751 3.6954849 0.1431119 30
-4.5928578 3.5331478 0.12704588 29
-3.9548283 3.5273395 0.084913611 18
-3.582376 3.6967239 0.052111845 31
-4.5844092 3.5266485 0.024429791 28
-3.9523454 3.525125 -0.008781096 26
-3.5935919 3.7082982 -0.038935278 35
-4.5713553 3.5166066 -0.077514023 21
-3.9695194 3.5404427 -0.10287307 33
-3.589767 3.7043509 -0.13021149 36
-4.5568795 3.5054708 -0.17896886 26
-3.9705195 3.5413344 -0.19722684 34
-3.5736961 3.687767 -0.22061861 40
-4.57583 3.5200489 -0.28184786 4
-3.9404743 3.5145371 -0.28919423 38
-3.5704343 3.6844013 -0.31110319 39
-4.5680075 3.5140309 -0.38350213 24
-3.9509447 3.5238757 -0.38366657 35
-3.574389 3.688482 -0.40242842 39
-4.558794 3.5069432 -0.48449427 28
-3.9601679 3.5321019 -0.47844499 39
-3.5772336 3.6914175 -0.4936915 41
-4.5639653 3.5109215 -0.58702439 33
-3.9592395 3.5312738 -0.57221061 47
-3.9482045 3.5214317 -0.66439885 36
-3.9508088 3.5237544 -0.75852954 36
-3.9697878 3.5406818 -0.85726225 34
-3.9435105 3.5172451 -0.94505787 36
-3.9542091 3.526787 -1.0421156 36
-3.960849 3.5327094 -1.1379023 32
-3.9662921 3.5375643 -1.2337341 33
-3.9590669 3.5311198 -1.3251437 36
-3.9490895 3.5222211 -1.8204017 17
-2.9870367 2.6641593 -1.8657235 9
-1.6779277 1.5177207 0.59722972 13
-2.1029091 1.9021252 0.54793888 1
-3.8868256 3.5157149 0.73321122 26
-3.8863266 3.5152636 0.45496383 23
-3.9165323 3.5425851 0.27168325 20
-3.9076207 3.5345244 0.17782885 24
-3.5801504 3.7464128 0.14411268 31
-4.5334015 3.5380611 0.12608142 27
-3.8974791 3.5253513 0.084208667 20
-3.5896411 3.7563443 0.052597735 32
-4.5155306 3.5241139 0.024193265 31
-3.8979743 3.525799 -0.0087147737 25
-3.5924864 3.7593219 -0.039206706 30
-4.5025511 3.5139842 -0.076761462 21
-3.9120803 3.5385585 -0.10202224 35
-3.5914445 3.7582314 -0.13122088 32
-4.4976258 3.5101402 -0.17759985 28
-3.9041972 3.5314279 -0.19515233 36
-3.5699513 3.7357402 -0.22199211 41
-4.5196481 3.5273275 -0.27989736 4
-3.8921459 3.5205274 -0.2874442 40
-3.5722098 3.7381036 -0.31352422 37
-4.5056071 3.5163691 -0.38031512 24
-3.8966599 3.5246103 -0.38077533 34
-3.567837 3.7335277 -0.40461552 35
-4.5059199 3.5166132 -0.48147249 26
-3.9088223 3.5356114 -0.47521225 38
-3.5678804 3.733573 -0.49598595 38
-4.5016985 3.5133185 -0.58215618 32
-3.8931987 3.5214796 -0.56620538 40
-3.8999772 3.5276108 -0.66041148 38
-3.8850012 3.5140648 -0.75058681 34
-3.9156857 3.5418196 -0.85089803 37
-3.9042587 3.5314837 -0.94153678 35
-3.9091158 3.535877 -1.0367119 37
-3.8954813 3.5235443 -1.1261626 33
