# .PCD v0.7 - Point Cloud Data file format
VERSION 0.7
FIELDS x y z intensity
SIZE 4 4 4 4
TYPE F F F F
COUNT 1 1 1 1
WIDTH 1372
HEIGHT 1
VIEWPOINT 0 0 0 1 0 0 0
POINTS 1372
DATA ascii
-9.4396868 1.2846847 -1.3650128 5
-9.6572227 1.31429 -1.5706928 4
-9.7382841 1.3253219 -1.7577231 1
-10.527409 1.432717 -2.0896347 2
-9.506341 1.2937558 -2.0569448 2
-8.6559219 1.1780189 -2.0278828 3
-7.9559526 1.0827574 -2.0056491 7
-5.6180849 0.76458758 -1.9505234 6
-1.57345 0.21413708 -0.74020553 13
-2.0405717 0.29223341 0.5441426 14
-5.2911329 0.75775129 1.0328876 38
-5.9213324 0.84800315 0.83684731 5
-6.173552 0.88412392 0.54145885 4
-10.123192 1.4497579 0.52610373 8
-16.680222 2.3888004 0.56870151 33
-13.504335 2.9493587 0.38441166 6
-13.723351 0.95722473 0.30161342 7
-13.991435 2.0037348 0.22647902 18
-15.255599 3.3318362 0.15807664 21
-15.729641 1.0971667 0.066599056 6
-18.400242 2.6351271 -0.030820057 33
-18.389982 4.0163884 -0.14192829 40
-18.369703 1.2813151 -0.24748583 32
-18.34536 2.6272674 -0.35843143 47
-18.388556 4.0160766 -0.47512048 40
-18.346514 1.2796975 -0.57250124 38
-18.340153 2.6265216 -0.68681169 46
-18.338417 4.0051265 -0.80641681 70
-18.309652 1.2771263 -0.89606172 67
-18.349009 2.6277897 -1.0152425 47
-8.2617245 1.8043679 -0.51277554 4
-18.314898 1.2774923 -1.2216827 52
-18.348188 2.6276724 -1.3432667 35
-7.9048715 1.7264309 -0.6339497 0
-18.318459 1.2777406 -1.5468227 35
-10.13112 1.4508933 -0.92276669 0
-7.7294002 1.6881077 -0.75984895 0
-18.296482 1.2762077 -1.8697964 42
-9.5309172 1.3649373 -1.0384722 4
-9.1853971 1.315455 -1.1653148 6
-9.0894852 1.3017192 -1.3156544 5
-9.3077145 1.332972 -1.515324 8
-9.2961435 1.3313152 -1.6795552 7
-10.51715 1.5061772 -2.0896347 2
-9.4738464 1.3567642 -2.0519135 2
-8.6397734 1.2373152 -2.0260737 2
-7.940516 1.1371735 -2.0037103 9
-5.6013775 0.8021819 -1.9466196 6
-1.5826832 0.22665851 -0.74527544 12
-2.0461309 0.30762216 0.54618442 15
-5.301249 0.7970075 1.0359232 36
-8.8063059 1.3239696 1.2458495 17
-6.4076133 0.96334207 0.56256366 7
-10.176029 1.5298984 0.52939183 5
-16.437801 2.471314 0.5610109 28
-13.483417 3.0435648 0.38441166 7
-13.628613 1.0462741 0.29968449 14
-13.992926 2.1037433 0.22673537 15
-15.251475 3.4426627 0.15827911 22
-15.673739 1.2032791 0.066396318 12
-18.401175 2.7664943 -0.030853217 31
-18.384905 4.1499605 -0.14210923 40
-18.360312 1.4095285 -0.24748583 33
-18.350302 2.7588458 -0.35889551 43
-18.387373 4.1505179 -0.47582707 39
-18.341122 1.4080552 -0.5726257 41
-18.345089 2.7580621 -0.68770081 47
-18.352892 4.1427345 -0.80830538 55
-18.30826 1.4055324 -0.89645177 50
-18.349964 2.758795 -1.0163362 44
-8.2177696 1.8549685 -0.51083869 4
-18.321451 1.4065452 -1.2227449 50
-7.908186 1.7850875 -0.63519949 0
-18.321014 1.4065115 -1.54783 33
-9.7386055 1.4641346 -0.88792497 0
-7.7174263 1.7420279 -0.75984895 0
-18.291094 1.4042145 -1.8702021 43
-9.1986713 1.382959 -1.0032988 6
-8.8816366 1.335295 -1.1279329 8
-8.7669315 1.3180499 -1.2702675 5
-9.0131054 1.3550606 -1.468865 6
-8.9361839 1.3434958 -1.6161758 5
-10.486973 1.5766466 -2.0857749 1
-9.4873505 1.42636 -2.0569448 2
-8.6270714 1.2970228 -2.0251691 3
-7.7827163 1.1700796 -1.9659045 4
-5.5844197 0.83958036 -1.942716 6
-1.5810623 0.23770221 -0.74527544 13
-2.0592151 0.32430607 0.55026805 15
-5.3265915 0.83888566 1.0419946 39
-8.7772818 1.3823353 1.2430785 20
-6.392859 1.0068122 0.56187171 4
-9.4903212 1.4946319 0.49424976 2
-16.191101 2.5499389 0.55318534 27
-13.489099 3.143976 0.38519007 7
-13.644886 1.1433978 0.30021057 14
-13.997651 2.2044921 0.22705579 15
-15.246547 3.5535936 0.15848155 22
-15.477614 1.2969747 0.065602265 4
-18.401167 2.8980024 -0.030886378 34
-18.386648 4.2854743 -0.14235051 41
-18.35401 1.5380073 -0.24753958 31
-18.350348 2.8899987 -0.35928226 40
-18.389105 4.2860465 -0.47663459 41
-18.338812 1.5367337 -0.57287461 41
-18.356974 2.8910422 -0.68888623 50
-18.350767 4.2771106 -0.80950719 55
-18.333832 1.5363164 -0.89820725 45
-18.365765 2.892427 -1.0183049 42
-8.1657352 1.9032313 -0.50841767 4
-18.327093 1.5357518 -1.2238073 50
-9.513483 1.4982798 -0.69794357 0
-7.8761134 1.8357276 -0.63363731 0
-18.326635 1.5357134 -1.549173 37
-9.3818378 1.4775469 -0.85631597 0
-7.7360988 1.8030937 -0.76290822 0
-18.32843 1.5358638 -1.8750703 40
-8.9216528 1.4050723 -0.97413063 7
-8.6133442 1.3565167 -1.095037 8
-8.3859377 1.3207026 -1.2163705 5
-8.5821218 1.3515995 -1.4001313 5
-8.5454082 1.3458176 -1.5471625 1
-8.5294447 1.3433034 -1.6982623 1
-8.372201 1.318539 -1.8171216 1
-8.6062593 1.3554009 -2.0224557 3
-7.7858586 1.2261959 -1.9688126 4
-5.5821581 0.87913489 -1.9440173 7
-1.5686203 0.24704222 -0.74020553 12
-2.0416362 0.33616087 0.54618442 17
-5.332231 0.87796611 1.0442713 40
-8.7322397 1.4377865 1.2380906 21
-6.4092669 1.0553029 0.56394756 4
-9.4678307 1.5589036 0.49363324 2
-15.955954 2.6271904 0.54576457 26
-13.494035 3.2446146 0.38596845 9
-13.668433 1.2415167 0.30091199 16
-14.005599 2.3060591 0.22744031 14
-15.225255 3.6608829 0.15852204 19
-18.396276 3.028996 -0.030912908 32
-18.391285 4.4221487 -0.14262193 41
-18.362741 1.6679052 -0.24780835 39
-18.337616 3.0193374 -0.35943696 45
-18.409277 4.426475 -0.47794679 39
-18.343563 1.6661631 -0.57337242 41
-18.340288 3.0197773 -0.6890344 50
-18.343775 4.4107251 -0.81053734 54
-18.338575 1.6657101 -0.89898747 45
-18.349066 3.0212226 -1.0185237 33
-8.1367197 1.9564586 -0.50744927 5
-18.327852 1.664736 -1.2246041 50
-9.2114878 1.5166961 -0.67654842 0
-7.8747368 1.8934653 -0.63457459 0
-18.319439 1.6639719 -1.5495087 32
-9.1118536 1.500291 -0.83260924 0
-7.7000942 1.8514727 -0.76061374 0
-18.321226 1.6641343 -1.875476 41
-8.6565599 1.4253258 -0.94624931 8
-8.3452024 1.3740598 -1.0621411 8
-8.1225615 1.3374015 -1.1794935 7
-8.4711657 1.3947999 -1.3835844 3
-8.2910366 1.3651413 -1.502797 1
-8.2526464 1.3588202 -1.6449987 1
-8.1582565 1.3432786 -1.7726789 2
-8.4774036 1.3958271 -1.9944164 2
-7.7809377 1.2811521 -1.969782 4
-5.5684209 0.91685534 -1.9414148 6
-1.5525483 0.25563121 -0.73344564 13
-2.0278049 0.34844011 0.5431217 16
-5.3104897 0.91250771 1.0412357 33
-8.6751385 1.4906592 1.2314402 8
-6.393889 1.0986695 0.56325561 3
-11.72444 2.0146244 0.6120066 22
-15.779624 2.7114313 0.5403676 24
-13.49822 3.3454747 0.38674682 8
-13.667393 1.3376892 0.30108735 18
-14.01281 2.4078376 0.22782482 14
-15.242032 3.7776706 0.15896745 22
-15.911826 1.557362 0.067528263 6
-18.398336 3.1614077 -0.030952701 34
-18.394905 4.5590963 -0.14289337 39
-18.362593 1.7972295 -0.24796961 31
-18.339741 3.1513393 -0.35990104 95
-18.397333 4.5596981 -0.47845149 40
-18.363317 1.7973005 -0.57436812 37
-18.366035 3.1558576 -0.69081253 49
-18.351324 4.548295 -0.81225419 61
-18.334454 1.7944753 -0.89937752 43
-9.4196253 1.6185853 -0.52348095 1
-8.1073618 2.0093741 -0.50648081 7
-18.323727 1.7934256 -1.2251352 49
-8.9293737 1.5343448 -0.65659893 0
-7.8613262 1.9483951 -0.63457459 0
-18.331177 1.7941546 -1.5515232 38
-8.8538017 1.5213592 -0.80998009 0
-7.683116 1.9042265 -0.76023138 0
-18.332924 1.7943257 -1.8779101 38
-8.4151487 1.445985 -0.92094165 10
-8.1046276 1.3926277 -1.032734 9
-7.929616 1.3625553 -1.1528287 15
-8.169322 1.4037442 -1.3358526 0
-7.9786139 1.3709745 -1.4478681 2
-7.941246 1.3645537 -1.5847875 1
-7.8750019 1.3531709 -1.7131424 3
-8.0373602 1.3810691 -1.8931127 1
-7.7832785 1.33741 -1.9726901 5
-5.5842514 0.95954853 -1.9492221 6
-1.5542991 0.26707703 -0.73513561 12
-2.0405507 0.36531457 0.54720533 16
-5.3001242 0.94886762 1.0404767 40
-5.4396968 0.97385496 0.77311391 4
-6.3978305 1.1453872 0.56429356 3
-11.733683 2.100651 0.61323965 21
-15.630449 2.7982793 0.53591514 27
-13.50553 3.4475405 0.38763642 8
-13.685561 1.4359941 0.3017011 18
-13.999595 2.5063114 0.22788891 11
-15.238541 3.889924 0.1592104 20
-15.880675 1.6663225 0.067443788 12
-18.407316 3.2954144 -0.031005759 33
-18.385881 4.6933417 -0.14307432 38
-18.36153 1.9266328 -0.24813087 38
-18.340912 3.2835264 -0.36036512 61
-18.403797 4.6979151 -0.47946087 36
-18.386108 1.9292117 -0.57548821 37
-18.367163 3.2882261 -0.69170165 47
-18.338484 4.6812425 -0.81311262 49
-18.325451 1.922847 -0.89957261 43
-9.0896425 1.6272955 -0.5057618 2
-8.0931358 2.0659251 -0.50648081 9
-18.334578 1.9238046 -1.2267288 48
-8.6828184 1.5544627 -0.63925153 0
-7.8475323 2.0032301 -0.63457459 0
-18.326134 1.9229187 -1.5521947 35
-8.5841465 1.5367976 -0.78627336 0
-7.6889248 1.9627426 -0.76214343 0
-18.315992 1.9218546 -1.8775045 40
-8.2286882 1.4731609 -0.90163922 9
-7.907186 1.4156033 -1.0088097 10
-7.7990847 1.3962501 -1.1352413 15
-7.8094707 1.3981096 -1.2785745 14
-7.7479215 1.3870906 -1.4077278 17
-7.7074494 1.3798449 -1.5400152 4
-7.8191638 1.3998449 -1.7030798 3
-7.8625994 1.407621 -1.8542193 1
-7.7737517 1.3917148 -1.9726901 6
-5.5662465 0.99651086 -1.9453185 6
-1.5773777 0.28239387 -0.74696535 13
-2.0493572 0.38167575 0.55026805 17
-5.3088145 0.98872262 1.0435123 34
-5.2263594 0.97336608 0.7437411 5
-6.3857608 1.1892949 0.56394756 3
-11.726586 2.1839793 0.61365068 18
-15.453328 2.8780541 0.53051823 25
-13.512072 3.5498641 0.38852599 11
-13.683151 1.5323926 0.30187646 16
-14.021075 2.6113091 0.22852977 13
-15.241962 4.0043373 0.15953432 20
-15.991883 1.7909503 0.067967527 5
-18.391726 3.4253061 -0.031019023 36
-18.379751 4.8286905 -0.14328544 38
-18.371481 2.0574443 -0.24845341 33
-18.341133 3.4158838 -0.36082923 90
-18.42083 4.8394828 -0.48077309 40
-18.360271 2.0561888 -0.57511485 38
-18.355549 3.4185686 -0.69214618 48
-18.340143 4.8182855 -0.81465781 65
-18.327461 2.0525146 -0.90035278 44
-8.9013691 1.657806 -0.4959178 1
-8.0862398 2.1244006 -0.50696504 9
-18.34053 2.0539782 -1.2280567 52
-8.4403515 1.5719454 -0.62219328 0
-7.8487844 2.0620167 -0.63582438 0
-18.324144 2.0521431 -1.553202 38
-8.3460512 1.5543828 -0.76544017 0
-7.6634827 2.0133345 -0.76099616 0
-18.321901 2.051892 -1.8795328 42
-8.0344467 1.496349 -0.88147885 11
-7.7293363 1.4395247 -0.98737746 2
-7.6957245 1.4332649 -1.1216252 29
-7.6946979 1.4330736 -1.261391 23
-7.6490173 1.424566 -1.3915309 25
-7.6281767 1.4206846 -1.5261203 22
-7.6746259 1.4293354 -1.6737309 0
-7.8640723 1.4646182 -1.8569328 3
-7.756216 1.444531 -1.9707514 6
-5.5554352 1.0346538 -1.9440173 7
-1.5682395 0.29207158 -0.74358547 13
-2.0580339 0.39817762 0.55333078 16
-5.2825027 1.0220309 1.0397178 27
-4.9316287 0.95414567 0.70273006 22
-6.3929524 1.2368749 0.56533152 3
-11.78557 2.2802103 0.61755532 19
-15.381835 2.9759967 0.52876419 13
-13.51398 3.6514103 0.38930437 11
-13.973915 1.6638153 0.30854002 23
-14.026063 2.7136891 0.22891428 9
-15.252249 4.1210818 0.15993923 13
-15.911469 1.8945115 0.067680314 11
-18.40271 3.5604596 -0.031078713 35
-18.39193 4.969408 -0.14364734 38
-18.368584 2.1870699 -0.24861467 38
-18.352177 3.5506828 -0.36152536 75
-18.402037 4.9721389 -0.48117685 37
-18.35738 2.1857359 -0.57548821 37
-18.366554 3.5534647 -0.69347978 52
-18.34078 4.9555879 -0.816203 71
-18.332521 2.1827762 -0.90132803 41
-8.6582222 1.6751474 -0.48301125 1
-8.0981941 2.1880918 -0.50865978 13
-18.333672 2.1829131 -1.2285879 47
-8.1980743 1.5861204 -0.60513502 8
-7.830348 2.1157212 -0.63551193 0
-18.337076 2.1833184 -1.5555524 34
-8.0651159 1.5603963 -0.74065584 1
-7.6453962 2.0657482 -0.76061374 0
-10.921845 1.3004181 -1.1213099 1
-7.8676238 1.5221865 -0.86432111 14
-7.6567526 1.4813883 -0.97940266 27
-7.6427684 1.4786828 -1.1153845 38
-7.6224713 1.4747558 -1.2512083 35
-7.5577035 1.4622247 -1.3767422 24
-7.5448585 1.4597397 -1.5114535 32
-7.5761418 1.4657922 -1.6544443 1
-7.8613071 1.5209645 -1.8587418 3
-7.7611828 1.501593 -1.9746289 6
-5.5517907 1.0741314 -1.9453185 6
-1.5554838 0.30094683 -0.73851556 13
-2.0552042 0.41253573 0.55333078 17
-5.3214455 1.0681598 1.0488248 33
-4.9442668 0.9924497 0.70550108 25
-6.3685331 1.2783389 0.56394756 3
-11.773281 2.36322 0.61776084 19
-13.969246 2.8040102 0.48086646 0
-13.522833 3.755296 0.39030516 10
-13.977829 1.763333 0.30889073 26
-13.975406 2.8052466 0.22840159 11
-15.253938 4.2360244 0.16026315 17
-15.98913 2.0170629 0.068068899 6
-18.404856 3.6943586 -0.031125139 39
-18.406891 5.1116004 -0.14403941 44
-18.364773 2.3167553 -0.24877593 33
-18.354387 3.6842282 -0.36206681 67
-18.397699 5.1090484 -0.48198435 38
-18.373405 2.3178444 -0.57648385 39
-18.356976 3.6847477 -0.69407248 51
-18.340393 5.0931344 -0.81774819 56
-18.324762 2.311708 -0.90171814 46
-8.4818478 1.7025391 -0.47382355 1
-8.090415 2.2467113 -0.50914401 13
-18.317986 2.3108528 -1.2285879 48
-8.0342522 1.6126943 -0.5938592 17
-7.8115439 2.1692688 -0.63519949 0
-18.317434 2.3107834 -1.5552166 38
-7.9251299 1.5907905 -0.72880244 12
-7.6307883 2.1190729 -0.76061374 0
-10.257119 1.2939575 -1.0539664 7
-7.6384516 1.5332464 -0.84030026 0
-7.7007008 1.5457416 -0.98638064 5
-7.6206126 1.5296656 -1.1136825 42
-7.5926309 1.5240489 -1.2480261 46
-7.520287 1.5095276 -1.3718128 1
-7.5421801 1.513922 -1.5129974 158
-7.4967012 1.5047932 -1.6393507 2
-7.861958 1.5781102 -1.8614552 2
-7.7657299 1.5587946 -1.9785064 6
-5.5367393 1.1113752 -1.942716 7
-1.560454 0.31322584 -0.7418955 13
-2.0484874 0.42608607 0.55230987 17
-5.3330841 1.1092833 1.0526195 40
-4.9410963 1.0277497 0.70605528 25
-6.3789611 1.3268261 0.56567746 4
-11.744763 2.4429147 0.61714429 12
-15.037409 3.1277862 0.5183751 6
-13.538584 3.8616757 0.39152834 14
-13.973105 1.8619301 0.30906609 30
-14.025963 2.9174051 0.22955513 10
-15.235534 4.345705 0.16038463 22
-15.974659 2.128639 0.068068899 9
-18.390364 3.825202 -0.031145036 37
-12.031769 3.4318798 -0.094337374 1
-18.375904 2.4486074 -0.24915221 32
-18.359543 3.8187912 -0.36268559 43
-12.024433 3.4297874 -0.31563666 7
-18.376593 2.448699 -0.57710618 38
-18.373852 3.8217676 -0.69570249 50
-18.342819 5.2320113 -0.8194651 58
-18.32402 2.4416938 -0.90249836 64
-8.6770029 1.8048195 -0.48541754 3
-8.055335 2.2976623 -0.50793344 11
-18.321186 2.4413161 -1.2299157 54
-7.8230538 2.2314076 -0.63738662 0
-18.320608 2.4412391 -1.5568954 36
-7.6234665 2.1744783 -0.76137859 0
-10.090055 1.3445097 -1.037739 1
-7.6937528 1.6003032 -0.84759235 2
-7.7091498 1.6035058 -0.98887271 7
-7.5981178 1.5804111 -1.1119804 47
-7.5663409 1.5738014 -1.2454805 54
-7.5249853 1.5651995 -1.3746296 71
-7.4699459 1.5537513 -1.5006464 255
-7.466867 1.553111 -1.6351579 3
-8.4916258 1.766261 -2.0134108 2
-7.7584577 1.6137619 -1.9794759 7
-5.5325484 1.150772 -1.9440173 7
-1.5582292 0.32411221 -0.7418955 14
-2.0303392 0.43712083 0.54822624 17
-5.3136916 1.1440084 1.0503427 48
-4.941546 1.0638875 0.70716369 25
-6.3656468 1.3704885 0.56533152 4
-11.696179 2.5181227 0.61550021 4
-12.928241 2.7833788 0.44632611 7
-11.899609 3.4841983 0.34482515 17
-13.963727 1.9599913 0.30915377 28
-14.063902 3.0278804 0.23051642 8
-11.84602 3.4685075 0.12495505 19
-16.066359 2.2551229 0.068525054 6
-18.382763 3.9577074 -0.031178197 35
-11.796387 3.453975 -0.092678621 14
-18.366283 2.5779476 -0.24925973 35
-18.348074 3.9502389 -0.36299497 43
-11.723887 3.4327474 -0.30836904 16
-18.359049 2.5769322 -0.57710618 39
-18.370171 3.9549959 -0.69659156 44
-11.931592 3.4935629 -0.5341202 26
-18.330265 2.572892 -0.90366864 43
-8.6485729 1.86199 -0.48454255 2
-8.062088 2.3605745 -0.50938606 11
-18.319506 2.5713816 -1.2309781 50
-7.839344 1.6877674 -0.58113778 1
-7.8302464 2.2926915 -0.63926131 0
-10.164015 1.4266521 -0.86456877 6
-7.8164654 1.6828418 -0.72090024 0
-7.6615973 2.2433112 -0.76673234 0
-9.6902895 1.3601586 -0.99757636 1
-7.6629539 1.6497916 -0.8454476 3
-7.5736103 1.6305565 -0.97292316 25
-7.5907707 1.6342509 -1.1125478 40
-7.566751 1.6290796 -1.2473898 41
-7.4753814 1.6094083 -1.3675874 12
-7.4781013 1.6099938 -1.504506 38
-7.4596658 1.6060249 -1.6359965 4
-8.4333782 1.8156598 -2.0025568 2
-7.7735596 1.6736044 -1.9862615 7
-5.5169849 1.1877763 -1.9414148 7
-1.54884 0.3334567 -0.73851556 14
-2.0423384 0.45464614 0.55230987 15
-5.3324103 1.1870508 1.0556551 37
-4.9494653 1.1018033 0.70938051 24
-6.3598137 1.4157617 0.56567746 4
-11.389769 2.5354829 0.60029256 3
-12.853863 2.8614058 0.44443718 6
-11.622253 3.4912663 0.33748609 16
-13.482868 1.988569 0.29880771 25
-14.104884 3.1398962 0.2315418 6
-11.553367 3.4705732 0.12212069 19
-16.006697 2.3608048 0.068339214 9
-18.397635 4.0955081 -0.031251151 30
-11.511493 3.4579945 -0.090627812 16
-18.367624 2.7090147 -0.2495285 31
-18.359087 4.0869265 -0.36376846 68
-11.458368 3.4420362 -0.30200988 17
-18.356434 2.7073641 -0.577604 39
-18.365522 4.0883594 -0.69748062 45
-11.627514 3.4928467 -0.52158701 25
-18.323715 2.7025387 -0.90425378 52
-8.5690861 1.9075692 -0.4808237 2
-8.0683556 2.4236932 -0.51083869 13
-18.332697 2.7038634 -1.2331027 49
-7.807899 1.7381208 -0.57969213 0
-7.8255076 2.3507431 -0.64019859 0
-7.7850828 1.7330418 -0.71910429 0
-7.6495628 2.2978902 -0.76711476 0
-9.3459311 1.3784181 -0.96309322 1
-7.6396031 1.7006564 -0.8441608 2
-7.6046557 1.6928768 -0.97840583 32
-7.5714459 1.6854839 -1.1114131 47
-7.5513382 1.6810077 -1.2467533 41
-7.4870243 1.6666907 -1.3718128 47
-7.4743409 1.6638672 -1.5060499 41
-7.5208077 1.6742113 -1.6519288 3
-8.4052849 1.8711052 -1.9989388 3
-7.7730498 1.730363 -1.9891696 7
-5.5048656 1.2254412 -1.9401135 6
-1.5570909 0.34662488 -0.74358547 14
-2.0278072 0.46629307 0.54924715 9
-5.3086834 1.2207286 1.0526195 21
-4.9455137 1.137218 0.70993471 26
-6.3614259 1.4628061 0.56671542 4
-10.978586 2.5245194 0.57953614 6
-12.775134 2.9376345 0.44241333 5
-11.337749 3.492281 0.32992461 17
-13.492369 2.0863154 0.29933378 16
-14.106007 3.2436678 0.23192631 6
-11.284212 3.4757907 0.11952927 18
-16.072838 2.4853315 0.068694003 7
-18.415373 4.2346039 -0.031330738 31
-11.22713 3.4582081 -0.088577002 21
-18.364073 2.8396237 -0.24974352 32
-18.357389 4.221271 -0.36430991 55
-11.200945 3.4501421 -0.2958526 36
-18.376595 2.8415599 -0.57884854 37
-18.359907 4.2218499 -0.69836968 48
-11.358415 3.4986465 -0.51059902 17
-18.335987 2.8352807 -0.90581423 44
-8.5360985 1.9628708 -0.47972992 2
-8.0817642 2.4893646 -0.51277554 12
-9.8489113 1.5229301 -0.66316122 6
-7.7800226 1.7890116 -0.57853568 0
-7.8393941 2.4147093 -0.64269817 0
-9.4695244 1.4642658 -0.80715472 0
-7.7650299 1.7855641 -0.71838588 0
-7.6599708 2.3594429 -0.7697916 0
-9.0686607 1.4022806 -0.93550676 1
-7.6236691 1.7530582 -0.84373182 2
-7.5655775 1.7397001 -0.97491688 84
-7.5556359 1.737414 -1.1108458 42
-7.5317221 1.7319151 -1.2454805 46
-7.4560194 1.7145073 -1.3682917 37
-7.4587183 1.7151278 -1.505278 39
-7.5584874 1.7380698 -1.6628299 2
-7.9059639 1.8179718 -1.8831632 3
-7.7607803 1.7845869 -1.9891696 8
-5.5072351 1.2663854 -1.9440173 6
-1.5510998 0.35667446 -0.7418955 14
-2.0508437 0.48668858 0.5563935 12
-4.1918783 0.99478048 0.83253318 6
-4.9490175 1.1744581 0.71159732 25
-6.351059 1.5071785 0.56671542 4
-10.673074 2.5328419 0.56432843 3
-12.742646 3.0239749 0.44200855 3
-11.179638 3.5292194 0.3260327 45
-13.473528 2.1798203 0.2992461 17
-14.11415 3.3494484 0.232439 7
-11.175758 3.5279946 0.11863846 44
-16.090633 2.6032298 0.068846054 5
-18.404823 4.3676739 -0.031363901 32
-11.179828 3.5292795 -0.088396043 45
-18.363544 2.9709535 -0.25001228 37
-18.350822 4.3548589 -0.36477399 62
-11.180398 3.5294595 -0.29595354 44
-18.376045 2.972976 -0.57947081 39
-18.357212 4.3563752 -0.69940698 46
-11.154598 3.5213149 -0.50252968 51
-18.327579 2.9651351 -0.90639937 44
-8.4794416 2.0122681 -0.47732362 2
-8.1060696 2.5589468 -0.51543868 13
-9.5425434 1.5438443 -0.64324248 0
-7.7867527 1.847885 -0.57998127 0
-7.8489647 2.4777832 -0.6448853 0
-9.167902 1.4832329 -0.78230888 0
-7.7407475 1.8369675 -0.71730828 0
-7.6622968 2.4188552 -0.77170366 0
-8.8229523 1.427425 -0.91116571 1
-7.6151147 1.8071533 -0.8441608 1
-7.5571103 1.7933882 -0.97541529 4
-7.5510287 1.791945 -1.1119804 40
-7.527133 1.7862743 -1.2467533 45
-7.4591937 1.7701515 -1.3711085 53
-7.4503822 1.7680604 -1.5060499 38
-7.5804191 1.7989197 -1.6703767 1
-7.8513775 1.8632213 -1.8732138 4
-7.7519097 1.8396164 -1.990139 7
-5.4909005 1.3030531 -1.9414148 6
-1.5450445 0.36665666 -0.74020553 13
-2.0549097 0.50283283 0.55843532 16
-4.0360541 0.98761547 0.80293536 4
-4.9445453 1.2099217 0.71215153 28
-6.3248992 1.5476919 0.56533152 5
-10.523203 2.5750096 0.5573411 6
-12.639678 3.0929074 0.43917519 1
-11.177554 3.6145635 0.32669988 45
-13.497413 2.2804925 0.30012289 16
-14.086538 3.4469516 0.23237491 4
-11.181302 3.6157753 0.11896239 47
-16.127283 2.7248294 0.069082581 5
-18.389423 4.4998603 -0.031390429 31
-11.185363 3.6170888 -0.088637315 46
-18.369963 3.1037474 -0.25038856 30
-18.343279 4.4885688 -0.36523807 55
-11.17451 3.613579 -0.29645824 43
-18.350899 3.1005266 -0.57934636 36
-18.357412 4.4920273 -0.7005924 45
-11.144954 3.6040213 -0.50321645 53
-18.32613 3.0963418 -0.90737462 46
-8.4457884 2.0666699 -0.47622985 2
-8.1108007 2.6228464 -0.5168913 10
-9.2088299 1.5559032 -0.62146467 0
-7.8240395 1.914529 -0.58373988 0
-7.8466525 2.5374267 -0.64613503 0
-8.8704195 1.4987261 -0.75779873 0
-7.7470822 1.8956977 -0.71910429 0
-7.660378 2.4771898 -0.77323329 0
-8.5930424 1.451861 -0.8884474 0
-7.6061759 1.8612182 -0.84458971 0
-7.5366955 1.8442165 -0.97441846 3
-7.5460267 1.8464997 -1.1131152 42
-7.5144787 1.8387799 -1.2467533 44
-7.4543028 1.8240551 -1.372517 52
-7.4454818 1.8218966 -1.5075938 12
-7.5486798 1.847149 -1.6661839 1
-8.3831797 2.0513496 -2.0034614 5
-7.750186 1.8964572 -1.9930471 9
-5.4853435 1.342254 -1.942716 6
-1.5318824 0.37484899 -0.73513561 14
-2.0438485 0.5152756 0.5563935 17
-3.9148154 0.98696589 0.78016782 6
-4.9436607 1.2463485 0.71325994 23
-6.3216681 1.5937586 0.56602347 4
-10.497223 2.6464596 0.55693012 10
-12.761206 3.2172332 0.44416735 6
-11.171028 3.6987882 0.32725587 43
-13.520547 2.381604 0.30099967 13
-14.10479 3.5559649 0.23307985 6
-11.178571 3.7012858 0.11920534 49
-16.131504 2.8415163 0.069183946 4
-18.392467 4.6369333 -0.031450119 32
-11.182623 3.7026274 -0.088818274 44
-18.363602 3.2346935 -0.25060359 32
-18.350275 4.6262965 -0.36601156 77
-11.171788 3.6990399 -0.29706386 42
-18.364243 3.2348065 -0.58046651 37
-18.360489 4.628871 -0.70192599 47
-11.149873 3.6917837 -0.50458997 51
-18.32374 3.2276721 -0.90834987 43
-8.4389009 2.1275351 -0.47666734 2
-8.1415682 2.6957173 -0.52003866 8
-8.9619036 1.5786126 -0.60552967 0
-7.8414311 1.9769068 -0.58605283 0
-7.8779626 2.6084361 -0.65019685 0
-8.6163626 1.5177466 -0.73698193 0
-7.7259336 1.9477886 -0.71838588 0
-7.6769166 2.5418689 -0.77667499 0
-8.339716 1.4690161 -0.86329502 0
-7.6007094 1.9162183 -0.8454476 0
-7.535182 1.8996981 -0.9759137 54
-7.5367908 1.9001038 -1.1136825 40
-7.5206046 1.896023 -1.2499355 49
-7.4337511 1.8741263 -1.3711085 46
-7.4439983 1.8767098 -1.5099096 4
-7.6493745 1.9284873 -1.6913402 5
-8.3875456 2.1145878 -2.0079837 6
-7.7329946 1.9495687 -1.9920778 7
-5.4795065 1.3814409 -1.9440173 5
-1.5257127 0.38464811 -0.73344564 16
-2.0476885 0.53147507 0.55843532 18
-3.8660142 1.0034193 0.77181971 7
-4.9348388 1.2808313 0.71325994 23
-6.3258162 1.6418579 0.56740737 3
-10.528756 2.7327259 0.55960172 6
-13.31886 3.4568937 0.46440583 3
-11.182802 3.7895193 0.32836786 42
-13.550793 2.4845917 0.30205181 13
-14.133818 3.6684151 0.23397705 3
-11.186553 3.7907901 0.11956976 46
-16.115208 2.9547875 0.069200844 4
-18.417723 4.7802973 -0.031549603 31
-11.186809 3.7908766 -0.089059547 46
-18.372044 3.3685873 -0.25103363 30
-18.360111 4.7653441 -0.36686239 65
-11.168414 3.7846434 -0.2976695 41
-18.364807 3.3672605 -0.58121324 36
-18.370285 4.7679849 -0.703556 49
-11.150323 3.7785127 -0.50579178 75
-18.31255 3.3576789 -0.90893501 43
-8.4083776 2.1823843 -0.47579235 2
-8.2246494 2.7870891 -0.52657545 6
-8.6954918 1.5943531 -0.58826673 0
-7.7695146 2.0165679 -0.581716 2
-7.8973274 2.6761694 -0.65332127 0
-8.3742456 1.5354512 -0.71717238 0
-7.7160029 2.0026791 -0.71874505 0
-7.6778398 2.6017916 -0.77858704 0
-8.1492062 1.4941895 -0.84463358 0
-7.5794477 1.9672363 -0.84458971 0
-7.5255775 1.9532545 -0.97641212 50
-7.5271745 1.953669 -1.1142498 40
-7.5148292 1.9504647 -1.2512083 41
-7.4242973 1.9269673 -1.3718128 42
-7.4231172 1.9266609 -1.5083658 3
-7.6205816 1.9779127 -1.6879861 4
-8.3650351 2.1711347 -2.0061748 5
-7.7116828 2.0015578 -1.990139 5
-5.4624066 1.417761 -1.9414148 5
-1.5370269 0.39893344 -0.74020553 15
-2.0401917 0.54475993 0.55741441 16
-3.8702979 1.0334241 0.77409649 7
-4.9410858 1.3193396 0.71547675 24
-6.3373008 1.6921487 0.56948328 3
-10.463108 2.7937975 0.55713558 10
-13.352338 3.5652626 0.46642968 7
-11.174963 3.8740458 0.32892385 41
-13.615612 2.5948553 0.30389306 10
-14.138776 3.7752526 0.23448974 6
-11.186269 3.8779652 0.11985319 45
-16.12562 3.0732114 0.069336005 7
-18.399361 4.9128885 -0.031576134 46
-11.194082 3.8806741 -0.089330979 45
-18.371653 3.5012589 -0.25135615 38
-18.36117 4.9026914 -0.36755851 69
-11.168167 3.8716898 -0.29837608 44
-18.391909 3.5051193 -0.58283114 39
-18.363585 4.903336 -0.70459324 48
-11.146326 3.8641181 -0.50682187 65
-18.331833 3.49367 -0.9110806 39
-8.2578783 2.2049701 -0.46813589 4
-11.155015 3.8671305 -0.71590048 51
-8.4293098 1.6064531 -0.57100385 3
-7.7899375 2.0800233 -0.5843181 7
-7.9161296 2.7442999 -0.65644574 0
-8.1205664 1.5476129 -0.69635558 4
-7.7095313 2.0585537 -0.71946347 0
-7.7008705 2.6696756 -0.78279358 0
-7.9313998 1.5115615 -0.82313234 10
-7.5924249 2.0272846 -0.84759235 0
-7.5232611 2.0088167 -0.97790742 52
-7.5324793 2.0112784 -1.1170865 39
-7.5086598 2.0049181 -1.2524811 42
-7.4220757 1.9817989 -1.3739254 42
-7.4474049 1.9885621 -1.5160851 3
-7.636817 2.0391378 -1.6946944 4
-8.342145 2.2274704 -2.0043659 6
-7.6900225 2.0533445 -1.9882003 6
-5.4414124 1.4529339 -1.9375112 5
-1.5377071 0.41058949 -0.7418955 17
-2.0437977 0.56103748 0.55945623 17
-3.8402658 1.0541811 0.76954293 6
-4.9432149 1.3569487 0.71713936 26
-6.3253326 1.7363502 0.56948328 3
-10.558915 2.8984995 0.56330091 6
-13.365673 3.6689751 0.46777889 8
-11.170257 3.9599836 0.32959104 41
-13.585396 2.6875188 0.30363002 24
-14.451474 3.9670355 0.24012928 5
-11.185312 3.9653211 0.12013663 45
-16.170479 3.1989107 0.06962321 5
-18.410902 5.0539269 -0.031655718 31
-11.189338 3.966748 -0.089511931 47
-18.385998 3.6371939 -0.2518937 37
-18.353491 5.0381675 -0.36809996 53
-11.167248 3.9589171 -0.29908264 46
-18.363068 3.6326578 -0.58270669 38
-18.363596 5.0409417 -0.70592684 46
-11.149211 3.952523 -0.5081954 67
-18.326591 3.6254418 -0.91205585 58
-8.1768074 2.2445934 -0.46441707 37
-11.131509 3.9462473 -0.71614259 51
-8.2299547 1.6280836 -0.55825585 9
-7.7829213 2.1364689 -0.58489639 3
-7.9230886 2.8088255 -0.65863281 0
-7.964891 1.5756475 -0.68393266 12
-7.7026558 2.1144354 -0.72018182 0
-7.7270789 2.7393379 -0.78738248 0
-7.7879267 1.5406398 -0.80933911 2
-7.5704169 2.0781348 -0.84673446 0
-7.5358443 2.0686445 -0.98139638 51
-7.5182548 2.0638158 -1.1170865 43
-7.4982882 2.0583351 -1.2531176 42
-7.4156537 2.0356512 -1.3753339 41
-7.4182014 2.0363505 -1.5129974 255
-7.6337099 2.0955093 -1.6972101 3
-8.3301477 2.2866867 -2.0052702 6
-7.6717577 2.1059537 -1.9872309 5
-5.4384313 1.4928892 -1.9401135 6
-1.5522839 0.42611328 -0.75034529 17
-2.0435536 0.57634199 0.56047714 16
-3.8403726 1.0830976 0.77106082 7
-4.9488726 1.395727 0.71935618 27
-6.3092213 1.7793853 0.56913728 3
-10.565336 2.9797344 0.56473947 7
-13.36282 3.7687066 0.46858844 7
-11.179931 4.0514932 0.33070302 41
-13.734754 2.8168452 0.3074002 9
-14.173221 3.9972634 0.23596372 9
-11.17992 4.0514894 0.12037957 45
-15.936157 3.2683284 0.068710893 9
-18.405968 5.1910224 -0.031708777 35
-11.187696 4.0543075 -0.089723043 48
-18.387585 3.7710888 -0.25226998 40
-18.356363 5.177032 -0.36887345 45
-11.184452 4.0531316 -0.30029392 43
-18.364676 3.7663903 -0.58357793 37
-18.366428 5.1798711 -0.70740867 47
-11.147647 4.0397935 -0.50939721 59
-18.343887 3.7621269 -0.91420138 46
-8.4069576 2.3710084 -0.4784174 2
-11.159995 4.0442686 -0.71977413 47
-8.0971842 1.6606424 -0.55002278 9
-7.8023744 2.2004981 -0.58749849 2
-7.9782701 2.8912439 -0.66488171 1
-7.8990316 1.6200035 -0.67923212 1
-7.6877065 2.1681585 -0.72018182 0
-7.7564316 2.8108518 -0.79235381 0
-7.7457948 1.5885762 -0.80609363 0
-7.5710349 2.1352537 -0.84845018 0
-7.540318 2.1265905 -0.98388851 50
-7.5303397 2.1237764 -1.1210579 40
-7.5027394 2.1159923 -1.2562997 44
-7.4277897 2.0948544 -1.3802633 37
-7.4302468 2.0955472 -1.5184009 255
-7.6452446 2.156183 -1.7030798 3
-8.3027315 2.3416133 -2.0025568 6
-7.6531339 2.1584079 -1.9862615 6
-5.4242363 1.5297935 -1.9388124 6
-1.5178672 0.428083 -0.73513561 18
-2.04691 0.59274614 0.56251895 16
-3.8251727 1.1076972 0.76954293 7
-4.9504228 1.4335482 0.72101879 33
-6.2813339 1.8189547 0.56775337 4
-10.574973 3.0623107 0.56638354 7
-11.957637 3.4627039 0.420151 16
-11.170122 4.1363878 0.33125901 43
-13.914257 2.9550254 0.3118718 14
-11.897602 3.4453192 0.19847354 12
-11.181369 4.140553 0.1207035 50
-16.198582 3.4401565 0.06994421 3
-11.856849 3.4335177 -0.020467117 16
-11.181625 4.1406474 -0.089903995 45
-18.364723 3.9001887 -0.25232375 31
-11.981416 3.4695897 -0.24124895 1
-11.178381 4.1394463 -0.30089957 47
-18.384865 3.9044659 -0.58507138 38
-11.983109 3.4700804 -0.46246803 15
-11.149152 4.1286225 -0.51077068 70
-18.336718 3.8942409 -0.91517663 45
-8.3901997 2.4296422 -0.4784174 3
-11.157698 4.1317868 -0.72146887 47
-8.0385456 1.7071775 -0.54683578 1
-7.8213105 2.2649026 -0.59010059 1
-11.140299 4.1253443 -0.93077195 45
-7.8602376 1.6693096 -0.67688185 0
-7.7029958 2.2306409 -0.72305536 0
-7.7776914 2.8801432 -0.79656035 0
-7.7267318 1.6409564 -0.80528224 0
-7.5559435 2.1880574 -0.84845018 0
-7.5367246 2.182492 -0.98538375 53
-7.5305424 2.1807017 -1.1233273 39
-7.4991641 2.1716151 -1.258209 41
-7.4167652 2.1477542 -1.3809676 31
-7.438055 2.1539192 -1.5230325 255
-7.6450324 2.2138557 -1.706434 1
-8.2786961 2.3973527 -2.0007479 4
-7.6341505 2.2107048 -1.9852921 6
-5.413424 1.5676246 -1.9388124 5
-1.5183239 0.43967769 -0.73682559 16
-2.0353074 0.60481852 0.56047714 17
-3.8248756 1.1366123 0.77106082 7
-4.9554834 1.4725875 0.72323561 25
-6.2990413 1.8718435 0.57052118 4
-10.599286 3.149718 0.56884962 7
-11.668756 3.4675252 0.41084129 17
-11.18959 4.2326598 0.33270457 45
-13.936253 3.0615318 0.31283626 14
-11.61256 3.4508259 0.19411571 13
-11.178378 4.2284188 0.12098694 47
-15.994457 3.5136805 0.069167055 2
-11.568025 3.4375913 -0.020009492 13
-11.186115 4.2313452 -0.090175427 48
-18.383924 4.0386014 -0.25296879 34
-11.749888 3.4916346 -0.23707215 13
-11.175391 4.2272887 -0.30160612 42
-18.376684 4.0370107 -0.58569366 38
-11.705702 3.4785042 -0.45268819 31
-11.153698 4.2190828 -0.51231587 61
-18.324692 4.025589 -0.91595685 48
-8.4189758 2.5018098 -0.48104244 2
-11.150987 4.2180576 -0.72292149 48
-8.0225325 1.7623991 -0.54657018 6
-7.889441 2.3444517 -0.5964613 0
-11.159716 4.2213588 -0.93483371 48
-7.8444996 1.7232885 -0.67654604 0
-7.6986914 2.2877679 -0.72413296 0
-11.146367 4.21631 -1.1445535 42
-7.668447 1.6846131 -0.80041403 0
-7.5595446 2.2464187 -0.85059494 0
-7.5098906 2.2316632 -0.98388851 22
-7.5454988 2.2422447 -1.1278659 36
-7.4913912 2.226166 -1.2594818 43
-7.4166884 2.2039671 -1.3837844 21
-7.426599 2.206912 -1.5238045 255
-7.6481357 2.2727447 -1.7106267 1
-8.2804317 2.46064 -2.0052702 4
-7.6073709 2.2606308 -1.982384 5
-5.4095993 1.6075341 -1.9414148 5
-1.5152173 0.45026687 -0.73682559 15
-2.0347352 0.62013948 0.56149805 18
-3.7867939 1.1541258 0.76498944 6
-4.9488721 1.5082999 0.72378981 25
-6.2743855 1.9122853 0.56948328 4
-10.599967 3.2306211 0.57008266 6
-11.384231 3.469646 0.40166652 17
-11.182148 4.3193192 0.33337176 45
-13.941838 3.1649477 0.31345001 16
-11.328037 3.4525199 0.18975788 12
-11.189629 4.3222089 0.12143234 46
-15.969537 3.6252573 0.069167055 5
-11.306519 3.4459612 -0.019598292 15
-11.193615 4.3237486 -0.09047702 39
-18.378685 4.1721597 -0.25329131 37
-11.461267 3.493125 -0.23173513 20
-11.186639 4.3210535 -0.30271646 24
-18.371445 4.1705165 -0.58644038 37
-11.421128 3.4808917 -0.44261199 21
-11.142611 4.3040471 -0.51317436 62
-9.0584593 2.0563681 -0.45349225 1
-8.4929991 2.5884664 -0.48629257 2
-11.147339 4.3058734 -0.72461623 49
-7.9788966 1.8112956 -0.54444551 2
-7.8766985 2.4006329 -0.59675044 0
-11.156013 4.3092241 -0.93702084 48
-7.8206158 1.7753643 -0.67553878 0
-7.6977763 2.3461013 -0.72556973 0
-11.138947 4.3026319 -1.146848 35
-7.6797833 1.7433937 -0.80284816 0
-7.5665035 2.3060925 -0.85316861 1
-7.5207043 2.292134 -0.98737746 30
-7.5410252 2.2983274 -1.1295679 37
-7.4983335 2.285316 -1.2633003 55
-7.4387865 2.2671676 -1.3908266 18
-7.433538 2.2655678 -1.5284361 255
-7.6882024 2.3431835 -1.7232049 0
-8.255599 2.5161128 -2.0034614 4
-7.5914044 2.3136818 -1.982384 5
-5.3873916 1.6419504 -1.9375112 5
-1.5293771 0.46611822 -0.74527544 14
-2.0451224 0.63894278 0.56558162 16
-3.8048849 1.1887326 0.77030188 7
-4.9533463 1.547538 0.72600663 28
-6.2951155 1.9667373 0.57259709 5
-10.630537 3.3212216 0.57295984 7
-11.195649 3.4977753 0.39586481 38
-11.817553 4.6598201 0.35327622 12
-13.938871 3.2667656 0.3138884 22
-11.177681 3.4921618 0.18764307 24
-15.263412 6.018569 0.16609386 18
-16.235922 3.8051109 0.070434161 2
-11.186736 3.4949908 -0.019432487 35
-18.404327 7.2570744 -0.14916645 40
-18.388052 4.3094916 -0.25382885 34
-11.192294 3.4967275 -0.22678484 39
-18.41387 7.2608366 -0.49964869 35
-18.369129 4.3050575 -0.58731163 37
-11.175258 3.4914048 -0.4340176 47
-11.156906 4.3993187 -0.51523459 2
-8.9816456 2.1049716 -0.45037144 1
-8.5662165 2.6762807 -0.4915427 3
-18.363678 7.241046 -1.1969604 53
-7.8999968 1.8514725 -0.53993064 0
-7.871171 2.4591329 -0.59761781 0
-18.363457 7.2409587 -1.5465999 42
-7.8041506 1.8290097 -0.67520303 0
-7.707828 2.4081008 -0.72808409 0
-18.357592 7.2386456 -1.8952247 41
-7.6480527 1.792426 -0.80081975 0
-7.5692 2.3647902 -0.8553133 1
-7.5310364 2.3528671 -0.99086642 39
-7.5361342 2.3544598 -1.1312699 34
-7.4972739 2.342319 -1.265846 47
-7.4340529 2.3225672 -1.3929392 9
-7.4475102 2.3267715 -1.5346116 184
-9.0193291 2.8178437 -2.0259187 2
-8.2303944 2.5713625 -2.0016522 5
-7.5639548 2.3631516 -1.9794759 5
-5.3721867 1.6783934 -1.9362099 5
-1.5018622 0.4692159 -0.73344564 15
-2.0518911 0.65602589 0.56864434 17
-3.8043988 1.2163335 0.77181971 9
-4.9505205 1.5827689 0.72711504 23
-6.2895246 2.0108721 0.57328904 5
-10.661546 3.4086845 0.57583696 9
-11.183628 3.5756035 0.39626959 37
-11.126022 4.4726305 0.33348295 6
-13.979096 3.3741529 0.31529126 27
-11.192369 3.5783982 0.18828392 28
-15.252847 6.1316028 0.16641778 18
-16.245323 3.921155 0.070586212 2
-11.174741 3.572762 -0.019452384 34
-18.415171 7.4028482 -0.14964899 37
-18.394056 4.4397974 -0.25431266 35
-11.157429 3.5672271 -0.2265528 68
-18.424671 7.4066672 -0.50126374 36
-18.382923 4.4371104 -0.58868062 36
-11.170893 3.5715318 -0.43475848 55
-18.354229 7.3783498 -0.84985375 37
-8.9713707 2.1654315 -0.4505665 1
-8.5178423 2.7233047 -0.48979267 2
-18.363409 7.38204 -1.2001078 68
-7.8836637 1.9028903 -0.53966504 0
-7.9230895 2.5331516 -0.60282201 0
-10.811417 4.3461599 -0.91296262 5
-7.7879734 1.8797934 -0.67486727 0
-7.699276 2.4615946 -0.72880244 0
-18.360897 7.3810306 -1.9005784 40
-7.6514697 1.8468454 -0.80244249 0
-7.5760775 2.4222059 -0.85788697 2
-7.541728 2.4112236 -0.99435538 38
-7.5467539 2.4128306 -1.1352413 36
-7.4928584 2.3955991 -1.2677553 43
-7.4672422 2.3874092 -1.402094 5
-7.4506068 2.3820906 -1.5384713 70
-8.9892664 2.8740275 -2.0234032 2
-8.1983137 2.6211457 -1.9980344 9
-7.5665979 2.4191749 -1.9843228 5
-5.3573341 1.7128345 -1.9349087 6
-1.5056237 0.4813745 -0.73682559 14
-2.0470271 0.6710493 0.56864434 17
-3.7841847 1.2405182 0.76954293 9
-5.5975409 1.8349663 0.82410061 18
-6.2746153 2.0569224 0.57328904 5
-11.106971 3.6410487 0.60132009 19
-11.195105 3.6699405 0.39761883 36
-10.811823 4.4386597 0.32503191 8
-13.992791 3.4862018 0.31616801 30
-11.200042 3.6715589 0.18886068 26
-15.266693 6.2675514 0.16706564 23
-18.389679 4.5816545 0.080047265 38
-11.193862 3.6695328 -0.019531971 33
-18.430716 7.5665011 -0.150222 37
-18.380423 4.5793481 -0.25458142 32
-11.149981 3.655148 -0.22693954 74
-18.410572 7.5582318 -0.50237405 37
-18.380939 4.5794768 -0.58967626 39
-11.167202 3.6607933 -0.43564755 57
-18.373589 7.5430484 -0.85328752 47
-8.9513798 2.230171 -0.45037144 1
-8.3610201 2.7408807 -0.48191747 1
-18.378981 7.5452619 -1.2047077 52
-7.854012 1.9567698 -0.53860271 0
-7.9384265 2.6023474 -0.60542411 0
-10.524727 4.3207955 -0.89140391 9
-7.777853 1.9377953 -0.67520303 0
-7.6999531 2.5241718 -0.73059845 0
-18.379967 7.5456667 -1.9082266 48
-7.6338649 1.9019217 -0.80203676 0
-7.5694556 2.4813926 -0.85917377 3
-7.5464783 2.4738603 -0.99734592 45
-7.5514393 2.4754865 -1.1386453 36
-7.5088696 2.4615314 -1.2734832 37
-7.4607658 2.4457622 -1.4042068 3
-7.4441328 2.4403098 -1.5407871 19
-8.9493742 2.9337528 -2.0192103 2
-8.1751766 2.6799579 -1.9971298 7
-7.541285 2.4721577 -1.982384 6
-5.3482285 1.7532377 -1.9362099 6
-1.4951644 0.4901396 -0.73344564 13
-2.0496259 0.68778473 0.57068616 17
-3.7717087 1.2656572 0.76878405 8
-5.6108832 1.8828217 0.82798004 21
-6.2714362 2.1044807 0.57432699 5
-11.119152 3.7312095 0.6033752 20
-11.191952 3.7556386 0.39842835 38
-10.58141 4.4306397 0.31902722 4
-13.983605 3.5877802 0.31651872 27
-11.193094 3.756022 0.18918112 27
-15.24839 6.3847938 0.16734907 17
-16.156546 4.1452928 0.070451051 1
-11.198309 3.7577717 -0.019585028 33
-18.410646 7.7088919 -0.15049344 35
-18.390619 4.7184901 -0.25517273 35
-11.150733 3.7418067 -0.22748098 75
-18.42375 7.7143774 -0.50419098 37
-18.364012 4.7116632 -0.59017414 37
-11.171689 3.7488391 -0.43683299 58
-18.364714 7.6896586 -0.85534781 45
-8.9007626 2.2836728 -0.448616 1
-11.162633 3.7458 -0.64489001 47
-18.377417 7.6949773 -1.2080972 53
-7.8440256 2.0125453 -0.53886831 0
-7.9503241 2.6678584 -0.60773712 0
-10.303032 4.3140774 -0.87515682 8
-7.7757168 1.9950193 -0.67621028 0
-7.7199125 2.5905402 -0.73419034 0
-18.359894 7.6876402 -1.9116683 38
-7.6242552 1.9561588 -0.80244249 0
-7.5707994 2.5405028 -0.86131853 6
-7.5666504 2.5391104 -1.0023302 39
-7.5564961 2.5357032 -1.1420493 38
-7.5177088 2.5226874 -1.2779381 45
-7.4845715 2.5115678 -1.4119531 2
-7.4380779 2.495966 -1.543103 2
-8.9397993 2.9998927 -2.0217261 2
-7.8090358 2.6204469 -1.9121071 2
-7.5091262 2.5198073 -1.9785064 7
-5.3322725 1.7893294 -1.9349087 6
-1.5088917 0.50633276 -0.7418955 13
-2.0520899 0.70458895 0.57272798 17
-3.7813532 1.2983348 0.77257866 8
-5.5788679 1.9155148 0.82520902 19
-6.271667 2.1533887 0.57571089 5
-11.134394 3.823015 0.60563576 23
-11.20327 3.846664 0.39977759 36
-10.509769 4.4871335 0.31780404 3
-13.993017 3.6945047 0.31730783 30
-11.196862 3.8444638 0.18969381 28
-15.251265 6.5115089 0.16787545 19
-16.2355 4.2865758 0.070924111 1
-11.20585 3.8475497 -0.019644719 37
-18.415237 7.8623633 -0.15097599 38
-18.388166 4.8549337 -0.25560275 44
-11.139468 3.8247573 -0.22779037 76
-18.420929 7.8647938 -0.50560409 33
-18.380924 4.8530216 -0.59179205 41
-11.175489 3.8371255 -0.43801844 58
-18.37674 7.8459263 -0.85843813 46
-8.8884668 2.3467762 -0.44881105 1
-11.16643 3.8340149 -0.64664006 52
-18.370983 7.8434691 -1.2112446 52
-7.8259258 2.0662391 -0.53860271 0
-7.9579177 2.7323661 -0.609761 0
-10.045277 4.2888188 -0.85578525 8
-7.7538919 2.0472205 -0.67553878 0
-7.7468534 2.6598969 -0.73850065 0
-18.375351 7.8453341 -1.9189341 40
-7.6104131 2.0093384 -0.80244249 0
-7.586731 2.6049185 -0.865179 9
-7.5712609 2.5996068 -1.0053207 38
-7.5723138 2.5999682 -1.1471554 34
-7.5223241 2.5828042 -1.2817566 44
-7.4780273 2.567595 -1.4140657 2
-7.4613042 2.5618529 -1.5515943 1
-8.367465 2.8729849 -1.8967832 2
-7.7979212 2.6774311 -1.9139161 4
-7.4913511 2.5721695 -1.9785064 5
-5.3268056 1.8289689 -1.9375112 6
-1.4881752 0.51096773 -0.73344564 15
-2.0398231 0.71633518 0.57068616 18
-3.779608 1.3273044 0.77409649 5
-5.602736 1.9675416 0.83075106 21
-6.260241 2.198441 0.5760569 5
-11.133816 3.9099195 0.60707438 24
-11.198773 3.9327309 0.40058714 35
-10.580843 4.6050744 0.32091758 25
-13.982321 3.7962956 0.31765854 28
-11.184845 3.9278395 0.18995015 26
-15.260447 6.6417675 0.16848283 17
-16.278524 4.4197302 0.071245104 1
-11.201361 3.9336395 -0.019684512 35
-18.407579 8.0114861 -0.15136805 34
-18.380844 4.9905248 -0.25597903 29
-11.135135 3.9103827 -0.22825445 82
-18.431572 8.0219288 -0.50742102 40
-18.389038 4.9927492 -0.59316105 36
-11.174829 3.9243226 -0.43905568 57
-18.365488 7.9931674 -0.86049843 41
-8.9065666 2.4181936 -0.4505665 1
-11.165771 3.9211411 -0.64817137 52
-18.381674 8.0002117 -1.2156024 51
-7.8267169 2.1250069 -0.53966504 0
-7.9461775 2.7904999 -0.61033922 0
-9.8286104 4.2776823 -0.8398506 8
-7.7663379 2.1086137 -0.67788911 0
-7.7656841 2.7271152 -0.74209261 0
-18.363945 7.9924951 -1.9235229 39
-7.6077209 2.0655482 -0.8036595 0
-7.6096354 2.6723149 -0.86989737 4
-7.5791411 2.6616061 -1.0088097 36
-7.5876012 2.664577 -1.1522614 33
-7.5264654 2.6431077 -1.2855752 36
-7.4747806 2.6249573 -1.4168826 5
-7.4654565 2.6216829 -1.5562259 1
-8.3103027 2.9183717 -1.8883978 2
-7.7863922 2.7343874 -1.9157251 5
-7.4549046 2.6179771 -1.9736595 5
-5.3103385 1.864859 -1.9362099 6
-1.4777304 0.51894218 -0.7300657 15
-2.0495889 0.73507059 0.57476979 18
-3.767025 1.3510169 0.77333754 6
-5.5932922 2.0059946 0.83130527 20
-6.2567759 2.2439485 0.57709479 6
-11.145242 3.9971619 0.60912943 22
-11.202549 4.017715 0.40166652 37
-10.95584 4.8549619 0.33326057 24
-13.991508 3.8986006 0.31844765 27
-11.19243 4.0140858 0.19052692 25
-15.267258 6.7655201 0.1690497 18
-18.391222 5.1245389 0.08063858 47
-11.193851 4.0145955 -0.019717673 34
-18.423519 8.1641836 -0.15194108 37
-18.389727 5.1241226 -0.25657034 29
-11.139071 3.9949489 -0.22887324 84
-18.425489 8.1650562 -0.50873321 39
-18.390184 5.1242499 -0.5942812 38
-11.16737 4.0050979 -0.4397966 55
-18.355915 8.1342249 -0.86255866 46
-8.3938608 2.3388696 -0.425405 2
-11.162076 4.0031996 -0.64948386 51
-18.372015 8.1413593 -1.2185076 54
-7.8124518 2.1768653 -0.53966504 0
-7.882431 2.826978 -0.60686976 0
-9.6140852 4.2603779 -0.82391596 5
-7.7752204 2.1664913 -0.67990363 0
-7.7774258 2.7893188 -0.74496615 0
-18.354216 8.1334724 -1.9281119 38
-7.582355 2.1127512 -0.80244249 0
-7.6329231 2.7374938 -0.87461579 4
-7.5912085 2.7225332 -1.0127971 35
-7.5995793 2.7255354 -1.1568002 34
-7.5459418 2.7062986 -1.2919394 32
-7.4535003 2.6731451 -1.4161783 39
-7.481154 2.6830628 -1.5631733 2
-8.2760372 2.9681423 -1.8850436 3
-7.7974272 2.7964921 -1.9229611 5
-7.4483356 2.6712928 -1.9765677 6
-5.2942929 1.8987607 -1.9349087 6
-1.4879066 0.53362715 -0.73682559 15
-2.0296228 0.74474502 0.57068616 19
-3.7570212 1.3785924 0.77333754 7
-5.5672817 2.042845 0.82964265 19
-6.2663479 2.2993588 0.57951671 5
-11.149396 4.0911326 0.61097902 22
-11.191564 4.106606 0.40234113 37
-10.960037 4.9532552 0.33448374 27
-13.989464 4.00877 0.3190614 27
-11.192744 4.107039 0.19103961 27
-15.260992 6.8970189 0.16953558 16
-18.403152 5.27354 0.080858216 39
-11.190411 4.1061826 -0.019764099 35
-18.417854 8.3237247 -0.15239346 35
-12.007599 3.4408538 -0.16787538 7
-11.147034 4.0902662 -0.22964673 87
-18.427088 8.3278971 -0.51044917 34
-11.968278 3.4295862 -0.38755846 14
-11.160229 4.095108 -0.44068566 57
-18.361345 8.2981863 -0.86564904 44
-9.4249926 2.7007916 -0.47865376 0
-11.15868 4.0945396 -0.65101516 49
-18.377333 8.3054113 -1.2228656 48
-7.807795 2.2373734 -0.54046178 0
-11.164901 4.0968223 -0.86187649 44
-9.4154387 4.2551923 -0.80954349 1
-7.7591305 2.2234282 -0.67990363 0
-7.8053908 2.8640916 -0.74963564 0
-18.377554 8.3055115 -1.9369074 45
-7.604919 2.1792378 -0.8064993 1
-7.6798558 2.8180282 -0.88233674 17
-7.6045814 2.7904072 -1.0172828 33
-7.6165695 2.794806 -1.1624734 31
-7.5481472 2.7696991 -1.2957579 27
-7.4410996 2.7304194 -1.4175868 32
-7.4944477 2.7499948 -1.5701207 3
-7.9346185 2.91151 -1.8120904 2
-7.7840352 2.8562555 -1.92477 4
-7.4176259 2.721806 -1.9736595 6
-5.2731314 1.9349103 -1.9323063 5
-1.4941659 0.5482657 -0.7418955 15
-2.0533452 0.76975703 0.57885343 17
-3.7509823 1.4061663 0.77409649 8
-5.5528841 2.0816624 0.82964265 19
-6.2464108 2.3416514 0.5791707 7
-11.157967 4.1828928 0.61303413 23
-11.196311 4.1972671 0.40355545 35
-13.427668 6.1817203 0.4110992 4
-11.858718 3.4879608 0.27101368 17
-11.204993 4.2005219 0.19174455 26
-15.263335 7.0268102 0.17010246 13
-11.811575 3.4740946 0.052002002 20
-11.198925 4.1982474 -0.019830421 35
-18.431961 8.4855566 -0.15299663 41
-11.745383 3.4546258 -0.1645426 15
-11.15191 4.1806221 -0.23034286 60
-18.422981 8.4814224 -0.51196331 39
-11.690894 3.4385993 -0.37934431 13
-11.157567 4.1827431 -0.44172293 55
-18.364677 8.4545803 -0.86856771 48
-9.2564249 2.722558 -0.47104681 1
-11.167222 4.1863623 -0.65320271 51
-18.362423 8.4535427 -1.2257708 47
-7.795814 2.2929537 -0.54072738 0
-11.162176 4.1844711 -0.8639003 49
-18.383411 8.4632053 -1.5856555 42
-7.7510672 2.2797925 -0.68057513 0
-7.8262391 2.9338965 -0.75358677 0
-18.369757 8.4569197 -1.9422611 44
-7.5933371 2.2334001 -0.80690497 0
-7.6860623 2.8813472 -0.88533938 11
-7.6257944 2.8587539 -1.0227655 33
-7.6302409 2.8604207 -1.1675795 30
-7.5508132 2.8306448 -1.2995765 22
-7.4845343 2.8057983 -1.4295585 31
-7.4934411 2.8091373 -1.5739805 3
-7.925086 2.9709523 -1.8146061 2
-7.7857957 2.9187353 -1.930197 3
-7.3875418 2.7694378 -1.9707514 5
-5.2630363 1.9730045 -1.9336075 6
-1.4936967 0.55995625 -0.74358547 14
-2.0370858 0.77992469 0.5757907 16
-3.7337389 1.4295105 0.77257866 9
-5.5382161 2.120378 0.82964265 19
-6.2113032 2.378078 0.5774408 7
-11.162068 4.2735429 0.61488372 25
-11.204071 4.2896242 0.40490466 36
-13.235756 6.2057123 0.4065401 3
-11.585221 3.4955781 0.26531461 19
-11.197806 4.2872257 0.19212906 27
-15.239261 7.1450753 0.1703859 16
-11.522801 3.4767444 0.050836265 20
-11.202963 4.2891998 -0.019890111 36
-18.4266 8.6394901 -0.15344903 36
-11.456768 3.4568205 -0.16083354 13
-11.148595 4.2683845 -0.2308843 53
-18.428495 8.640379 -0.51378018 37
-11.406324 3.4416001 -0.37088123 15
-11.172891 4.2776861 -0.44350106 53
-18.373959 8.614809 -0.87182981 40
-9.0535955 2.7317173 -0.46168438 1
-11.160103 4.2727904 -0.65451527 50
-18.368036 8.612031 -1.2301286 51
-7.7872577 2.3496287 -0.54125851 0
-11.162498 4.2737074 -0.86621332 51
-18.392485 8.6234951 -1.5915918 42
-7.7464094 2.3373036 -0.68158239 0
-11.131675 4.2619061 -1.0747052 32
-18.367956 8.6119938 -1.9483796 36
-7.5623207 2.281759 -0.80528224 0
-7.7586102 2.9704847 -0.89606291 55
-7.6464224 2.927532 -1.0282482 32
-7.6544595 2.9306092 -1.1743876 30
-7.5603714 2.8945863 -1.3046678 27
-7.5088902 2.8748763 -1.438009 29
-7.480978 2.8641896 -1.5755243 1
-7.9406772 3.0401914 -1.8229915 2
-7.7870626 2.9813781 -1.935624 3
-7.3607793 2.8181698 -1.9688126 5
-5.2491341 2.0096991 -1.9336075 7
-1.4626646 0.56000018 -0.7300657 14
-2.0351934 0.79553533 0.57681161 17
-3.7382994 1.4612613 0.77561432 7
-5.5195885 2.157548 0.82908845 20
-6.1982613 2.4228339 0.5777868 9
-11.180329 4.3702712 0.61755532 22
-11.747251 4.5918746 0.42568284 1
-12.188989 5.8190713 0.37562701 5
-11.293108 3.4936414 0.25917712 16
-14.646769 5.7252655 0.25198513 1
-15.257588 7.2840328 0.17115521 13
-11.246043 3.4790816 0.049721211 21
-18.411373 7.1968093 -0.032776568 32
-18.423588 8.7954931 -0.15393157 40
-11.203098 3.465796 -0.15760826 25
-11.163223 4.3635845 -0.23181248 49
-18.429071 8.798111 -0.51549613 37
-11.183407 3.4597044 -0.36440948 43
-11.176261 4.368681 -0.44483468 27
-18.371069 8.7704201 -0.87457681 47
-8.8243818 2.7299149 -0.45095661 1
-11.17092 4.3665934 -0.65692157 3
-18.372318 8.7710171 -1.2344865 45
-7.7859168 2.4086552 -0.54232085 0
-11.154684 4.3602467 -0.86794806 10
-18.385815 8.7774601 -1.5962785 43
-7.764174 2.4019287 -0.68460417 0
-11.123913 4.3482184 -1.0768604 52
-18.382841 8.7760401 -1.9564103 42
-7.5842228 2.3462589 -0.80933911 0
-7.7080512 3.0129948 -0.89263141 2
-7.6923342 3.0068512 -1.0372199 23
-7.696506 3.008482 -1.1840323 26
-7.5767589 2.961674 -1.3110321 29
-7.5436468 2.9487307 -1.4485723 255
-7.497355 2.9306359 -1.5832437 1
-8.7315836 3.4130828 -2.0099864 3
-7.7660589 3.0356693 -1.935624 4
-7.351768 2.8737276 -1.9717208 6
-5.2279301 2.0435419 -1.9310051 6
-1.4485894 0.56623811 -0.72499579 7
-2.0475509 0.81689 0.58191615 15
-3.7316544 1.4887792 0.77637321 8
-5.5191088 2.2019014 0.83130527 19
-6.2293124 2.4852438 0.58228451 7
-11.824826 4.7176275 0.65495801 25
-11.057684 4.4115686 0.40180144 21
-12.040181 5.8515911 0.37229109 3
-11.169328 3.5409756 0.25689748 42
