# .PCD v0.7 - Point Cloud Data file format
VERSION 0.7
FIELDS x y z intensity
SIZE 4 4 4 4
TYPE F F F F
COUNT 1 1 1 1
WIDTH 1369
HEIGHT 1
VIEWPOINT 0 0 0 1 0 0 0
POINTS 1369
DATA ascii
-5.9954987 7.7154374 0.50267565 26
-5.9926519 7.7117739 0.3296175 28
-5.6387444 8.4613352 0.28277665 24
-3.5890496 3.9846449 0.11757663 27
-5.990386 7.708858 0.1564333 22
-5.653944 8.4841423 0.10321142 27
-3.6005881 3.9974551 0.022723421 30
-5.986238 7.7035198 -0.016176052 29
-5.6651635 8.5009785 -0.077026099 26
-3.602972 4.000102 -0.072353587 13
-5.9973965 7.7178798 -0.18903893 42
-5.6723905 8.5118237 -0.25820231 25
-3.598877 3.9955554 -0.16739438 4
-6.0017591 7.7234936 -0.36259508 45
-5.6224289 8.4368525 -0.43557152 28
-3.5722721 3.9660182 -0.26058736 29
-5.9944425 7.7140784 -0.53507495 44
-5.6327968 8.4524097 -0.61591166 29
-3.5793195 3.9738424 -0.35588148 33
-5.9852757 7.702282 -0.70690638 43
-5.6435924 8.4686098 -0.79735816 26
-3.5852456 3.9804218 -0.45125455 30
-5.6565032 7.2791939 -0.83117247 30
-5.6504154 8.4788475 -0.97858757 27
-3.5953703 3.9916623 -0.54767305 33
-6.0029721 7.7250547 -1.0552009 46
-5.9956021 7.7155709 -1.2271193 38
-5.9937553 7.7131944 -1.3996203 35
-6.014185 7.7394843 -1.5796027 37
-6.0038824 7.7262263 -1.7499768 36
-5.9194727 7.6176019 -1.8974222 6
-5.3804593 6.9239607 -1.8800123 4
-4.9728913 6.3994727 -1.8813542 4
-4.6100426 5.9325333 -1.8767215 7
-3.3072684 4.2560301 -1.8542333 6
-2.4270096 3.12325 -1.8437539 9
-1.9472257 2.5422645 0.84530973 4
-2.0704796 2.7031827 0.65798199 11
-3.3097146 4.3211064 0.76147562 9
-5.8785863 7.6749811 0.83934772 24
-5.9123397 7.7190495 0.50020951 27
-5.9046354 7.7089906 0.32772857 29
-5.6453576 8.6007748 0.28611258 24
-6.851418 7.7142267 0.22621007 32
-5.907239 7.7123899 0.15566428 21
-5.6582246 8.6203785 0.10438565 25
-6.8423791 7.7040496 0.043520842 35
-5.907989 7.7133689 -0.016109731 29
-5.6737185 8.6439829 -0.077961028 27
-6.8338542 7.6944513 -0.13831039 31
-5.9141879 7.7214622 -0.18811075 41
-5.6786551 8.6515045 -0.26123047 25
-6.8205423 7.6794629 -0.31972951 35
-5.9209561 7.7302985 -0.36096513 42
-5.6291785 8.5761261 -0.44072217 29
-6.8475657 7.7098894 -0.50342518 36
-5.9088702 7.7145195 -0.53223115 41
-5.6328044 8.5816498 -0.6224485 29
-6.8458939 7.7080069 -0.68600136 38
-5.9046736 7.7090402 -0.70372605 44
-5.6434145 8.5978146 -0.80579418 26
-6.8474078 7.709712 -0.86859787 34
-5.7315145 7.4829669 -0.84985048 47
-5.6478906 8.6046343 -0.98853022 26
-5.684082 6.3998866 -0.87262577 8
-5.91504 7.7225742 -1.0491958 47
-5.9150453 7.7225814 -1.2216367 38
-5.9036465 7.7076993 -1.3911103 37
-5.9239879 7.7342567 -1.5700564 38
-5.9066997 7.7116857 -1.7373009 34
-5.8494415 7.6369305 -1.8920187 5
-5.3415027 6.9737744 -1.8833665 4
-4.9209857 6.4247541 -1.8786407 5
-4.5685139 5.9645729 -1.8767215 6
-3.2636755 4.2609982 -1.846426 7
-2.4029417 3.1372395 -1.8420639 8
-1.9201089 2.5434496 0.8412261 2
-2.0846853 2.7614541 0.66860688 8
-3.315269 4.3915324 0.76978868 9
-5.8008513 7.6840296 0.83588797 27
-5.8222041 7.7123141 0.49712691 24
-5.8217683 7.7117372 0.3261095 29
-5.6502962 8.740716 0.28944853 25
-6.7578754 7.7167439 0.2248949 32
-5.8195162 7.7087536 0.15476707 23
-5.6608768 8.7570839 0.10555989 29
-6.7541685 7.7125111 0.04330121 37
-5.8106151 7.6969628 -0.01599035 29
-5.6718636 8.7740793 -0.078775324 26
-6.7404442 7.6968389 -0.13750407 27
-5.8264036 7.7178774 -0.18702789 43
-5.6767306 8.7816086 -0.26395583 24
-6.7246189 7.6787686 -0.31773821 29
-5.8259015 7.7172122 -0.35844606 45
-5.6234069 8.6991196 -0.44501436 29
-6.7540908 7.7124219 -0.50049943 37
-5.8211784 7.7109556 -0.52916861 42
-5.6356149 8.7180052 -0.62946951 27
-6.7445841 7.7015662 -0.68122089 39
-5.8194613 7.7086816 -0.69996744 41
-5.6438704 8.7307758 -0.81454259 27
-6.7408972 7.6973562 -0.86188275 37
-5.8159518 7.7040324 -0.87032449 42
-5.6482058 8.7374821 -0.99923772 24
-5.6759677 6.4813251 -0.87830532 1
-5.8274355 7.7192445 -1.0431906 48
-5.8251185 7.7161746 -1.2141603 39
-5.8234501 7.7139649 -1.3848696 37
-5.8365369 7.7312999 -1.5611465 36
-5.826622 7.7181668 -1.7295545 36
-5.7865248 7.6650524 -1.8889309 5
-5.2667651 6.9765587 -1.8741425 4
-4.8736653 6.4558434 -1.8777362 4
-4.5197473 5.9870305 -1.8738133 6
-3.2338483 4.2836795 -1.846426 7
-2.3831654 3.1568322 -1.8437539 8
-1.9369347 2.6033361 0.85653973 2
-2.0231578 2.7192242 0.65494633 1
-3.3129053 4.4527087 0.77643913 9
-5.7185202 7.6859741 0.83173621 28
-5.7372208 7.7111087 0.49445528 25
-5.7415385 7.7169118 0.32462534 30
-5.6514053 8.8777666 0.29267329 25
-6.6567936 7.7092524 0.22331668 33
-5.7321334 7.7042713 0.15386987 21
-5.6597443 8.8908663 0.10669364 27
-6.6531053 7.7049809 0.042997107 37
-5.732861 7.7052493 -0.015924027 30
-5.672761 8.911315 -0.079649933 26
-6.642108 7.692245 -0.13659024 30
-5.748508 7.7262797 -0.1862544 41
-5.6754103 8.9154758 -0.26678213 24
-6.636879 7.6861887 -0.31612027 33
-5.7527947 7.7320409 -0.35726064 43
-5.6247735 8.8359318 -0.44999328 29
-6.655695 7.7079797 -0.49718356 36
-5.7385941 7.712955 -0.5265435 41
-5.6389365 8.85818 -0.63673258 29
-6.651526 7.7031517 -0.67723715 43
-5.7393069 7.7139125 -0.69678706 39
-5.6491652 8.8742485 -0.82422841 26
-6.6479201 7.698976 -0.85684645 34
-5.7572694 7.7380548 -0.86960608 42
-5.6533523 8.880826 -1.0110924 27
-6.6448655 7.6954384 -1.036522 41
-5.7496638 7.7278328 -1.0389011 47
-5.7450471 7.7216277 -1.2086776 38
-5.7363644 7.7099576 -1.3769269 38
-5.7588472 7.7401757 -1.5547823 38
-5.7467422 7.723906 -1.7218081 35
-5.7117853 7.6769223 -1.8819834 4
-5.2202659 7.0162954 -1.874981 5
-4.8238239 6.483458 -1.8759272 5
-4.4639401 5.9997568 -1.8679971 6
-3.201606 4.3031168 -1.8451248 7
-2.3589044 3.1704843 -1.8420639 9
-1.8340974 2.5013943 0.81876624 0
-1.7904754 2.4419012 0.58512586 2
-3.3215599 4.5300379 0.7858606 7
-5.6929989 7.7642736 0.83588797 24
-5.6572638 7.7155375 0.49219468 25
-5.6544299 7.7116723 0.32273641 26
-5.6445022 9.0050898 0.29556441 19
-6.5665207 7.7129045 0.22208919 31
-5.6569233 7.7150731 0.1532931 18
-5.6548924 9.0216665 0.10778689 32
-6.5680404 7.7146893 0.042794369 37
-5.6647367 7.7257295 -0.015884234 22
-5.6613946 9.0320396 -0.080373749 23
-6.5571346 7.70188 -0.13594519 30
-5.6684155 7.7307463 -0.18540357 44
-5.6661239 9.0395842 -0.26930562 20
-6.5441852 7.6866693 -0.31425339 37
-5.6703115 7.7333317 -0.35548249 44
-5.6266236 8.9765673 -0.45514393 30
-6.5680556 7.7147074 -0.49464789 35
-5.6609907 7.7206206 -0.52435595 42
-5.6299706 8.9819069 -0.64278519 27
-6.561368 7.706852 -0.67351896 37
-5.652287 7.7087498 -0.69273937 38
-5.6463757 9.0080795 -0.83297682 33
-6.5604234 7.7057424 -0.8524816 33
-5.672483 7.7362938 -0.86493659 46
-5.6440816 9.0044193 -1.0206527 28
-6.5600276 7.7052774 -1.0316538 37
-5.6673536 7.7292981 -1.0337538 47
-5.660491 7.7199392 -1.2021981 41
-5.6543036 7.7114997 -1.3701189 38
-5.6696429 7.7324204 -1.5452359 38
-5.6530981 7.7098565 -1.7098365 36
-5.62324 7.6691346 -1.8704044 10
-5.1619048 7.0399528 -1.8716269 5
-4.7738357 6.5106926 -1.8741182 5
-4.4288297 6.0401635 -1.8709052 6
-3.1759598 4.3314643 -1.8477272 7
-2.3410003 3.1927228 -1.8454438 9
-1.8845419 2.6081827 0.84939337 1
-1.7457827 2.4161417 0.57601887 4
-3.3084142 4.5788045 0.79029423 8
-5.7040043 7.8942714 0.84557539 22
-5.6453733 7.813127 0.49589384 19
-5.6519637 7.8222475 0.32570472 20
-5.6549931 9.1633701 0.29945636 21
-6.4816623 7.7218041 0.22103705 33
-5.6661677 7.8419061 0.15502341 16
-5.6463866 9.1494236 0.10883966 18
-6.467732 7.7052083 0.042490263 38
-5.6786003 7.8591132 -0.016076569 21
-5.6633205 9.1768637 -0.081308678 18
-6.4620628 7.6984544 -0.13508512 29
-5.6143064 7.7701311 -0.18540357 30
-5.6700783 9.1878138 -0.27253565 19
-6.4569468 7.6923594 -0.31263545 33
-5.6349125 7.7986493 -0.35666791 36
-5.6225834 9.1108532 -0.45995116 20
-6.4703703 7.7083516 -0.49133205 36
-5.6350226 7.7988019 -0.52698106 30
-5.6342268 9.1297197 -0.65053248 20
-6.4663482 7.7035599 -0.66926962 40
-5.6427259 7.809463 -0.69823271 28
-5.644084 9.1456919 -0.84203774 18
-6.4654655 7.7025084 -0.84710956 34
-5.5950036 7.7434158 -0.86134464 34
-5.6438136 9.1452551 -1.032125 17
-6.4625821 7.6990733 -1.0247571 41
-5.6062675 7.7590051 -1.032467 33
-5.615756 7.7721372 -1.2041918 28
-5.6281567 7.789299 -1.3769269 26
-5.587769 7.7334032 -1.5375988 32
-5.585299 7.7299852 -1.7056111 30
-5.5718608 7.7113867 -1.8711764 7
-5.1080499 7.069478 -1.8699498 4
-4.7214203 6.5343871 -1.8714048 4
-4.3820076 6.0646448 -1.8689665 6
-3.1367819 4.3412676 -1.8425224 6
-2.312284 3.2001724 -1.840374 10
-1.8550729 2.6055219 0.84428883 2
-1.7288734 2.4282699 0.57601887 6
-3.3039405 4.6405129 0.79694462 1
-5.6972933 8.0020695 0.85284096 17
-5.6462994 7.9304471 0.50082606 19
-5.6598234 7.9494419 0.32934764 22
-5.6573176 9.3119783 0.3030147 23
-6.3868012 7.7175722 0.21963419 33
-5.6623192 7.9529471 0.1564333 14
-5.6467543 9.294591 0.11009488 19
-6.3755279 7.7039499 0.042236842 37
-5.6769581 7.9735079 -0.01622911 20
-5.6614213 9.3187323 -0.082213446 18
-6.364809 7.6909976 -0.13417129 30
-5.613277 7.8840652 -0.18718258 31
-5.672236 9.3365345 -0.27576572 18
-6.3597536 7.6848884 -0.3105197 36
-5.64293 7.925714 -0.36066875 34
-5.6252398 9.2591782 -0.46544516 21
-6.3858309 7.7163997 -0.48899144 35
-5.6383557 7.9192891 -0.5324499 32
-5.6346178 9.2746143 -0.65803772 18
-6.3793287 7.7085423 -0.66581702 40
-5.6436052 7.9266629 -0.70517164 27
-5.6380725 9.2803001 -0.85078615 18
-6.3759565 7.7044678 -0.84240896 28
-5.5962658 7.8601723 -0.86996531 31
-5.6501207 9.3001328 -1.0451269 17
-6.3782296 7.7072144 -1.019889 39
-5.6004052 7.8659863 -1.0414748 33
-5.6120043 7.882278 -1.2151572 28
-5.6264634 7.9025865 -1.3899755 27
-5.5863266 7.8462124 -1.5522366 27
-5.5905776 7.8521838 -1.7239208 29
-5.5087872 7.7373056 -1.8680886 6
-5.0563054 7.1017776 -1.8691113 5
-4.6666498 6.5544906 -1.8677868 5
-4.335063 6.0887642 -1.8670276 6
-3.1085937 4.3661408 -1.8438236 6
-2.2919903 3.2191894 -1.8420639 11
-1.84128 2.6247416 0.84633064 2
-1.7344333 2.4724319 0.58360803 6
-5.684772 8.1036329 0.85941458 12
-5.6504445 8.0546999 0.50616932 18
-5.6707683 8.0836706 0.33326042 21
-5.6557918 9.4576254 0.30646184 21
-6.2973747 7.7185926 0.21840669 31
-5.6617846 8.0708647 0.15797135 15
-5.6535826 9.4539309 0.11151206 17
-6.2937741 7.7141795 0.042051002 40
-5.6785831 8.0948114 -0.016394917 23
-5.6660295 9.4747448 -0.083238855 18
-6.2780914 7.6949577 -0.13347249 30
-5.620111 8.0114594 -0.18927097 32
-5.6766996 9.4925871 -0.27919763 18
-6.2756186 7.6919265 -0.30902621 33
-5.6356683 8.0336361 -0.36378053 34
-5.6261001 9.4079752 -0.47093919 23
-6.293921 7.7143593 -0.48606569 36
-5.6471553 8.0500107 -0.53857505 29
-5.6373596 9.4268026 -0.66602713 18
-6.2875113 7.7065034 -0.66183329 40
-5.6408262 8.0409889 -0.7118215 29
-5.6365981 9.4255295 -0.8604719 18
-5.6030283 7.9871078 -0.87966353 33
-5.6504545 9.4487 -1.057364 19
-6.2815022 7.6991377 -1.0129924 40
-5.6070194 7.9927974 -1.0530562 33
-5.613821 8.0024929 -1.2276177 28
-5.623457 8.0162287 -1.4030243 26
-5.5790396 7.9529119 -1.5656015 34
-5.5921555 7.9716086 -1.7415261 26
-5.4613991 7.7852154 -1.8704044 5
-4.9953723 7.1208954 -1.8649186 4
-4.616302 6.5805311 -1.8659778 4
-4.29245 6.1188803 -1.8670276 7
-3.0802088 4.3908329 -1.8451248 7
-2.2652962 3.229176 -1.838684 11
-1.8383034 2.6598032 0.853477 3
-1.7260619 2.4974034 0.5866437 7
-4.7703996 6.9021926 1.1738031 32
-5.6937656 8.2381916 0.86944801 13
-5.6485844 8.1728201 0.51110154 18
-5.6664734 8.1987028 0.33636367 22
-5.6626415 9.6209326 0.31046498 22
-6.2032332 7.7125096 0.21700384 34
-5.6644235 8.1957378 0.15963759 14
-5.6665697 9.6276054 0.11309121 23
-6.1996546 7.7080607 0.041780684 40
-5.6856117 8.2263937 -0.016580619 20
-5.6829295 9.6554022 -0.084475376 22
-6.1866169 7.6918507 -0.13266617 30
-5.6231627 8.1360378 -0.19128203 32
-5.6914234 9.6698322 -0.28323519 22
-6.1866856 7.691936 -0.30728382 32
-5.638535 8.1582804 -0.36763319 33
-5.6210961 9.5503454 -0.47608981 20
-6.1998472 7.7083001 -0.48294488 39
-5.6407766 8.1615229 -0.54338765 30
-5.6382432 9.5794792 -0.67401654 24
-6.1985369 7.7066708 -0.65811515 43
-5.6480641 8.1720676 -0.71991694 30
-5.6414547 9.5849352 -0.87140751 22
-5.6757107 7.0566387 -0.76283509 14
-5.5992274 8.1014061 -0.88792497 33
-5.6610999 9.6183128 -1.0718956 22
-6.1926823 7.6993918 -1.0073128 40
-5.6121335 8.12008 -1.0646378 32
-5.618742 8.1296415 -1.2410752 28
-5.6281395 8.143239 -1.4183425 26
-5.5884953 8.0858784 -1.5840577 28
-5.5878572 8.0849552 -1.7577231 23
-5.4069147 7.8231535 -1.8704044 5
-4.9410901 7.1491613 -1.8632414 5
-4.5658183 6.6061878 -1.8641688 5
-4.2430081 6.1391206 -1.8641195 7
-3.0430284 4.402895 -1.8412212 6
-2.2385745 3.2389472 -1.835304 11
-1.830573 2.6885567 0.85858154 5
-1.7174261 2.522378 0.58967936 7
-4.7087197 6.9156814 1.1704779 24
-5.6944256 8.3633842 0.87844348 15
-5.6475954 8.2946053 0.51623929 21
-5.6698451 8.3272829 0.34000659 21
-5.6594663 9.7709484 0.31402332 22
-6.1194243 7.7180257 0.21595171 33
-5.670095 8.3276501 0.16143198 15
-5.6794066 9.8053751 0.11471085 25
-6.1208396 7.719811 0.041611739 40
-5.6820712 8.3452387 -0.016739793 21
-5.6855507 9.8159828 -0.085530944 25
-6.1054325 7.7003784 -0.13207486 30
-5.620245 8.2544346 -0.19313839 30
-5.6959271 9.8338976 -0.28686902 22
-6.0906081 7.6816812 -0.30516806 34
-5.6421838 8.2866564 -0.37163404 31
-5.6404133 9.7380543 -0.48347238 29
-6.1136136 7.7106967 -0.4804092 36
-5.6398573 8.2832403 -0.54885656 29
-5.6492734 9.7533503 -0.68345863 27
-6.1173067 7.7153549 -0.65519375 43
-5.6537437 8.3036346 -0.72801238 30
-5.6583471 9.7690163 -0.88453013 26
-5.6585002 7.1366925 -0.76719987 15
-5.6008277 8.2259178 -0.89726394 33
-5.6676521 9.7850809 -1.0860448 26
-6.1140561 7.7112551 -1.003256 41
-5.6157398 8.2478189 -1.0762192 32
-5.619925 8.2539654 -1.2540342 27
-5.63132 8.2707014 -1.4336605 27
-5.5919175 8.2128315 -1.6012411 26
-5.5955434 8.2181559 -1.7781454 21
-5.3389134 7.8412452 -1.8657727 5
-4.8844552 7.1737833 -1.8607259 5
-4.5239725 6.6443439 -1.8659778 5
-4.1934929 6.1589694 -1.8612113 7
-3.0122161 4.4240322 -1.8412212 7
-2.211827 3.248503 -1.8319241 10
-1.8225303 2.7173307 0.86368603 7
-1.7238383 2.5701845 0.59802747 8
-4.631639 6.9056163 1.1632732 37
-5.6936126 8.4889832 0.88743895 17
-5.6496296 8.4234056 0.521788 18
-5.6761498 8.4629459 0.34391937 23
-5.6604099 9.9318075 0.31791523 22
-6.0333791 7.7195978 0.21481189 33
-5.6697416 8.453392 0.16309822 15
-5.674191 9.9559879 0.11600655 23
-6.0323124 7.7182326 0.041375212 40
-5.6771455 8.4644308 -0.016898967 22
-5.6862035 9.977066 -0.086586505 25
-6.026895 7.7113018 -0.13153732 29
-5.6226282 8.3831472 -0.19522679 31
-5.6944547 9.9915428 -0.29030094 23
-6.0122108 7.6925135 -0.30392349 35
-5.6398587 8.4088373 -0.37533852 32
-5.6395702 9.8952427 -0.48930976 28
-6.0276504 7.7122679 -0.47787356 38
-5.64641 8.4186058 -0.55520046 27
-5.6522164 9.9174309 -0.69217432 25
-6.0190544 7.7012696 -0.65041322 42
-5.6534147 8.4290485 -0.7355296 31
-5.6591187 9.9295425 -0.89546573 24
-5.6478109 7.2262702 -0.77257198 12
-5.6076169 8.3607664 -0.90768057 30
-5.662291 9.9351082 -1.0982819 26
-6.018414 7.7004499 -0.99635929 41
-5.6111884 8.3660908 -1.0865139 32
-5.615222 8.3721046 -1.2659963 29
-5.6307874 8.3953123 -1.4484113 26
-5.5938368 8.3402205 -1.6184245 27
-5.5928655 8.3387728 -1.7957509 20
-5.2796688 7.8718071 -1.8642288 5
-4.8342538 7.2077079 -1.8607259 4
-4.4666247 6.6595855 -1.8614552 4
-4.150393 6.1880951 -1.8612113 7
-2.9770434 4.4386706 -1.8386188 7
-2.1850555 3.2578433 -1.8285443 10
-1.8163061 2.7493498 0.86981148 7
-1.705853 2.5821564 0.59802747 9
-4.5680304 6.9146461 1.1593938 22
-5.6847305 8.6049995 0.89539653 19
-5.656743 8.5626345 0.52795327 18
-5.6742215 8.5890923 0.34742737 20
-5.66329 10.100124 0.32202956 22
-5.9476123 7.7203474 0.21367207 35
-5.6833372 8.602891 0.16521305 15
-5.6769266 10.124443 0.11750472 26
-5.9441066 7.715796 0.041138686 40
-5.6840591 8.6039829 -0.017097935 21
-5.6887937 10.145608 -0.087702386 25
-5.9314179 7.699326 -0.13062349 30
-5.625689 8.5156279 -0.19739254 32
-5.6890998 10.146153 -0.29363194 23
-5.921762 7.6867914 -0.30205664 37
-5.6449122 8.5447264 -0.37963572 34
-5.6446228 10.066832 -0.49583387 26
-5.9444032 7.7161813 -0.47553295 38
-5.6491418 8.5511284 -0.56132555 30
-5.6511874 10.07854 -0.70064795 23
-5.9383502 7.7083244 -0.64749181 40
-5.6560044 8.5615168 -0.74362504 29
-5.6598716 10.094028 -0.90671372 25
-5.6507401 7.3349895 -0.77995855 15
-5.6084013 8.489459 -0.91737878 31
-5.6648445 10.102897 -1.112431 23
-5.9402232 7.7107558 -0.99230248 44
-5.6162162 8.5012894 -1.0989532 33
-5.6222663 8.5104465 -1.280949 30
-5.6396985 8.5368347 -1.4659988 26
-5.5942469 8.4680338 -1.635608 24
-5.6017962 8.4794607 -1.8175815 23
-5.2180943 7.8986506 -1.8619131 6
-4.7751932 7.228229 -1.8573717 4
-4.4135795 6.6808529 -1.8587418 4
-4.1028128 6.2104435 -1.8592726 6
-2.9418132 4.4530344 -1.8360163 6
-2.1782451 3.2972183 -1.8420639 11
-1.7991771 2.7652047 0.87083238 1
-1.7113451 2.6302133 0.60637558 9
-3.5452864 5.4488478 0.90944797 3
-5.6723309 8.7179613 0.9030081 18
-5.6600065 8.6990194 0.53391308 18
-5.6751676 8.7223206 0.35120523 20
-5.6660242 10.272459 0.32625508 23
-5.8621335 7.7202735 0.21253225 32
-5.6776695 8.7261667 0.16681519 15
-5.6698556 10.279407 0.11884092 25
-5.8586521 7.7156882 0.040919054 38
-5.6871166 8.7406864 -0.01729027 22
-5.6893039 10.314666 -0.088818274 24
-5.8485003 7.7023191 -0.12997843 28
-5.627172 8.6485558 -0.19955829 29
-5.6934476 10.322178 -0.29756856 23
-5.8437786 7.6961007 -0.30081207 36
-5.6505213 8.6844416 -0.38408113 33
-5.6417594 10.228468 -0.50184298 26
-5.8613997 7.7193069 -0.47319236 40
-5.6481185 8.680748 -0.56723195 30
-5.6520371 10.247102 -0.70960581 25
-5.8554311 7.7114463 -0.64430481 40
-5.6570182 8.6944265 -0.75172049 29
-5.6586003 10.259001 -0.91796172 27
-5.6451955 7.4345722 -0.78633791 13
-5.6033139 8.611887 -0.92635858 33
-5.6710978 10.281658 -1.1277275 25
-5.8573728 7.7140036 -0.98743427 40
-5.619628 8.63696 -1.1113926 32
-5.6276493 8.6492891 -1.2959018 27
-5.6339483 8.6589699 -1.4801822 24
-5.5952959 8.5995636 -1.6534278 26
-5.5918522 8.5942717 -1.8337785 19
-5.1564031 7.9250174 -1.8595973 6
-4.7246146 7.2613897 -1.8573717 5
-4.3710809 6.7180343 -1.8605508 4
-4.0593557 6.2389355 -1.8592726 6
-2.9168422 4.482975 -1.8399199 7
-2.1433098 3.2941117 -1.8319241 6
-1.7902613 2.7939799 0.87593693 0
-1.707773 2.6652441 0.61168802 9
-3.4857879 5.4401116 0.90390593 5
-5.6177797 8.767415 0.904046 25
-5.6616378 8.8358622 0.53987283 17
-5.6788397 8.8627081 0.35525292 21
-5.6647177 10.441805 0.33036941 22
-5.7793407 7.7225909 0.21148011 34
-5.6770287 8.8598814 0.16860959 15
-5.6685247 10.448823 0.12033909 23
-5.7758842 7.7179723 0.040716317 38
-5.6906972 8.8812132 -0.017489238 21
-5.6953568 10.498282 -0.090054795 25
-5.7730179 7.7141423 -0.12949465 31
-5.633543 8.792016 -0.20195608 30
-5.6994252 10.505782 -0.30170706 22
-5.7611618 7.6982994 -0.29931858 35
-5.6501379 8.817915 -0.38823014 31
-5.6426287 10.401089 -0.50836706 25
-5.7714586 7.7120585 -0.47026658 39
-5.6520214 8.8208551 -0.5737946 32
-5.656518 10.426691 -0.71928996 25
-5.7679734 7.7074018 -0.64058667 46
-5.6586008 8.8311224 -0.76010507 30
-5.6610031 10.434958 -0.93014705 25
-5.6337543 7.5280523 -0.79204571 13
-5.6053848 8.7480707 -0.93677521 30
-5.667532 10.446993 -1.1414943 22
-5.767611 7.7069178 -0.98134899 41
-5.6171241 8.7663918 -1.122974 33
-5.6292243 8.7852755 -1.310356 27
-5.6395826 8.8014421 -1.4977696 27
-5.6011696 8.7414923 -1.673157 26
-5.5933218 8.7292442 -1.8542007 19
-5.1030679 7.9641275 -1.8603692 6
-4.6695857 7.287611 -1.8556947 5
-4.3198695 6.7418256 -1.8587418 5
-4.0157008 6.2671227 -1.8592726 7
-2.8793521 4.4936748 -1.8360163 7
-2.1163485 3.3028896 -1.8285443 7
-1.7438843 2.7638879 0.86266512 0
-1.7037954 2.700351 0.6170004 9
-3.4265876 5.43081 0.89836389 9
-5.5713239 8.8300095 0.90646785 20
-5.6680303 8.9832792 0.54644912 17
-5.6829629 9.0069466 0.35943553 20
-5.6650834 10.618682 0.33470613 25
-5.694428 7.720911 0.21034029 32
-5.6769319 8.9973879 0.17046808 21
-5.6801624 10.646946 0.12216118 24
-5.6862483 7.7098203 0.040462896 38
-5.6840558 9.0086784 -0.017661676 23
-5.695354 10.675422 -0.091230996 30
-5.6810379 7.7027555 -0.12863457 28
-5.6253815 8.9156857 -0.20388979 30
-5.6918197 10.668797 -0.30523995 39
-5.6740537 7.6932859 -0.29757619 35
-5.6503005 8.9551792 -0.39252734 29
-5.6451211 10.581265 -0.51523459 25
-5.6890206 7.7135787 -0.467926 38
-5.6521134 8.9580536 -0.5801385 28
-5.6568832 10.603312 -0.72873199 26
-5.6879659 7.7121491 -0.63766521 41
-5.6542935 8.9615088 -0.76791137 27
-5.6612206 10.611442 -0.94233239 23
-5.6402078 7.6473951 -0.8004396 15
-5.6100798 8.8914337 -0.94791019 32
-5.6750503 10.637364 -1.1579379 26
-5.682961 7.7053628 -0.97607511 43
-5.6173325 8.9029293 -1.1354134 31
-5.6270571 8.9183416 -1.324312 27
-5.6350517 8.9310122 -1.5130877 23
-5.5905848 8.8605356 -1.6884311 23
-5.5574613 8.8080387 -1.8626513 6
-5.0410638 7.9895988 -1.8580534 4
-4.6290326 7.3365693 -1.8598874 4
-4.2643838 6.758636 -1.8551238 4
-3.9697824 6.2917213 -1.8583032 6
-2.8479123 4.5136657 -1.8360163 6
-2.0990436 3.3267813 -1.8336141 10
-1.7306688 2.7858508 0.86572784 0
-1.695264 2.7288599 0.62079501 9
-3.3864992 5.4512343 0.89780968 12
-5.5347776 8.9093094 0.91061962 20
-5.6642013 9.1176424 0.55220336 18
-5.6811213 9.1448793 0.36334831 19
-5.6168165 10.707544 0.33626291 36
-5.6262803 7.7410679 0.20981422 26
-5.6667428 9.1217337 0.17207022 13
-5.6187 10.711135 0.12244461 41
-5.6369891 7.7558017 0.040496685 30
-5.6822376 9.1466761 -0.017854011 14
-5.6113963 10.697211 -0.091080196 42
-5.6506391 7.7745824 -0.12917212 22
-5.6157608 9.0396681 -0.20582348 27
-5.6041961 10.683485 -0.30453336 41
-5.6578159 7.7844567 -0.29956749 26
-5.6403766 9.0792923 -0.39623183 25
-5.6138101 10.701814 -0.5191834 47
-5.6115422 7.7207899 -0.46597549 35
-5.6526651 9.0990725 -0.58670115 22
-5.6105413 10.695581 -0.73236352 43
-5.6199079 7.7322998 -0.63607174 31
-5.6631722 9.1159859 -0.77774161 17
-5.603673 10.682487 -0.94514436 48
-5.631206 7.7478452 -0.80681896 22
-5.6130395 9.0352879 -0.95904517 40
-5.6043487 10.683777 -1.1587027 40
-5.6383867 7.7577248 -0.97769785 28
-5.6096053 9.0297594 -1.1465659 32
-5.6191111 9.0450611 -1.337271 24
-5.6310687 9.0643091 -1.5289731 17
-5.5973587 9.010047 -1.7094331 25
-5.4916787 8.8399334 -1.8612429 6
-4.97895 8.014596 -1.8557376 4
-4.5694456 7.3554187 -1.8565332 4
-4.2191515 6.7915521 -1.8560283 5
-3.9114261 6.296207 -1.8515176 6
-2.8143353 4.5302243 -1.8347151 7
-2.0681145 3.329036 -1.8268542 10
-1.6909988 2.7648718 0.85551882 1
-1.698712 2.7774832 0.62914312 9
-3.3235574 5.4341908 0.89115924 7
-5.5410576 9.0599194 0.92203701 20
-5.6608539 9.2557926 0.55816317 21
-5.6880579 9.3002729 0.36793569 21
-5.5217729 10.707403 0.33503973 40
-5.6256561 7.8549361 0.21183082 25
-5.6717854 9.2736664 0.17418505 14
-5.519958 10.703884 0.12191823 41
-5.6455898 7.8827691 0.040952843 30
-5.6892018 9.3021431 -0.018079508 14
-5.5164175 10.697019 -0.090748452 45
-5.6521173 7.8918834 -0.13046223 21
-5.6213737 9.1912413 -0.20837598 21
-5.5129848 10.690361 -0.3036249 43
-5.6638584 7.908277 -0.30280337 29
-5.6310797 9.2071104 -0.4000845 21
-5.524312 10.712327 -0.51780993 45
-5.6086826 7.8312364 -0.47026658 28
-5.6431856 9.2269039 -0.59238881 20
-5.5174403 10.699001 -0.7299425 45
-5.6192393 7.8459764 -0.64218014 32
-5.6639209 9.260807 -0.78670442 18
-5.5125136 10.689448 -0.94233239 45
-5.6419621 7.8777037 -0.8162201 20
-5.6059461 9.1660156 -0.96874332 20
-5.5113807 10.687251 -1.1548786 41
-5.6327491 7.8648396 -0.9862172 26
-5.6169786 9.1840544 -1.16115 23
-5.6200209 9.1890287 -1.352722 19
-5.6420236 9.2250042 -1.5493972 21
-5.5940733 9.1466036 -1.7278894 25
-5.4195585 8.8612623 -1.8577218 6
-4.9269719 8.0558577 -1.8572814 4
-4.5118623 7.377131 -1.8540175 4
-4.1716352 6.8208418 -1.8560283 5
-3.8714244 6.3299823 -1.8534563 7
-2.786587 4.5562158 -1.8373175 7
-2.0410399 3.3372076 -1.8234743 10
-1.6736499 2.779923 0.85653973 2
-1.6975111 2.8195562 0.63597339 9
-2.1188452 3.5193899 0.57470906 2
-5.5208354 9.1700764 0.92930257 21
-5.6640916 9.4080238 0.56494498 21
-5.6807265 9.4356537 0.37171355 20
-5.4288087 10.710027 0.33392775 41
-5.6352415 7.9855061 0.21428582 23
-5.6687913 9.4158297 0.17610763 13
-5.4288211 10.710051 0.12155382 42
-5.648077 8.0036945 0.041375212 29
-5.6777639 9.4307327 -0.018251946 13
-5.4253278 10.703159 -0.09047702 42
-5.6522298 8.0095797 -0.13175234 22
-5.6230783 9.339901 -0.21085112 21
-5.4129071 10.678655 -0.30221176 40
-5.656919 8.0162239 -0.30541697 25
-5.6326399 9.3557825 -0.40482622 22
-5.4277096 10.707858 -0.51574963 49
-5.6091585 7.948545 -0.47494781 29
-5.6466136 9.378993 -0.59960771 20
-5.4263663 10.705208 -0.72776359 45
-5.6218567 7.9665389 -0.64881974 30
-5.6546893 9.3924065 -0.79451072 21
-5.4233294 10.699217 -0.93983281 45
-5.6350894 7.9852901 -0.82327092 26
-5.607573 9.314146 -0.98023754 21
-5.4204335 10.693503 -1.1514369 45
-5.651125 8.0080137 -0.99919909 30
-5.6183648 9.3320723 -1.1748762 22
-5.6212387 9.3368454 -1.3686717 19
-5.6407943 9.3693266 -1.5669848 20
-5.6013718 9.3038464 -1.7501643 24
-5.35147 8.8887606 -1.8556092 5
-4.8645377 8.0799694 -1.8549657 5
-4.4622674 7.4118004 -1.854856 5
-4.1219053 6.8464608 -1.8551238 5
-3.8211336 6.3468809 -1.8505481 6
-2.748858 4.5658369 -1.8334138 6
-2.0158222 3.348269 -1.8217844 10
-1.65223 2.7882125 0.85551882 2
-1.6958046 2.8617465 0.64280361 9
-2.1043212 3.5511367 0.57748008 3
-5.5013752 9.2838182 0.93691415 27
-5.6634407 9.5573111 0.57152128 18
-5.6840067 9.5920172 0.37630093 20
-5.3342953 10.708298 0.33270457 42
-5.6272955 8.0936041 0.21612707 25
-5.6620464 9.5549583 0.17796612 15
-5.3396506 10.719049 0.12122989 42
-5.6491485 8.1250343 0.041797578 29
-5.6892743 9.6009073 -0.018503971 19
-5.3344226 10.708553 -0.090205587 40
-5.6578217 8.1375093 -0.13320372 21
-5.6229773 9.489027 -0.21332626 20
-5.3186111 10.676813 -0.30110145 40
-5.6624403 8.1441517 -0.3087773 27
-5.6425843 9.5221148 -0.41030887 23
-5.3332214 10.706142 -0.51386106 49
-5.6128297 8.0727978 -0.48001912 27
-5.6461539 9.5281391 -0.60660785 23
-5.3301344 10.699945 -0.72485834 44
-5.6230626 8.0875158 -0.65545928 27
-5.6601644 9.5517817 -0.80463004 22
-5.3271656 10.693985 -0.9360835 44
-5.6360884 8.1062508 -0.8316648 27
-5.6013079 9.4524593 -0.99065411 22
-5.3296685 10.69901 -1.1479952 44
-5.6427855 8.1158829 -1.0077184 28
-5.6220098 9.4873943 -1.1894603 24
-5.6226859 9.4885359 -1.3851196 21
-5.6438775 9.5242968 -1.5862741 21
-5.5966778 9.4446459 -1.7692569 26
-5.2872767 8.9225168 -1.854905 5
-4.8000073 8.1002283 -1.8518779 6
-4.4024386 7.4293132 -1.8515019 5
-4.0740075 6.8750706 -1.8551238 5
-3.7846444 6.3867579 -1.8544257 7
-2.7130587 4.5784087 -1.8308114 6
-1.9923977 3.3622606 -1.8217844 10
-1.6444145 2.8197246 0.86164421 2
-1.7054621 2.9244044 0.65418738 8
-2.105422 3.6102271 0.58468473 5
-5.4785867 9.394289 0.94417971 30
-5.6690278 9.7208433 0.57891959 21
-5.6833639 9.7454262 0.3807534 20
-5.2471023 10.720138 0.3319262 42
-5.6339316 8.2250729 0.21858205 25
-5.6999741 9.7739077 0.18129857 17
-5.2383113 10.702177 0.12062252 43
-5.6420164 8.2368755 0.042169265 27
-5.702713 9.7786045 -0.018769262 18
-5.2437062 10.7132 -0.089934155 41
-5.6528587 8.2527046 -0.13444006 23
-5.6412129 9.6731482 -0.21657488 26
-5.2333956 10.692134 -0.3004958 40
-5.6709661 8.2791395 -0.31238654 26
-5.6605463 9.7062998 -0.4165324 30
-5.2407799 10.70722 -0.51214421 50
-5.6172929 8.2007809 -0.48528549 27
-5.661993 9.7087812 -0.61557686 26
-5.2289758 10.683104 -0.72122675 41
-5.6341281 8.225359 -0.66342682 28
-5.6717257 9.7254696 -0.81590587 27
-5.2348461 10.695098 -0.93295902 43
-5.6424279 8.2374763 -0.84106594 22
-5.6014109 9.6048985 -1.0025074 25
-5.23384 10.693042 -1.1434063 37
-5.6467061 8.243722 -1.0186719 27
-5.6277637 9.6500864 -1.2049023 27
-5.6362824 9.6646948 -1.4050566 26
-5.6410794 9.6729193 -1.604429 22
-5.6022248 9.6062946 -1.7921681 19
-5.2169228 8.9456062 -1.8520881 5
-4.7196136 8.0928564 -1.8426147 4
-4.348495 7.4564881 -1.8506633 5
-4.0121708 6.8797841 -1.8487923 5
-3.7360544 6.4063191 -1.852487 7
-2.6848404 4.6037726 -1.8334138 7
-1.9725291 3.3823519 -1.8251643 11
-1.618914 2.8210726 0.85858154 3
-1.7006423 2.96349 0.66025877 9
-2.0979121 3.6557608 0.58967251 7
-5.5060916 9.5947552 0.96044075 29
-5.6745925 9.8883801 0.58652341 19
-5.6828427 9.9027567 0.38534081 21
-5.1496086 10.709662 0.33048061 43
-5.6345296 8.3503933 0.22086169 24
-5.695302 9.924468 0.18334931 17
-5.1496019 10.709648 0.12029859 44
-5.6492577 8.37222 0.042659212 28
-5.7079706 9.9465437 -0.019014655 20
-5.1479864 10.706289 -0.089572251 45
-5.6555095 8.381485 -0.13589144 20
-5.6432133 9.8337002 -0.21928208 27
-5.1395621 10.688768 -0.29938546 41
-5.6756444 8.4113255 -0.31587133 23
-5.6622801 9.8669252 -0.42171869 31
-5.1537795 10.718336 -0.5109424 47
-5.6157713 8.3225937 -0.49016175 28
-5.6576896 9.8589258 -0.62257701 28
-5.1490755 10.708553 -0.72050047 42
-5.6234479 8.3339701 -0.66900402 28
-5.671205 9.8824778 -0.82573605 29
-5.1445003 10.699039 -0.93014705 45
-5.6360598 8.3526602 -0.84878832 27
-5.6115518 9.7785273 -1.016516 28
-5.1435318 10.697024 -1.1399646 43
-5.6491137 8.3720064 -1.0296254 26
-5.6275573 9.8064175 -1.2194864 32
-5.6358371 9.8208456 -1.422003 27
-5.6443605 9.8356991 -1.6248531 23
-5.6018529 9.7616272 -1.8138065 18
-5.1484642 8.9715643 -1.8499755 5
-4.6766744 8.149437 -1.8480182 5
-4.3002262 7.4934492 -1.8523405 5
-3.9737399 6.9245238 -1.8533148 5
-3.6854441 6.4221478 -1.8495787 7
-2.6469867 4.6125622 -1.8295102 7
-1.9614992 3.4180517 -1.8369941 11
-1.6048844 2.8424094 0.86164421 3
-1.6972903 3.0060694 0.66708905 10
-2.0918157 3.7048132 0.59521455 7
-5.499711 9.7405338 0.97116613 23
-5.676126 10.052982 0.59392178 21
-5.6882606 10.074473 0.39046788 19
-5.0593481 10.712812 0.32947984 44
-5.6402946 8.4861078 0.22340436 24
-5.7025671 10.099813 0.18584865 18
-5.0576286 10.709172 0.11989368 42
-5.6526699 8.5047274 0.043132264 28
-5.7150912 10.121993 -0.019273313 18
-5.057744 10.709416 -0.089300819 43
-5.6588521 8.5140295 -0.13739656 22
-5.6432438 9.9947453 -0.22198926 28
-5.0477386 10.688231 -0.29837608 46
-5.6721144 8.5339832 -0.31898275 25
-5.660078 10.02456 -0.4267568 28
-5.0617595 10.717918 -0.50922555 46
-5.6150351 8.4481049 -0.49523306 26
-5.665308 10.033822 -0.63110846 26
-5.0571399 10.708138 -0.71807945 46
-5.6336193 8.4760647 -0.67723715 31
-5.6707273 10.043421 -0.83585536 25
-5.0526519 10.698634 -0.92702258 43
-5.6393905 8.4847488 -0.85818946 26
-5.6156201 9.9458199 -1.0298061 31
-5.0500236 10.693069 -1.1357582 42
-5.6588168 8.5139761 -1.0422015 29
-5.6234837 9.9597473 -1.2336415 30
-5.643239 9.9947357 -1.4414415 25
-5.6495342 10.005885 -1.6464119 23
-5.6015234 9.9208536 -1.8360814 17
-5.0857053 9.0072889 -1.8499755 5
-4.6138773 8.1716347 -1.8457024 5
-4.2497301 7.5266933 -1.853179 5
-3.9138064 6.9317393 -1.8478878 5
-3.642427 6.4510994 -1.8505481 6
-2.6147203 4.6309295 -1.8295102 7
-1.9197638 3.4000921 -1.8200943 11
-1.5906354 2.8636873 0.86470693 4
-1.7105887 3.0796442 0.68074954 12
-2.0947537 3.7712727 0.60352761 7
-5.4741454 9.8553324 0.97877771 21
-5.6756349 10.218082 0.60132009 23
-5.6934948 10.250236 0.3957299 22
-4.9726596 10.722481 0.32870144 42
-5.6422415 8.6189623 0.22585936 25
-5.6979475 10.258253 0.18802758 19
-4.9709616 10.71882 0.11961025 42
-5.6479287 8.6276503 0.043554634 30
-5.7122669 10.284032 -0.019505441 19
-4.9677091 10.711806 -0.089029387 40
-5.6606131 8.647027 -0.1389017 22
-5.6412973 10.156263 -0.22469644 27
-4.9595389 10.694189 -0.29756856 44
-5.6715221 8.6636906 -0.32234308 22
-5.6617708 10.193123 -0.43223944 29
-4.9683166 10.713116 -0.50733697 50
-5.6193786 8.5840368 -0.50088954 26
-5.6629992 10.195333 -0.63876486 28
-4.9654617 10.706961 -0.71565837 45
-5.6355166 8.6086893 -0.68467343 26
-5.6702123 10.20832 -0.84626383 27
-4.959383 10.693852 -0.92358571 49
-5.6455121 8.6239586 -0.86826211 24
-5.6156883 10.110158 -1.0427371 28
-4.9618473 10.699166 -1.1326988 44
-5.6493692 8.6298504 -1.0515323 29
-5.6252651 10.127399 -1.2495123 28
-5.6388478 10.151853 -1.4583879 26
-5.6468353 10.166233 -1.6662687 21
-5.5589724 10.00805 -1.8449913 6
-5.016963 9.0322475 -1.8478628 4
-4.5548105 8.2002153 -1.8449304 4
-4.1932821 7.5493407 -1.8515019 5
-3.8672106 6.9623003 -1.8487923 5
-3.5916481 6.4661942 -1.84764 7
-2.5823267 4.6490707 -1.8295102 7
-1.883657 3.3912263 -1.8082646 10
-1.5761687 2.8849034 0.86776966 7
-1.7116445 3.1328685 0.68985653 12
-2.0892689 3.8240442 0.60962385 8
-5.4682651 10.008711 0.9901951 20
-5.6769471 10.390668 0.60912943 20
-5.6946368 10.423045 0.40085697 20
-4.8827696 10.724184 0.32770067 40
-5.6404386 8.7488918 0.22822666 25
-5.6952305 10.424131 0.19033466 17
-4.8761196 10.709579 0.11912436 43
-5.6504135 8.7643633 0.04404458 29
-5.7151322 10.460558 -0.019764099 18
-4.8729162 10.702543 -0.088667475 43
-5.6629572 8.7838202 -0.14046057 20
-5.6412072 10.325252 -0.22755833 27
-4.8698459 10.6958 -0.2966601 42
-5.6802235 8.8106022 -0.32632571 24
-5.6633039 10.365696 -0.43787026 30
-4.8785 10.714807 -0.50579178 50
-5.6242585 8.7237949 -0.50674105 27
-5.6644578 10.367807 -0.64707756 29
-4.8740473 10.705028 -0.71323735 45
-5.6379952 8.7451019 -0.69237536 28
-5.675324 10.387696 -0.85782874 27
-4.8697329 10.695552 -0.92077368 45
-5.6521206 8.7670116 -0.87867051 24
-5.6175575 10.281964 -1.0563865 29
-4.8688827 10.693685 -1.1284924 41
-5.6493587 8.7627277 -1.0628915 29
-5.6307011 10.306022 -1.2666701 28
-5.6420546 10.326802 -1.4778265 24
-5.6554637 10.351345 -1.6900969 21
-5.4813986 10.032749 -1.8424456 6
-4.9405727 9.0428619 -1.8429333 4
-4.4918098 8.2214785 -1.8426147 5
-4.1161017 7.5338101 -1.8406008 4
-3.8185136 6.9891272 -1.8487923 5
-3.5464211 6.4911089 -1.84764 7
-2.547996 4.6636648 -1.828209 7
-1.8721052 3.426564 -1.8200943 11
-1.5669732 2.9162781 0.87389511 9
-1.7231913 3.2070141 0.70351708 12
-2.0868962 3.8839016 0.6168285 2
-5.4605017 10.162485 1.0016124 19
-5.6742268 10.560246 0.61673331 22
-5.6898503 10.589324 0.40571421 20
-4.7914724 10.721503 0.32658869 41
-5.6499543 8.8994684 0.23112005 26
-5.7056108 10.618655 0.19315444 18
-4.7865515 10.710492 0.11875994 45
-5.655549 8.9082813 0.044568315 27
-5.7139082 10.634097 -0.020016124 20
-4.7850289 10.707085 -0.088426203 42
-5.6615205 8.9176865 -0.1419657 20
-5.6371307 10.491208 -0.23034286 24
-4.7787461 10.693027 -0.29565072 45
-5.678576 8.9445515 -0.3298105 24
-5.6608028 10.535263 -0.44335288 28
-4.7905383 10.719413 -0.50441825 49
-5.6167517 8.8471699 -0.5116173 28
-5.6694465 10.551351 -0.65604651 25
-4.7877951 10.713275 -0.71154261 41
-5.634563 8.8752251 -0.6995461 29
-5.6763105 10.564124 -0.86910456 25
-4.7835612 10.703801 -0.91858661 46
-5.6527314 8.9038429 -0.88840741 25
-5.615407 10.450777 -1.0696765 25
-4.772994 10.680156 -1.123521 43
-5.6584301 8.9128189 -1.076279 29
-5.6339083 10.48521 -1.2838279 28
-5.6430845 10.502288 -1.497265 25
-5.6542768 10.523117 -1.7116556 21
-5.4205689 10.088166 -1.8456277 5
-4.8549566 9.035511 -1.8344827 4
-4.425015 8.2353506 -1.838755 5
-4.063405 7.5623622 -1.8406008 5
-3.7696271 7.015615 -1.8487923 5
-3.4918337 6.4986167 -1.8427931 6
-2.5153751 4.6813397 -1.828209 7
-1.8464217 3.4363568 -1.8184044 11
-1.5556093 2.9442446 0.87899965 13
-1.7301153 3.2745254 0.7156598 4
-2.0800874 3.9369049 0.62292475 7
-5.4545784 10.323679 1.0137217 21
-5.6563492 10.705564 0.62289858 34
-5.6568708 10.706552 0.40868253 33
-4.7004466 10.718075 0.32547671 43
-5.6364412 9.0166893 0.23313665 30
-5.6518917 10.697127 0.19385938 24
-4.702023 10.72167 0.118517 44
-5.6462264 9.032342 0.044990685 23
-5.6507411 10.69495 -0.020055918 32
-4.6989174 10.714587 -0.08821509 43
-5.6627269 9.0587387 -0.14357834 15
-5.645956 10.685893 -0.23374617 33
-4.6879182 10.689507 -0.29464132 42
-5.6668544 9.0653419 -0.33279747 18
-5.6599417 10.712363 -0.44913188 51
-4.7027459 10.723318 -0.50304478 50
-5.6205001 8.991188 -0.51766384 27
-5.6534872 10.700148 -0.66282797 45
-4.700057 10.717187 -0.70960581 43
-5.6295862 9.005723 -0.70671684 35
-5.6415596 10.677572 -0.87517613 46
-4.6959052 10.707719 -0.91608703 44
-5.6411395 9.0242052 -0.89646548 25
-5.6223369 10.64119 -1.0851219 28
-4.6919198 10.698632 -1.1219914 41
-5.6530209 9.0432119 -1.0872325 22
-5.6386008 10.671972 -1.3018435 32
-5.6437902 10.681794 -1.5172019 35
-5.6509638 10.695372 -1.7332145 30
-5.3352489 10.09783 -1.8405364 5
-4.810153 9.1039991 -1.8415248 4
-4.3655801 8.2625723 -1.837983 4
-4.0086837 7.5870881 -1.8397623 5
-3.6987143 7.0004201 -1.8379383 5
-3.4409411 6.5125427 -1.839885 7
-2.475564 4.6854086 -1.8230041 7
-1.8189991 3.4427526 -1.8150245 10
-1.5457137 2.9756255 0.88512504 10
-3.573741 6.8797441 1.4981043 20
-2.0762913 3.997031 0.6301294 8
-4.9745612 9.576438 0.93691415 11
-5.5593753 10.702252 0.62043244 30
-5.5580301 10.699663 0.40692851 36
-4.6112833 10.717573 0.32447591 38
-5.6509089 9.1818314 0.23638076 18
-5.5549502 10.693734 0.19309035 26
-4.611249 10.717493 0.11811208 41
-5.6501193 9.1805487 0.045531318 18
-5.5519681 10.687993 -0.019969698 32
-4.6129351 10.721412 -0.088003978 41
-5.6622381 9.2002392 -0.14519097 14
-5.5656857 10.714401 -0.23351413 51
-4.6005344 10.69259 -0.29383382 42
-5.6641989 9.2034254 -0.33640671 19
-5.5629058 10.709049 -0.44735372 52
-4.6088147 10.711836 -0.50098449 47
-5.6120381 9.1186724 -0.52273518 16
-5.5620785 10.707456 -0.66085917 46
-4.6061864 10.705728 -0.70670056 43
-5.6230588 9.1365795 -0.71388763 18
-5.5558443 10.695455 -0.8734414 47
-4.6021237 10.696284 -0.91233772 43
-5.638587 9.1618099 -0.90620238 16
-5.5644383 10.711999 -1.0883546 49
-4.6045256 10.701866 -1.118932 44
-5.64815 9.1773481 -1.0985916 19
-5.5621257 10.707547 -1.3014145 51
-5.5581026 10.699802 -1.5142114 46
-5.5579062 10.699424 -1.7275411 32
-5.2609825 10.127822 -1.8392634 4
-4.7355876 9.116394 -1.8372996 4
-4.3005528 8.2789164 -1.8348953 4
-3.9592242 7.6218305 -1.8414394 5
-3.6587327 7.0433598 -1.8424608 5
-3.3953912 6.536406 -1.839885 7
-2.4410498 4.6992207 -1.821703 7
-1.7999336 3.4650195 -1.8200943 11
-1.5231435 2.9828997 0.88410413 3
-3.5041919 6.8625526 1.4889973 22
-2.0825653 4.0784621 0.64065927 8
-4.8822126 9.5612459 0.93207043 10
-5.4663572 10.705226 0.61837739 31
-5.466835 10.706161 0.40571421 34
-4.520802 10.712666 0.32336393 35
-5.6550522 9.3339262 0.23927414 17
-5.463789 10.700196 0.19251357 28
-4.519208 10.708888 0.11766668 44
-5.6605062 9.3429289 0.046139527 19
-5.4590259 10.690868 -0.019903377 32
-4.5224214 10.716503 -0.087702386 41
-5.6579733 9.338748 -0.14674985 14
-5.4707437 10.713816 -0.2326633 50
-4.5117812 10.69129 -0.29292536 40
-5.6702466 9.359005 -0.34063825 17
-5.4716463 10.715585 -0.44602013 51
-4.5230436 10.717978 -0.49978271 51
-5.6144886 9.2669744 -0.5289768 18
-5.4563127 10.685555 -0.65714031 47
-4.5189157 10.708195 -0.70476371 42
-5.6232486 9.2814331 -0.7221207 21
-5.4610829 10.694897 -0.87026101 48
-4.5149341 10.69876 -0.90983814 44
-5.6405802 9.3100395 -0.91694653 17
-5.4677777 10.708008 -1.0840443 48
-4.5173154 10.704404 -1.1158727 40
-5.6499271 9.3254671 -1.1115735 18
-5.463726 10.700072 -1.2958382 51
-5.4634147 10.699464 -1.5087287 46
-5.4614663 10.695647 -1.720733 33
-5.1865568 10.157269 -1.8379906 4
-4.6557121 9.117671 -1.8309616 4
-4.2372961 8.2982521 -1.8325795 4
-3.9005814 7.6388359 -1.8389237 5
-3.6041558 7.0583205 -1.8397473 5
-3.3496759 6.5599513 -1.839885 6
-2.4116237 4.7228851 -1.8243053 7
-1.7691044 3.4645855 -1.8133345 6
-1.5213639 3.0314837 0.89533412 0
-3.4438658 6.8622785 1.4836849 32
-2.0860248 4.1566324 0.65063494 8
-4.7974691 9.5594807 0.92861062 11
-5.373569 10.707423 0.61632228 31
-5.3776135 10.715483 0.40463483 34
-4.4352012 10.718103 0.32258555 42
-5.6573443 9.4865227 0.24216752 18
-5.3674273 10.695185 0.19174455 24
-4.4290423 10.703219 0.11726177 45
-5.6484098 9.4715405 0.046578791 18
-5.3681087 10.696543 -0.019843686 31
-4.4322019 10.710855 -0.087400801 43
-5.6643386 9.498251 -0.14863126 13
-5.3760819 10.71243 -0.23181248 49
-4.4293876 10.704054 -0.29242066 42
-5.6682506 9.5048113 -0.3444964 16
-5.380568 10.721369 -0.4446865 52
-4.4374113 10.723445 -0.49858087 48
-5.6151385 9.4157495 -0.53521842 18
-5.36904 10.698399 -0.65560901 47
-4.4318352 10.709969 -0.70282692 42
-5.6278191 9.4370136 -0.73115051 20
-5.3648119 10.689973 -0.86679155 50
-4.4279342 10.700541 -0.90733862 43
-5.6407757 9.4587393 -0.92769068 17
-5.3785939 10.717435 -1.0811708 49
-4.4211607 10.684173 -1.1105191 42
-5.6621366 9.4945583 -1.1269895 17
-5.3781896 10.71663 -1.2932646 51
-5.3725634 10.70542 -1.5042429 44
-5.3706794 10.701665 -1.7156271 34
-5.1084347 10.179113 -1.8354449 4
-4.5919452 9.1499519 -1.8309616 4
-4.1739788 8.3171082 -1.8302636 5
-3.8313687 7.6344199 -1.8313769 5
-3.5512962 7.0763454 -1.8379383 5
-3.2916124 6.558897 -1.8330994 7
-2.3752 4.7328453 -1.821703 6
-1.4762151 2.9934695 0.88104147 0
-3.3837147 6.8614974 1.4783725 32
-2.0849886 4.2279406 0.65950215 8
-4.7094641 9.5498524 0.92445886 12
-5.2774844 10.701684 0.61385614 30
-5.2779202 10.702568 0.4027459 34
-4.3467393 10.715459 0.32158476 40
-5.643609 9.6154575 0.24444716 17
-5.2767096 10.700113 0.19116777 25
-4.3466935 10.715346 0.11705932 44
-5.663137 9.6487293 0.047254581 25
-5.2791491 10.705059 -0.019790627 31
-4.3437858 10.708179 -0.087129369 43
-5.6829219 9.6824379 -0.15088895 18
-5.2781692 10.703073 -0.23080695 51
-4.342526 10.705071 -0.29161316 44
-5.6867547 9.6889687 -0.34972358 23
-5.2896762 10.726406 -0.44335288 49
-4.3489194 10.720833 -0.49703568 47
-5.6119599 9.5615349 -0.54126495 22
-5.2818546 10.710546 -0.65407771 50
-4.3464513 10.714748 -0.70113218 41
-5.6325088 9.5965462 -0.74044591 24
-5.2706413 10.687807 -0.86361122 44
-4.3411303 10.701632 -0.90483904 42
-5.6532903 9.6319523 -0.94078517 21
-5.2842584 10.715421 -1.0772196 52
-4.3374825 10.692639 -1.1082246 40
-5.6581573 9.6402454 -1.1395657 26
-5.2821345 10.711113 -1.2881173 50
-5.2801409 10.707071 -1.4992586 47
-5.2765727 10.699835 -1.7093863 34
-5.0372462 10.214529 -1.8354449 4
-4.5349202 9.1959124 -1.8337785 4
-4.1140766 8.3425255 -1.8294917 4
-3.7779768 7.6609821 -1.8313769 4
-3.4949138 7.086987 -1.8343203 5
-3.2423096 6.5747561 -1.8311605 6
-2.3354087 4.7357421 -1.816498 2
-0.922014 1.8696601 -0.97173101 8
-1.4704577 3.035027 0.89022958 0
-3.3237436 6.8602128 1.47306 40
-2.0934205 4.3208237 0.67169464 11
-4.6253033 9.5466347 0.92099905 14
-5.1869683 10.705912 0.6120066 29
-5.1856432 10.703176 0.40139666 35
-4.2629628 10.72325 0.32091758 41
-5.6523514 9.786211 0.24777894 22
-5.1844425 10.700698 0.19052692 25
-4.2629151 10.723129 0.11681637 42
-5.6616616 9.80233 0.047812108 25
-5.1833563 10.698456 -0.01971104 33
-4.2630124 10.723374 -0.08700873 44
-5.6812057 9.8361673 -0.15266284 18
-5.1876254 10.707268 -0.23011081 51
-4.2514353 10.694253 -0.29050282 43
-5.6909657 9.8530655 -0.35420403 23
-5.1902628 10.712711 -0.44127837 51
-4.2606812 10.71751 -0.49549052 51
-5.6290007 9.7457819 -0.54945707 25
-5.1877961 10.707621 -0.65167141 48
-4.2597427 10.715149 -0.69919533 44
-5.647223 9.7773323 -0.75133485 29
-5.1802425 10.69203 -0.86100906 45
-4.256001 10.705738 -0.90265191 48
-5.6576805 9.7954369 -0.95287234 22
-5.1902151 10.712613 -1.0732685 50
-4.255374 10.704161 -1.1063125 40
-5.6663532 9.8104534 -1.1549816 27
-5.1846862 10.701201 -1.282541 49
-5.1844974 10.700812 -1.4932775 45
-5.1844811 10.700778 -1.7037129 38
-4.9485941 10.213907 -1.8290807 4
-4.4568758 9.1989994 -1.8281448 4
-4.057446 8.3745766 -1.8302636 5
-3.7209907 7.6801314 -1.8296998 5
-3.4368582 7.0936813 -1.8297979 7
-3.1980221 6.6007233 -1.83213 6
-0.96643418 1.9947219 -0.7625128 5
-0.90893888 1.8760514 -0.97173101 7
-1.439263 3.0242651 0.88410413 0
-3.272397 6.8761554 1.4715422 21
-2.10236 4.417604 0.68444133 8
-4.5465598 9.5535021 0.91857719 19
-5.0932226 10.702183 0.60974598 30
-5.0970559 10.710238 0.40031728 37
-4.1763873 10.722943 0.32002801 40
-5.6570015 9.9540758 0.25102302 23
-5.0907102 10.696903 0.18982197 25
-4.1763363 10.722812 0.11649244 42
-5.6662159 9.9702892 0.048437212 25
-5.0913568 10.698261 -0.019644719 32
-4.1706252 10.708148 -0.086646825 43
-5.6855168 10.004251 -0.15465176 18
-5.1007233 10.717943 -0.22956938 49
-4.166513 10.69759 -0.28979626 43
-5.6892037 10.010738 -0.35843557 22
-5.098175 10.712589 -0.4397966 54
-4.1741519 10.717204 -0.49411702 49
-5.6220198 9.8925219 -0.55550361 23
-5.0923257 10.700298 -0.64904636 51
-4.1688933 10.703701 -0.69653219 44
-5.6439037 9.9310284 -0.76009905 26
-5.0917616 10.699112 -0.8586961 46
-4.169579 10.705462 -0.90015239 47
-5.6679335 9.9733114 -0.96630251 24
-5.1016097 10.719806 -1.070395 49
-4.1704254 10.707636 -1.1036357 44
-5.6665421 9.9708633 -1.1691806 27
-5.0961847 10.708406 -1.2791095 51
-5.0943208 10.70449 -1.4887917 45
-5.092639 10.700956 -1.6980395 35
-4.8703837 10.23394 -1.826535 4
-4.3874741 9.2192221 -1.826032 4
-3.9921393 8.3885202 -1.8271759 4
-3.6572018 7.6847301 -1.8246685 5
-3.3889287 7.1210184 -1.8307023 7
-3.1435273 6.6053667 -1.827283 6
-0.92160308 1.9365273 -0.73778969 3
-0.88958853 1.8692564 -0.96497113 9
-1.4148395 3.0272317 0.88206238 1
-3.2126727 6.8739281 1.4662298 42
-2.1050141 4.5039496 0.69552541 2
-4.4611931 9.5452986 0.91477138 15
-4.9997783 10.697671 0.60748535 30
-5.0069265 10.712965 0.39910299 36
-4.0914497 10.725688 0.3192496 39
-5.6556768 10.115495 0.25409177 21
-5.0040541 10.70682 0.18937337 25
-4.0856938 10.710599 0.11604705 44
-5.6706495 10.142274 0.049079213 26
-4.9996085 10.697308 -0.019578395 31
-4.0857868 10.710843 -0.086435713 43
-5.6897068 10.176359 -0.15669444 18
-5.0122271 10.724307 -0.22895059 50
-4.0831771 10.704 -0.28919062 42
-5.6855145 10.16886 -0.36266708 21
-5.0131083 10.726192 -0.4389075 53
-4.0878353 10.716212 -0.49274349 51
-5.6288595 10.06753 -0.56311059 23
-5.0039711 10.706642 -0.64729631 49
-4.0869503 10.713893 -0.69532168 45
-5.6426053 10.092114 -0.76939452 26
-5.000052 10.698256 -0.85580486 50
-4.0833688 10.704503 -0.8976528 43
-5.6643043 10.130925 -0.97771817 22
-5.0131531 10.726288 -1.0675215 51
-4.0827985 10.703008 -1.100194 44
-5.6628218 10.128274 -1.1829739 25
-5.0061469 10.711298 -1.275249 51
-5.0026612 10.703839 -1.4838076 46
-5.0094256 10.718313 -1.6952028 41
-4.8071795 10.285581 -1.8297172 4
-4.3213377 9.2460604 -1.8253279 4
-3.9301555 8.4090748 -1.825632 5
-3.606775 7.7171612 -1.8263456 5
-3.3226345 7.1092052 -1.8216574 6
-3.0874777 6.6060572 -1.8214667 7
-0.90165514 1.9292076 -0.73258483 6
-0.86423653 1.8491455 -0.95145136 11
-1.400123 3.0510957 0.88614595 0
-3.1596911 6.8854809 1.463953 31
-1.7711654 3.8596573 0.59410614 4
-4.3778253 9.5399923 0.91131163 20
-4.9116435 10.703269 0.60584128 30
-4.9136724 10.707691 0.39761883 38
-4.0038853 10.720277 0.31824884 42
-5.6562243 10.284381 0.25733587 23
-4.9175072 10.716048 0.18892477 27
-4.002429 10.716377 0.1158041 48
-5.6671715 10.304285 0.049670529 24
-4.9164639 10.713774 -0.019545235 31
-4.0039201 10.720369 -0.086284913 46
-5.6840572 10.334989 -0.15852208 19
-4.9188871 10.719055 -0.22809976 47
-3.9985611 10.706021 -0.28848404 40
-5.6914515 10.348433 -0.36764535 22
-4.919764 10.720966 -0.43727753 55
-4.0045385 10.722026 -0.49171337 49
-5.6277494 10.232607 -0.57013243 22
-4.9157758 10.712275 -0.64554632 51
-4.0022807 10.715981 -0.69362694 44
-5.641253 10.257159 -0.77895546 26
-4.9102664 10.700269 -0.85320276 48
-4.0001717 10.710333 -0.89577812 44
-5.6683507 10.30643 -0.9908126 23
-4.9182081 10.717575 -1.0632111 54
-3.9954453 10.697679 -1.0967523 43
-5.6686826 10.307033 -1.1992012 26
-4.914659 10.709841 -1.2709595 53
-4.9112592 10.702432 -1.4788233 47
-4.9097037 10.699042 -1.6866928 37
-4.7171373 10.279409 -1.8227165 4
-4.2468295 9.2545319 -1.8211026 4
-3.8648052 8.422039 -1.8225442 5
-3.5462863 7.7279344 -1.8229915 5
-3.279422 7.1463938 -1.8252754 6
-3.0396647 6.6239238 -1.8204974 7
-0.88500953 1.9285796 -0.72998238 9
-0.84828168 1.8485438 -0.94807142 11
-1.3724344 3.0466909 0.88206238 1
-3.1083183 6.9002099 1.4624352 43
-1.7571931 3.9008234 0.59853977 5
-4.3029332 9.5521555 0.90958172 26
-4.825316 10.711802 0.60440272 31
-4.8240218 10.70893 0.3964045 38
-3.9152181 10.710414 0.31713685 41
-5.656589 10.45728 0.26066765 21
-4.8228636 10.706359 0.18815574 28
-3.9179041 10.717762 0.11552066 43
-5.6674132 10.477291 0.050312527 24
-4.8218331 10.704071 -0.019465648 35
-3.9221137 10.729278 -0.086134121 46
-5.6897869 10.518654 -0.16072603 19
-4.8275084 10.71667 -0.22732627 51
-3.9099929 10.69612 -0.28747466 43
