# .PCD v0.7 - Point Cloud Data file format
VERSION 0.7
FIELDS x y z intensity
SIZE 4 4 4 4
TYPE F F F F
COUNT 1 1 1 1
WIDTH 1412
HEIGHT 1
VIEWPOINT 0 0 0 1 0 0 0
POINTS 1412
DATA ascii
9.3189421 2.4760962 -0.58468032 14
8.7228708 3.7404292 -0.63155681 45
13.786945 4.7606888 -1.0570346 45
9.0223351 2.3972859 -0.73143238 25
8.7259636 3.7417552 -0.79976809 37
13.72207 4.7382865 -1.308899 6
8.8815432 2.3598769 -0.88260257 12
8.7373142 3.7466223 -0.9691785 44
11.905177 4.1109066 -1.358464 3
10.560385 3.646544 -1.4030628 3
9.4990044 3.2800448 -1.4399012 3
8.6413698 2.9839003 -1.47332 3
7.9462137 2.74386 -1.5035012 4
7.3418159 2.5351591 -1.5276642 5
6.831912 2.3590872 -1.5496266 5
6.3715973 2.2001386 -1.5647801 9
5.9975505 2.0709786 -1.5849378 6
4.5155897 1.5592517 -1.6434363 6
1.6757613 0.57864726 -0.82639384 7
5.7605004 1.9442207 1.6048634 18
5.2542205 1.7733467 1.0715923 20
5.3185759 1.7950671 0.78530639 14
13.705992 4.625895 1.2559078 29
13.743166 4.638442 0.74620414 28
13.764873 4.6457682 0.49031109 31
13.681681 3.5332282 0.39297393 54
8.721777 3.6680889 0.2074469 33
13.748205 4.6401429 0.23250309 27
13.690142 3.535413 0.14313549 43
8.7311687 3.672039 0.040006738 44
13.749951 4.6407323 -0.024061795 29
10.692883 2.7613854 -0.083269015 0
8.7193975 3.6670885 -0.12712945 31
13.781502 4.651381 -0.2813153 41
10.198075 2.6336036 -0.26587367 0
8.7159634 3.6656439 -0.29434031 39
13.793555 4.6554489 -0.53966951 50
9.9520216 2.5700617 -0.44158059 0
8.7245426 3.6692524 -0.46207449 40
13.786157 4.6529517 -0.79692483 43
9.312808 2.4049876 -0.58322769 17
8.7230177 3.668611 -0.62969774 45
13.800946 4.6579432 -1.0555891 40
9.0156851 2.3282571 -0.72955769 24
8.7298269 3.6714749 -0.79775357 39
9.2969561 3.1378062 -0.88469219 0
8.8862371 2.2948279 -0.88145536 20
8.7302427 3.6716497 -0.96552736 44
9.1791019 3.0980294 -1.0449064 30
9.1415834 3.0853665 -1.2116681 22
9.5291748 3.2161822 -1.4410359 2
8.6694736 2.9260252 -1.4745929 3
7.950253 2.6832819 -1.5006843 5
7.370492 2.4876072 -1.5299799 5
6.8704495 2.3188384 -1.5546578 5
6.3904934 2.1568489 -1.5656847 12
6.0155396 2.0302987 -1.5859072 6
4.515614 1.5240604 -1.6395326 7
1.6797602 0.56693417 -0.82639384 7
5.7071619 1.8841491 1.5864872 9
5.366559 1.7717032 1.0920831 17
5.4582629 1.8019781 0.80414927 14
13.713665 4.5273972 1.2538319 30
13.747073 4.5384269 0.74476558 29
13.761216 4.5430956 0.48909679 30
13.759104 3.4560483 0.39453068 64
8.7274294 3.6025336 0.20700851 37
13.755891 4.541338 0.23211856 29
13.767597 3.4581819 0.14370236 42
8.7220545 3.6003149 0.039854687 42
13.77283 4.5469298 -0.024048531 29
10.648891 2.6748168 -0.082786471 0
8.7176485 3.598496 -0.12675317 35
13.785465 4.5511012 -0.28077388 42
11.215906 2.8172412 -0.29191598 0
8.7105179 3.5955529 -0.29334465 39
13.801353 4.5563464 -0.53878045 48
9.9494677 2.4991338 -0.44072217 0
8.7339153 3.6052105 -0.46129426 42
13.790164 4.5526528 -0.79539353 43
9.3246803 2.3421979 -0.58298558 19
8.7323999 3.6045849 -0.62863541 44
9.4180212 3.1092436 -0.71876043 3
9.0193243 2.2654979 -0.72862041 22
8.7281942 3.6028492 -0.7954033 36
9.1813736 3.0311172 -0.87176126 11
8.9321537 2.2436023 -0.88451463 2
8.7249765 3.6015208 -0.96228188 45
9.3014116 3.0707464 -1.0564878 5
9.0563202 2.9898324 -1.1977123 29
9.5352564 3.1479473 -1.4387666 2
8.7074394 2.8746536 -1.477775 4
7.9603958 2.6280265 -1.4992759 5
7.3868279 2.4386702 -1.5299799 5
6.8671079 2.2670908 -1.5504651 5
6.3972578 2.1119757 -1.5638757 11
6.010447 1.984275 -1.5810603 6
4.5363979 1.4976358 -1.6434363 6
1.6697125 0.55123502 -0.81963396 7
5.764348 1.8585011 1.598738 19
5.5208364 1.7799896 1.1209221 18
5.5762787 1.797865 0.81966698 15
13.714596 4.4217644 1.2510641 33
13.755611 4.4349885 0.74353248 29
13.750744 4.4334192 0.48761263 32
13.755704 3.3532786 0.39375231 55
8.7301254 3.5325181 0.20648244 37
13.756807 4.4353743 0.23160589 29
13.756431 3.3534555 0.14333794 41
8.7210217 3.5288343 0.039736424 42
13.762362 4.4371648 -0.023975577 28
10.597357 2.5833566 -0.082243606 0
8.7166042 3.5270469 -0.12637688 32
13.786452 4.444932 -0.28015509 43
11.250841 2.7426589 -0.29231972 0
8.716877 3.5271573 -0.29272237 41
13.806195 4.4512973 -0.53774321 49
9.9550257 2.4267731 -0.44020709 0
8.7366495 3.5351579 -0.46012399 42
13.791202 4.4464631 -0.79364347 40
9.3291674 2.2742054 -0.5822593 17
8.7314529 3.5330553 -0.62677634 31
9.234457 2.9773095 -0.70314777 20
9.0232983 2.1996427 -0.72768307 21
8.7014065 3.5208974 -0.7907027 10
9.0809793 2.9278262 -0.8602671 26
8.9089155 2.1717591 -0.88069057 25
8.7130184 3.5255959 -0.95822501 2
9.0425282 2.9154289 -1.0247459 24
9.0014257 2.9021771 -1.1877438 30
9.564537 3.0837317 -1.4399012 2
8.7160196 2.8101585 -1.4758657 4
7.9897914 2.5760128 -1.5013885 4
7.4186153 2.3918583 -1.5330677 5
6.8827677 2.219094 -1.5504651 5
6.4303885 2.073241 -1.5683981 7
6.0352345 1.9458382 -1.5839684 6
4.5575428 1.4694113 -1.6473399 7
1.6666191 0.53733975 -0.81625402 6
5.7808714 1.8193749 1.5997589 17
5.6380215 1.7744168 1.1421717 16
5.7247267 1.801705 0.83961833 16
13.714721 4.3163424 1.2482963 31
13.751943 4.3280568 0.74168295 34
13.754666 4.3289142 0.48666817 32
13.743757 3.2488868 0.39275151 71
8.7397032 3.4655876 0.20613173 37
13.756916 4.3296223 0.2310932 28
13.763937 3.2536571 0.14317597 41
8.7380075 3.4649153 0.039702632 41
13.77774 4.3361759 -0.023949048 29
10.603456 2.5065508 -0.082153134 0
8.7410145 3.4661076 -0.12637688 25
13.775184 4.3353715 -0.27930427 47
11.265822 2.6631279 -0.29221877 0
8.7710209 3.4780061 -0.29371804 18
13.802618 4.3440056 -0.53640956 50
9.9367228 2.3489418 -0.4386619 0
8.7091217 3.4534612 -0.45739326 3
9.6197119 3.0275474 -0.5523566 3
9.3409309 2.2081029 -0.58201718 15
8.7225151 3.4587717 -0.62438607 30
9.1522684 2.8804321 -0.69534147 18
9.0423145 2.1375129 -0.72799551 24
8.7405949 3.4659414 -0.79204571 18
9.0441952 2.8464191 -0.8548792 16
9.0246077 2.133327 -0.89063323 7
8.7781096 3.4808168 -0.96268755 4
8.9602365 2.8199952 -1.0131645 40
8.9495373 2.816628 -1.1782738 32
9.5933867 3.0192623 -1.4410359 3
8.750494 2.7539842 -1.4784114 4
8.0188484 2.5237184 -1.5035012 5
7.4313884 2.3388312 -1.5322958 5
6.8980918 2.1709902 -1.5504651 5
6.4335551 2.0247898 -1.5656847 9
6.0412679 1.9013277 -1.5820297 6
4.5604744 1.4352875 -1.6447375 6
1.6703297 0.52569169 -0.81625402 6
5.7897348 1.777837 1.598738 17
5.7328672 1.7603749 1.158868 3
5.8659205 1.8012313 0.85846126 15
13.717855 4.2123017 1.2458744 30
13.758911 4.2249088 0.74044985 29
13.761623 4.2257414 0.48585862 33
13.762206 3.1519656 0.39264032 65
8.827055 3.4291077 0.20762226 16
13.767692 4.2276049 0.23077276 30
13.762922 3.1521297 0.14293303 39
8.8663826 3.4443853 0.040175684 19
13.76944 4.2281418 -0.023882724 30
10.593404 2.426213 -0.081942022 0
8.925312 3.467278 -0.12868834 14
13.77453 4.2297049 -0.27868548 41
10.188857 2.3335595 -0.26385489 0
8.9516106 3.4774942 -0.29894522 17
10.236896 3.1434138 -0.39697272 20
9.9295053 2.2741601 -0.43763179 0
8.8410187 3.4345317 -0.46304974 15
9.4917097 2.9145916 -0.54382515 8
9.3522272 2.1419456 -0.58177507 19
8.8952608 3.4556038 -0.63500941 19
9.1149473 2.7989004 -0.69100463 25
9.0531301 2.0734434 -0.72768307 24
8.9429169 3.474117 -0.80816197 17
8.9991055 2.7633293 -0.84877288 31
9.0276375 2.0676048 -0.88948596 7
8.9802437 3.4886174 -0.98216039 19
8.9226789 2.739861 -1.0067303 35
8.9120741 2.7366045 -1.1707973 32
9.6255865 2.9557009 -1.4427379 2
8.7695074 2.692827 -1.4784114 4
8.0212154 2.4630513 -1.5006843 5
7.440032 2.2845891 -1.5307519 5
6.9093418 2.1216314 -1.5496266 5
6.4438095 1.9786819 -1.5647801 10
6.0543947 1.8591053 -1.5820297 7
4.5667672 1.4023039 -1.6434363 6
1.6878221 0.51827461 -0.8230139 5
5.8020053 1.7373744 1.598738 18
5.906796 1.7687533 1.1915014 4
6.0567145 1.8136455 0.88450879 20
13.624766 4.0798516 1.234803 31
13.707707 4.1046877 0.73613417 32
13.687387 4.0986028 0.4822157 37
13.75655 3.0497541 0.39186195 53
9.0114985 3.4285474 0.21139243 16
13.674265 4.0946736 0.22872202 23
13.753353 3.0490453 0.1426091 38
9.0509691 3.4435644 0.04090216 18
13.702825 4.1032257 -0.023716919 29
10.598368 2.349602 -0.081851542 0
9.1100445 3.4660404 -0.13099977 14
13.769242 4.1231141 -0.27798933 40
10.177572 2.2563138 -0.26314831 0
9.1512966 3.4817355 -0.3047947 16
10.036493 3.0053656 -0.38837832 17
9.9490423 2.2056501 -0.43780348 0
9.0178785 3.4309747 -0.47104681 18
9.5309563 2.8539855 -0.54491895 9
9.3786469 2.0791962 -0.58250141 16
9.0833025 3.4558661 -0.64669508 21
9.1227999 2.7317657 -0.69013727 19
9.0712776 2.0110543 -0.72799551 24
9.1532211 3.4824674 -0.82494974 16
8.9800138 2.6890094 -0.84518099 45
8.9563322 1.9855713 -0.88107294 10
9.1791859 3.4923463 -1.0012275 19
8.8920612 2.6626725 -1.0011541 45
8.8815346 2.6595204 -1.1643178 16
9.6232271 2.8816156 -1.4393339 2
8.7653933 2.6247425 -1.4745929 5
8.0533037 2.4115117 -1.5035012 5
7.4783592 2.2393482 -1.5353836 5
6.920238 2.0722222 -1.5487881 5
6.4723964 1.9381189 -1.5683981 4
6.0746613 1.8190194 -1.5839684 7
4.583693 1.3725584 -1.6460387 6
1.6740338 0.501279 -0.81456405 5
5.8065677 1.6946595 1.5966961 19
5.0443454 1.4722031 1.0154325 3
6.2441564 1.8223706 0.91000217 14
13.64144 3.9812841 1.233765 37
13.66317 3.9876258 0.73222947 28
13.684965 3.9939871 0.48113632 36
13.754048 2.9486122 0.39119476 77
9.2038527 3.4283693 0.21533796 16
13.671803 3.9901457 0.22820933 24
13.770393 2.952116 0.14256862 42
9.2584581 3.4487095 0.041730002 17
13.688898 3.9951348 -0.023643963 33
10.626246 2.2780695 -0.081942022 0
9.3101778 3.4679747 -0.13352624 16
13.701714 3.9988751 -0.27605563 46
10.232176 2.193588 -0.26415771 0
9.355216 3.4847512 -0.3107686 17
9.9993668 2.1436782 -0.43934864 0
9.2063437 3.4292972 -0.47962901 17
9.5199757 2.7784257 -0.5431689 7
9.3929338 2.0136702 -0.58250141 19
9.2680321 3.4522758 -0.65811515 19
9.1186695 2.6613038 -0.68840247 18
9.0928946 1.9493475 -0.72862041 23
9.3379221 3.4783094 -0.83938718 16
8.9870949 2.6229033 -0.8441034 2
8.9582949 1.9204918 -0.87992573 40
9.3897953 3.4976318 -1.0215117 13
8.8760748 2.5905018 -0.99729359 50
8.8960752 2.596339 -1.1638194 1
9.650712 2.8165815 -1.4404685 2
8.8100405 2.5712297 -1.4790479 5
8.0623827 2.353024 -1.5020927 4
7.4749718 2.181587 -1.5315238 5
6.9382906 2.0249553 -1.5496266 5
6.4895101 1.8939776 -1.5693027 5
6.0834866 1.7754788 -1.582999 6
4.5967941 1.3415844 -1.6473399 6
1.6740122 0.4885641 -0.81287408 5
5.807673 1.6488808 1.5936335 19
5.0814476 1.4426951 1.0207448 2
6.3716717 1.8090081 0.92662829 21
13.631924 3.8702967 1.2303053 35
13.672819 3.8819077 0.73120195 31
13.690801 3.8870127 0.48032677 39
13.75963 2.8444731 0.39074996 68
9.3827982 3.4169142 0.21893276 4
13.681448 3.8843577 0.22788891 29
13.779912 2.848666 0.14244714 39
13.767378 5.0136375 0.061885424 42
13.687034 3.8859434 -0.023590906 32
10.658328 2.2033534 -0.082062654 0
13.777533 5.0173354 -0.19706409 32
10.3759 2.9458656 -0.20860802 8
10.2284 2.1144762 -0.26365301 0
13.764592 5.0126228 -0.45600969 39
10.166918 2.8865325 -0.39178646 0
9.9913292 2.0654674 -0.43831852 0
9.3851509 3.4177709 -0.48762608 1
9.5093498 2.6998396 -0.54141885 10
9.4152613 1.9463792 -0.58298558 17
13.778374 5.017642 -0.97575265 46
9.1110687 2.586762 -0.68637866 19
9.1069393 1.8826411 -0.72862041 19
13.801311 5.0259948 -1.2372566 28
9.0060806 2.5569544 -0.8441034 0
8.9760313 1.8555789 -0.88030815 36
12.37659 4.5071568 -1.3428133 3
8.8412657 2.5101612 -0.99128842 41
9.0064993 2.5570731 -1.1757816 3
9.6634817 2.7435997 -1.4393339 2
8.8210545 2.5044227 -1.477775 5
8.0794144 2.2938607 -1.5020927 5
7.4945388 2.1278059 -1.5322958 4
6.9642353 1.9772453 -1.5521423 6
6.5107155 1.8484846 -1.5711117 5
6.1112714 1.7350768 -1.5868765 6
4.5955892 1.3047531 -1.6434363 7
1.6705734 0.47429952 -0.80949414 5
5.8078589 1.6052052 1.5905708 19
5.1633186 1.4270639 1.0351644 4
6.6094232 1.8267455 0.95932627 16
13.65477 3.7739739 1.2299592 36
13.676484 3.7799754 0.72996891 29
13.694484 3.7849503 0.47951722 34
13.743861 2.7413058 0.38974917 83
13.753647 4.9001594 0.32011354 38
13.688957 3.7834229 0.22756848 24
13.779851 2.7484841 0.14224468 39
13.760596 4.9026356 0.06169958 44
13.694551 3.7849689 -0.023557745 30
10.681295 2.1304564 -0.082122974 0
13.763245 4.9035788 -0.19636527 31
10.219383 2.0383251 -0.26304737 0
13.772888 4.9070144 -0.4551385 36
10.001886 2.7643716 -0.38467383 0
10.025101 1.9995739 -0.43917698 0
13.778221 4.9089146 -0.71407962 37
9.5010185 2.6259394 -0.53988761 13
9.4286203 1.8806019 -0.58298558 21
13.786751 4.9119534 -0.97389352 46
9.1096783 2.5177786 -0.68493301 18
9.1315937 1.821358 -0.72955769 32
13.806025 4.9188204 -1.2345706 28
9.0275517 2.49508 -0.84446257 2
9.0121956 1.7975432 -0.88260257 36
12.374018 4.4086237 -1.3391621 4
8.8585749 2.4483774 -0.99128842 52
9.0815115 2.5099938 -1.1832579 6
9.6862164 2.677125 -1.4399012 2
8.8307104 2.4406762 -1.4765022 5
8.1028223 2.2394989 -1.5035012 5
7.5016446 2.0733423 -1.5307519 5
6.9590201 1.9233691 -1.5479496 5
6.5159507 1.8009112 -1.5693027 5
6.108273 1.6882352 -1.582999 7
4.6045861 1.2726386 -1.6434363 6
1.6633605 0.45972791 -0.80442423 5
5.8301287 1.5676324 1.5936335 17
5.2565932 1.4134176 1.0518605 5
7.3947744 1.9883418 1.0712754 4
13.649998 3.6702754 1.2271914 40
13.671678 3.676105 0.72832483 31
13.681968 3.6788719 0.47816801 37
13.746959 2.6422698 0.38930437 74
13.757309 4.7934947 0.31941211 37
13.680276 3.678417 0.22699171 27
13.759424 2.644666 0.14183977 43
13.76427 4.7959199 0.061564423 39
10.904665 2.9320977 -0.018722836 3
10.695909 2.055835 -0.082122974 1
13.774481 4.7994776 -0.19604275 29
11.200021 3.0115142 -0.2243097 0
10.249072 1.9699496 -0.26345113 0
13.750177 4.7910094 -0.45327163 37
11.263908 3.0286927 -0.43238762 2
10.066288 1.934817 -0.44037879 0
13.793293 4.8060322 -0.71310437 52
9.4728346 2.5471003 -0.5372625 16
9.4493618 1.8162391 -0.58346981 20
13.790554 4.805078 -0.97176886 43
9.0962114 2.4458323 -0.68262005 20
9.1440868 1.757563 -0.72955769 21
13.794861 4.8065786 -1.2305416 25
9.0639858 2.4371672 -0.84625858 3
9.0636263 1.7420979 -0.88642669 32
12.404493 4.3221292 -1.3391621 3
8.8447275 2.3782117 -0.98785686 38
9.0834827 2.4424098 -1.1812643 6
9.6931992 2.606353 -1.4381993 2
8.8475342 2.3789666 -1.4765022 5
8.1296663 2.1859429 -1.5056138 5
7.5386777 2.0270352 -1.5353836 5
6.9949398 1.8808323 -1.5529808 5
6.5020251 1.7482951 -1.5629711 9
6.1386485 1.6505886 -1.5878459 7
4.6206641 1.2424258 -1.6460387 7
1.6840349 0.45281124 -0.81287408 5
5.8403974 1.5289315 1.5936335 19
5.2848487 1.383497 1.0556551 2
7.3924699 1.9352417 1.0690585 5
13.639343 3.5705829 1.2240776 43
13.688029 3.5833282 0.7279138 32
13.682861 3.5819752 0.47735846 38
13.756317 2.5495827 0.38908198 52
13.766088 4.6944041 0.31888604 37
13.685025 3.5825417 0.22667128 25
13.76093 2.5504377 0.14167781 37
13.765488 4.6941991 0.061429266 39
10.869698 2.8455296 -0.018629985 3
10.709308 1.9848529 -0.082122974 2
13.783296 4.7002721 -0.19572023 31
11.200403 2.9321036 -0.22392295 0
10.246184 1.899018 -0.26304737 0
13.766514 4.6945491 -0.45277381 40
11.550567 3.0237713 -0.44261199 0
10.063181 1.8651004 -0.43969202 0
13.790831 4.7028418 -0.71134895 38
9.4933834 2.4852304 -0.53748125 9
9.4651251 1.7542573 -0.58371192 15
13.791899 4.7032056 -0.96964419 42
9.0967951 2.3814094 -0.68146354 20
9.1751471 1.7005129 -0.73111993 7
13.8038 4.7072639 -1.2285271 23
8.9489155 2.3426969 -0.83404601 12
9.1063013 1.6877532 -0.88948596 33
9.1824827 3.1313386 -0.989057 25
8.8526106 2.3174856 -0.98699898 44
9.0841236 2.3780923 -1.1792706 4
9.7179317 2.544014 -1.4393339 2
8.8554764 2.3182356 -1.4752294 5
8.1401758 2.1309805 -1.5049096 5
7.5443616 1.9750049 -1.5338397 5
6.9996929 1.8324184 -1.5513036 5
6.5360932 1.7110547 -1.5683981 12
6.1457062 1.608857 -1.5868765 7
4.6288023 1.2117535 -1.6460387 7
1.6624501 0.4352054 -0.80104434 5
5.8509288 1.4881207 1.5936335 19
5.2639294 1.3388237 1.0495838 3
7.3942823 1.880656 1.0673959 7
13.714145 3.4880447 1.2285753 37
13.685611 3.4807878 0.72647524 36
13.742403 3.4952321 0.47857276 24
13.746225 2.4485765 0.38830361 92
13.760586 4.5855412 0.31800926 39
13.75234 3.4977593 0.22737622 27
13.770524 2.4529047 0.14159682 43
13.763771 4.5866027 0.061277211 39
10.831149 2.754786 -0.018530501 3
10.718966 1.9093392 -0.082092814 4
13.774035 4.5900226 -0.19512892 33
10.267139 2.6113362 -0.2048953 0
10.267066 1.8288436 -0.26324925 0
13.772402 4.5894785 -0.45190263 40
10.025702 2.5499291 -0.38348839 0
9.9893999 1.7793837 -0.4359149 10
13.789214 4.5950809 -0.70959347 40
9.5027599 2.4169247 -0.53704375 8
9.4535561 1.6839354 -0.5822593 25
13.794106 4.5967112 -0.96751952 43
9.0900002 2.3119435 -0.67972881 19
9.304574 1.6573976 -0.7404933 3
9.1927052 3.0633526 -0.8162201 10
8.9534702 2.2772186 -0.83296841 11
9.1453009 1.6290267 -0.89216286 37
9.1323891 3.0432532 -0.98134899 13
8.8454485 2.2497444 -0.98442531 39
9.0697336 2.3067889 -1.1752832 5
9.7316189 2.4751325 -1.4387666 1
8.8790998 2.2583032 -1.4765022 4
8.1510391 2.0731289 -1.5042053 5
7.5427513 1.9184175 -1.5307519 5
7.0161057 1.7844708 -1.5521423 5
6.5441031 1.664422 -1.5674937 10
6.1718326 1.5697391 -1.590754 6
4.6334834 1.1784766 -1.6447375 7
1.6689614 0.42448235 -0.80273432 3
5.85742 1.4463108 1.5926126 19
5.2502704 1.2963936 1.0450302 7
7.4033856 1.8280395 1.0668417 7
13.734293 3.3912635 1.2282294 31
13.752239 3.3956947 0.72873586 30
13.754827 3.3963337 0.47816801 32
13.755103 2.3512027 0.38808119 51
13.761843 4.4794621 0.31730783 39
13.760892 3.3978312 0.22711988 27
13.771543 2.354013 0.14143486 42
13.780242 4.4854507 0.061209634 44
10.826817 2.6733513 -0.018490708 3
10.732035 1.8344603 -0.082092814 8
13.763906 4.480134 -0.19453762 33
10.351125 2.5558937 -0.20621023 0
10.283525 1.7577952 -0.26335019 0
13.777493 4.4845567 -0.45103142 37
10.021275 1.7129679 -0.43677333 1
13.779168 4.4851017 -0.70744795 41
9.4961367 2.3447804 -0.53573126 14
9.5516653 1.6326962 -0.58758557 17
9.4272404 3.0685546 -0.65970862 15
9.0981722 2.2465153 -0.67915058 21
9.382741 1.6038214 -0.74580485 4
9.1645956 2.9830642 -0.81185526 7
8.9343395 2.2060618 -0.8297357 12
9.2035484 1.5731913 -0.89675176 32
9.0134058 2.933852 -0.96633869 32
8.8300514 2.180311 -0.98099375 39
9.0779104 2.2415123 -1.1742864 4
9.7409725 2.4052353 -1.4376318 1
8.8946486 2.1962614 -1.4765022 4
8.1576681 2.0142865 -1.502797 5
7.5750122 1.8704175 -1.5346116 5
7.0207977 1.7335712 -1.5504651 5
6.5442152 1.6158937 -1.5647801 10
6.1411972 1.5163808 -1.5800909 7
4.6452699 1.1470072 -1.6460387 6
1.6718841 0.41282064 -0.80273432 3
5.8711357 1.406284 1.5936335 18
5.2630119 1.2606231 1.0457891 1
7.3928528 1.7707732 1.0635165 9
13.730506 3.2887998 1.2258075 32
13.744532 3.2921593 0.72709179 28
13.762651 3.2964993 0.47762829 34
13.751452 2.2518859 0.3875252 83
13.76229 4.3735881 0.3166064 35
13.757051 3.2951579 0.22667128 29
13.771853 2.2552266 0.1412729 41
13.765473 4.3745995 0.061006896 40
10.802426 2.5874515 -0.018417753 4
10.756421 1.7614309 -0.082183294 9
13.768166 4.3754554 -0.19416134 30
11.282688 2.702486 -0.22438705 0
10.342901 1.6937144 -0.26456147 0
13.770364 4.3761535 -0.44978684 39
9.9553699 2.3845601 -0.37948754 0
9.9343948 1.6268189 -0.43248114 0
13.779682 4.3791151 -0.7058875 40
9.4889698 2.2728457 -0.5344187 15
9.6179934 1.5750062 -0.59097499 12
9.2620506 2.943434 -0.64669508 9
9.1136341 2.1829433 -0.67915058 19
9.4409342 1.5460117 -0.74955416 3
9.1965933 2.922632 -0.81286252 4
8.968895 2.1482747 -0.83153164 16
9.2889643 1.5211257 -0.90401757 33
8.9691963 2.8503664 -0.95944208 36
8.8411903 2.1176863 -0.98056483 35
9.0663204 2.1716106 -1.1707973 5
9.7421246 2.3334825 -1.4353626 1
8.8944025 2.1304319 -1.4739565 4
8.1906776 1.9618722 -1.506318 4
7.5917025 1.8184026 -1.5353836 4
7.0213189 1.6817815 -1.5479496 5
6.5629153 1.5719824 -1.5665891 5
6.1667299 1.4770861 -1.5839684 7
4.6531644 1.1145493 -1.6460387 6
1.6606225 0.39776063 -0.79597443 3
5.8737507 1.3614627 1.5915917 18
5.2568073 1.2184628 1.0427535 1
7.3786201 1.7102728 1.0596371 13
13.72707 3.1817648 1.2233857 31
13.744945 3.1859078 0.72585869 28
13.759184 3.1892085 0.47668386 33
13.759688 2.1497896 0.38730282 46
13.77106 4.2654886 0.31608033 36
13.753563 3.1879056 0.22622268 23
13.776158 2.1523628 0.14115143 42
13.774246 4.2664757 0.060905527 40
10.782136 2.4991655 -0.01835143 4
10.820419 1.6905633 -0.082575358 7
13.773126 4.2661285 -0.19378506 30
10.285347 2.384016 -0.20419918 0
10.386644 1.6227912 -0.26536897 7
10.242711 3.1726074 -0.33379313 28
9.9764757 2.3124237 -0.37963572 0
10.013176 1.5644411 -0.43539983 12
13.784698 4.2697129 -0.70452219 31
9.5131569 2.2050321 -0.5348562 12
9.680562 1.5124741 -0.59412235 18
9.2528782 2.8660138 -0.64457041 16
9.1255045 2.1151788 -0.67886144 21
9.4677725 1.4792281 -0.75080395 27
9.2025404 2.8504219 -0.8115195 6
8.9688778 2.0788748 -0.83009487 20
9.3549404 1.4615993 -0.90937132 21
8.9366322 2.7680588 -0.95376253 36
8.8564758 2.0528214 -0.98056483 45
9.0858612 2.1059899 -1.1712959 6
9.7473955 2.2593255 -1.4336605 1
8.925169 2.0687437 -1.4765022 3
8.1971664 1.9000016 -1.5049096 4
7.5971808 1.7609323 -1.5338397 5
7.0410781 1.6320347 -1.5496266 5
6.5742617 1.5238324 -1.5665891 6
6.1698303 1.4300902 -1.5820297 7
4.6648936 1.0812645 -1.6473399 6
1.6740891 0.38803312 -0.80104434 3
5.8831124 1.320423 1.5915917 17
5.27285 1.1834539 1.0442713 4
7.3903804 1.6587186 1.0596371 14
13.737283 3.083236 1.2223477 34
13.747363 3.0854983 0.72483116 29
13.765511 3.0895715 0.47614413 33
13.750633 2.0501387 0.38663563 89
13.773705 4.1611505 0.31546661 38
13.763776 3.0891821 0.22603042 24
13.77898 2.0543652 0.14102995 41
13.765406 4.1586432 0.060736582 42
10.795418 2.422955 -0.018344797 4
13.737484 4.150208 -0.19287123 35
10.332957 2.319159 -0.20481797 0
11.141262 1.6610968 -0.28434554 0
10.107694 3.0536182 -0.32869038 0
10.059427 1.4998016 -0.43694502 0
9.6836872 2.9255221 -0.4938677 7
9.520525 2.1368146 -0.5344187 17
9.8725405 1.4719379 -0.60525912 8
9.2038898 2.7805712 -0.63978988 17
9.140049 2.0514193 -0.67886144 21
9.6238031 1.4348526 -0.76236439 9
8.997098 2.7180979 -0.79170996 19
8.9987202 2.0196991 -0.83153164 12
9.88869 1.4743457 -0.96023184 3
8.8985987 2.6883404 -0.94767725 39
8.8938723 1.9961667 -0.98313844 59
9.0771074 2.0372927 -1.1683053 5
8.9284267 2.0039222 -1.3111157 1
8.939394 2.0063837 -1.4765022 3
8.2102308 1.8427283 -1.5049096 4
7.5978003 1.7052726 -1.5315238 5
7.0599327 1.5845519 -1.5513036 5
6.5657306 1.4736317 -1.5620667 7
6.1948099 1.3903812 -1.5859072 7
4.6686382 1.0478427 -1.6460387 6
1.6838322 0.3779242 -0.80442423 5
5.895967 1.2801403 1.5926126 21
5.2848215 1.1474475 1.0450302 4
7.3940377 1.6054034 1.0585287 15
13.731214 2.9813395 1.2199259 34
13.756857 2.9869072 0.72421461 31
13.763304 2.988307 0.47533461 33
13.76461 1.9540929 0.38663563 50
13.687336 4.0309978 0.31283626 40
13.765465 2.9887762 0.22570999 24
13.777147 1.9558727 0.14086799 41
13.702015 4.0353203 0.060331106 47
10.800344 2.344985 -0.0183249 4
11.999341 1.7034864 -0.091381788 2
13.700899 4.0349922 -0.1919574 35
10.442693 2.2673316 -0.20667432 0
11.536613 1.6377952 -0.29413664 0
10.170954 2.9954031 -0.33005941 0
10.003883 2.1720567 -0.37948754 0
10.235831 1.4531298 -0.4441559 2
9.6847134 2.8522027 -0.49289244 7
9.5352106 2.0702977 -0.5344187 14
10.313457 1.4641498 -0.63164842 5
9.2077627 2.7117381 -0.63872755 15
9.165843 1.9901001 -0.67972881 21
10.288986 1.4606758 -0.81423014 3
8.9661484 2.6405811 -0.78734517 24
8.9970293 1.953447 -0.83009487 7
10.501891 1.490901 -1.0187407 1
8.8827953 2.6160331 -0.94402611 42
8.9153652 1.935716 -0.98399633 54
8.9398499 1.9410322 -1.1488668 2
8.9615459 1.9457428 -1.3139524 1
8.9647608 1.9464409 -1.4784114 3
8.2267437 1.7862016 -1.5056138 4
7.6171913 1.6538547 -1.5330677 5
7.0631785 1.5335668 -1.5496266 5
6.5948968 1.4318929 -1.5665891 10
6.1967807 1.3454534 -1.5839684 6
4.6684465 1.0136194 -1.6434363 6
1.6864295 0.36615983 -0.80442423 5
5.9047604 1.2389475 1.5926126 20
5.2696414 1.1056857 1.0404767 4
7.3895574 1.5504904 1.0563118 12
13.743893 2.8837683 1.2192339 36
13.753917 2.8858716 0.72298157 30
13.768181 2.8888648 0.47479492 32
13.742254 1.8531411 0.38563484 79
13.688237 3.9276247 0.31222251 67
13.774252 2.8901386 0.22551773 25
13.786502 1.8591079 0.14082751 43
13.691404 3.9285333 0.060162161 45
10.820365 2.2703488 -0.018331533 4
13.782852 1.8586156 -0.10486286 38
13.701824 3.9315233 -0.19158112 35
10.376073 2.1771264 -0.20505001 0
12.074825 1.6282885 -0.30756155 4
10.122443 2.9044762 -0.3278192 0
10.01098 2.100522 -0.37919119 0
10.451672 1.4094064 -0.45308366 8
9.6928682 2.7812164 -0.49230731 6
9.5572491 2.0053194 -0.5348562 15
10.734939 1.447605 -0.65682721 3
9.2034521 2.6407862 -0.63713408 15
9.1834173 1.9268813 -0.68001795 22
10.860118 1.4644854 -0.85859728 2
8.9575462 2.5702271 -0.7849949 26
9.0260429 1.8938607 -0.83153164 12
11.186804 1.5085388 -1.0841328 3
8.8778915 2.5473716 -0.94159198 30
8.948122 1.8775111 -0.98614109 52
8.9221087 1.872053 -1.1448793 40
9.823575 2.0612004 -1.4381993 2
8.9897251 1.8862405 -1.4803207 3
8.2505741 1.7311505 -1.5077264 5
7.6323929 1.6014425 -1.5338397 5
7.0813684 1.4858255 -1.5513036 5
6.6047325 1.3858171 -1.5665891 12
6.2098207 1.3029559 -1.5849378 6
4.6828132 0.98255634 -1.6460387 6
1.6924928 0.35512194 -0.8061142 5
5.8791509 1.1907845 1.5834244 19
5.2772322 1.0688697 1.0404767 3
7.3846712 1.4957181 1.054095 12
13.732444 2.7814188 1.2164661 33
13.758068 2.7866089 0.72215956 31
13.772341 2.7894998 0.47425523 31
13.762788 1.7581717 0.38585725 45
13.688362 3.8244348 0.31160876 52
13.766654 2.788348 0.22506914 27
13.779306 1.7602818 0.14062504 44
13.687677 3.8242433 0.060027003 49
10.820271 2.1915767 -0.018305004 4
13.775653 1.7598151 -0.10471207 42
10.516273 2.9381747 -0.14674985 5
10.300867 2.086375 -0.203271 0
13.763724 1.7582912 -0.3502588 20
11.316905 3.1618659 -0.36577851 1
12.407363 2.5130322 -0.4692843 0
11.472101 1.4655404 -0.49686402 5
9.6735697 2.7027292 -0.4903568 4
9.5945034 1.9433055 -0.53616875 10
11.382421 1.4540839 -0.69580591 2
9.1909122 2.567878 -0.63500941 16
9.2044668 1.864306 -0.68059617 14
11.744271 1.5003097 -0.92764747 2
8.9599161 2.5033391 -0.78365189 30
9.0195217 1.8268465 -0.8297357 47
12.101516 1.5459471 -1.1717046 9
8.8647985 2.476764 -0.93834651 36
8.9766026 1.8181536 -0.98785686 53
8.9621887 1.8152342 -1.1483684 37
9.8454866 1.9941405 -1.4393339 2
8.9910641 1.8210826 -1.4784114 3
8.2508812 1.6711633 -1.5056138 5
7.6241531 1.5442235 -1.5299799 4
7.0839019 1.4347992 -1.5496266 5
6.6066089 1.3381264 -1.5647801 9
6.2111588 1.2580305 -1.582999 7
4.6932654 0.95059097 -1.6473399 6
1.6700577 0.33825952 -0.79428446 5
5.8949127 1.1511946 1.5854663 19
5.2807107 1.0312495 1.0397178 2
7.4065971 1.4464055 1.0557576 11
13.716327 2.6786082 1.2133522 32
13.761503 2.6874306 0.7213375 27
13.767938 2.6886871 0.47344568 32
13.75488 1.6596516 0.38530126 37
13.695433 3.7235343 0.31117037 67
13.766157 2.6883392 0.2247487 26
13.779347 1.6626039 0.14050357 43
13.687022 3.7212477 0.059908736 42
10.839231 2.1167514 -0.018311637 4
13.799517 1.6650375 -0.10480255 43
10.323031 2.0159447 -0.20342569 0
13.783605 1.6631176 -0.35046068 39
10.057842 2.7345409 -0.32445887 0
10.094256 1.9712681 -0.3812657 0
12.323171 1.486903 -0.53326178 2
9.6767807 2.6309373 -0.48957658 3
9.6078358 1.876277 -0.53616875 14
12.208862 1.4731106 -0.74567926 7
9.1855068 2.4973691 -0.63341588 15
9.1976795 1.7961789 -0.67915058 27
12.589822 1.5190768 -0.99357325 9
8.9540958 2.4344528 -0.78163731 26
9.1298046 1.7829241 -0.83871549 3
13.795995 1.6646125 -1.3346114 6
8.8626728 2.4095964 -0.9363181 36
9.0085926 1.759253 -0.99000156 49
9.0019093 1.7579479 -1.1518573 11
9.8941441 1.932189 -1.4444399 4
9.0151844 1.7605404 -1.4803207 3
8.2855339 1.6180497 -1.5098391 4
7.650156 1.4939693 -1.5330677 5
7.0975847 1.3860596 -1.5504651 5
6.6119652 1.291225 -1.5638757 9
6.2274075 1.2161262 -1.5849378 6
4.6886506 0.91562831 -1.6434363 6
1.6901696 0.33006665 -0.80273432 3
5.9100189 1.1135054 1.5875081 19
5.2604184 0.99111426 1.0344054 2
7.4004555 1.3943181 1.0535408 15
13.714211 2.5838912 1.2116224 28
13.759397 2.5924048 0.72030997 30
13.781539 2.5965765 0.47331077 29
13.761611 1.567938 0.38519007 38
13.688901 3.6244318 0.31046894 51
13.767963 2.5940189 0.22449236 27
13.774174 1.5693692 0.14034161 43
13.703668 3.6283417 0.059874948 47
10.88448 2.0507424 -0.018364694 3
13.786411 1.5707636 -0.10462159 41
11.200986 2.9657028 -0.15572685 0
10.395126 1.9585434 -0.20458591 0
13.774467 1.5694026 -0.34995598 35
10.033243 2.6565177 -0.32308984 0
10.114964 1.905758 -0.38156205 0
13.78204 1.5702654 -0.59592777 40
9.6438093 2.5534065 -0.48704094 2
9.6161442 1.8117754 -0.53595001 16
13.79723 1.5719961 -0.84203649 46
9.1864347 2.432307 -0.63235354 16
9.2525158 1.7432644 -0.68233091 22
13.808074 1.5732317 -1.0888689 41
8.950779 2.3699119 -0.77995855 27
9.2353878 1.7400373 -0.84733611 15
13.790908 1.5712758 -1.3330817 13
8.851532 2.3436341 -0.9334783 32
9.0435114 1.7038859 -0.99257523 55
9.0484734 1.7048208 -1.1563431 12
9.8872862 1.8628613 -1.4416033 2
9.0150213 1.698518 -1.4784114 3
8.2728662 1.5586889 -1.5056138 4
7.6328983 1.4381126 -1.5276642 5
7.0989347 1.3375087 -1.5487881 5
6.6165547 1.2466235 -1.5629711 9
6.2277088 1.1733612 -1.582999 7
4.6983376 0.88521266 -1.6447375 6
1.6460054 0.3101235 -0.7807647 3
5.9024262 1.0694604 1.5834244 18
5.2594805 0.95296502 1.0328876 2
7.3983154 1.3405005 1.0518782 11
13.724072 2.4866641 1.2109303 35
13.749644 2.4912975 0.71887141 27
13.771793 2.4953108 0.4723663 32
13.768247 1.4714007 0.38507885 39
13.694506 3.5237961 0.31003055 64
13.762125 2.4935589 0.22410785 27
13.772863 1.4718941 0.14022014 44
13.697674 3.5246112 0.059739791 38
10.906403 1.9761306 -0.01837796 4
13.781133 1.4727778 -0.10450096 37
10.431231 2.6841083 -0.14476094 0
10.345583 1.8745158 -0.20334834 0
13.785088 1.4732006 -0.34995598 38
10.070905 2.5913908 -0.32371211 0
10.151621 1.8393719 -0.38245115 0
13.800613 1.4748597 -0.59627116 43
9.6459227 2.4820368 -0.48626074 1
9.6521378 1.7488705 -0.5372625 12
13.799928 1.4747865 -0.84155232 41
9.1800003 2.362148 -0.63076007 17
9.2762375 1.6807611 -0.68319827 12
13.806826 1.4755236 -1.0879315 36
8.9593859 2.3053806 -0.77928704 26
9.1767502 1.662735 -0.84087068 11
12.665269 1.3535265 -1.22333 0
8.8599691 2.2797995 -0.93266696 35
9.066926 1.642836 -0.99386203 41
9.0718699 1.6437318 -1.1578383 32
9.9039459 1.7944956 -1.4421706 2
9.0305452 1.6362442 -1.4790479 3
8.2951698 1.5030016 -1.5077264 4
7.6620612 1.3882886 -1.5315238 5
7.1042504 1.2872189 -1.5479496 5
6.6327643 1.2017903 -1.5647801 6
6.2281113 1.1284713 -1.5810603 7
4.7155681 0.85441363 -1.6486411 6
1.673102 0.30314928 -0.79259449 3
5.9021282 1.0269024 1.5813826 19
5.3124356 0.92430276 1.0419946 1
7.4035912 1.2881397 1.051324 12
13.737172 2.39011 1.2105844 33
13.739153 2.3904548 0.71743286 32
13.761309 2.3943095 0.47142184 33
13.762267 1.3736575 0.38463408 35
13.75369 3.4368298 0.31081966 54
13.767378 2.3953655 0.22391559 27
13.774843 1.3749126 0.14013916 41
13.787918 3.4453826 0.060027003 26
10.931755 1.9019997 -0.018397857 3
13.783118 1.3757386 -0.10444064 39
10.410913 2.6015224 -0.14422339 0
10.397819 1.8091009 -0.20412183 0
13.783099 1.3757367 -0.34965315 37
10.049963 2.5113268 -0.32246757 0
10.219349 1.7780491 -0.38452566 0
13.782738 1.3757006 -0.59506935 43
9.6591406 2.4136665 -0.48606569 1
9.6326332 1.6759675 -0.53551245 11
13.790023 1.3764278 -0.84034175 38
9.1769075 2.293164 -0.62943214 17
9.3427725 1.625535 -0.68724602 5
13.812821 1.3787034 -1.0876191 36
8.9713955 2.2418098 -0.77895129 25
9.2038345 1.6013613 -0.84230745 7
13.803576 1.3777807 -1.3323169 16
8.8756695 2.2178895 -0.93266696 35
9.1408634 1.5904051 -1.0007252 37
9.1261349 1.5878425 -1.163321 39
9.9357367 1.728704 -1.4450073 2
9.0650911 1.5772216 -1.4828664 2
8.3015814 1.4443797 -1.5070223 4
7.6870337 1.3374554 -1.5346116 4
7.1246233 1.2396026 -1.5504651 5
6.6409926 1.1554563 -1.5647801 8
6.2473078 1.0869597 -1.5839684 7
4.7139654 0.82017577 -1.6460387 6
1.6751777 0.29146165 -0.79259449 4
5.920598 0.98758179 1.5844454 20
8.6812372 1.4480686 1.7007354 23
7.4084959 1.2357697 1.0507698 15
13.737801 2.2915256 1.2092005 33
13.747625 2.2931645 0.71702182 27
13.769802 2.2968636 0.47115198 33
13.755597 1.276068 0.38418928 32
13.773462 3.3397863 0.31073198 71
13.76404 2.2959025 0.22359516 22
13.772158 1.2776042 0.14001769 35
13.772761 3.3396165 0.059858054 14
10.976332 1.8309004 -0.018450914 2
13.78442 1.2787417 -0.10438032 45
13.02145 3.1574388 -0.18007766 0
10.418084 1.7377824 -0.20427652 0
7.9831686 0.74057603 -0.20238297 4
10.082791 2.4448733 -0.32296538 0
7.978353 0.74012929 -0.34423369 1
9.660224 2.3424091 -0.48528549 1
9.6913738 1.6165638 -0.53813756 25
13.791345 1.2793841 -0.83985758 42
9.1771765 2.22528 -0.62836981 19
9.4522724 1.5766805 -0.6944741 15
13.810198 1.2811331 -1.0866817 38
8.9713326 2.1753671 -0.77760828 26
9.2344379 1.5403448 -0.8441034 16
13.80493 1.2806444 -1.3315521 22
8.8832026 2.1539972 -0.93185556 37
9.3125753 1.5533786 -1.0183119 11
9.1839752 1.5319275 -1.1693021 41
9.4749861 1.5804694 -1.3763595 3
9.0836716 1.5151963 -1.4841392 2
8.295927 1.3837972 -1.5042053 4
7.6806979 1.2811742 -1.5315238 5
7.1292458 1.1891896 -1.5496266 5
6.6450543 1.1084243 -1.5638757 7
6.2623997 1.0445958 -1.5859072 6
4.7195764 0.78724611 -1.6460387 6
1.6878998 0.28154913 -0.7976644 5
5.9235291 0.9456144 1.5834244 20
8.6756229 1.3849504 1.6976998 23
7.4012952 1.1815206 1.048553 14
13.741658 2.1936769 1.2081625 33
13.739633 2.1933537 0.71578878 34
13.765763 2.197525 0.47047737 35
13.740268 1.1779571 0.38352209 40
13.761405 3.235311 0.30994287 61
13.763935 2.1972332 0.22333881 25
13.776756 1.1810852 0.13997719 45
11.167423 2.6254652 0.048454106 1
11.028346 1.760532 -0.018517237 3
13.793012 1.1824788 -0.10438032 39
10.586387 2.488863 -0.14615855 0
10.433911 1.6656383 -0.20435387 0
7.9283829 0.67970252 -0.20086887 34
10.099614 2.3744228 -0.32296538 0
10.128707 1.6169164 -0.38022846 1
7.9076729 0.67792708 -0.34097165 28
9.672452 2.2739968 -0.48509043 1
9.7931376 1.5633471 -0.5431689 24
7.824872 0.67082852 -0.4762179 28
9.2002583 2.1629839 -0.628901 20
9.5024452 1.5169419 -0.69736534 19
13.806885 1.1836683 -1.0857444 47
8.9746599 2.1099455 -0.77660102 28
9.3039761 1.4852588 -0.8494913 36
13.813534 1.1842382 -1.3315521 22
8.890276 2.090107 -0.93104422 40
9.2485771 1.476415 -1.0101619 47
9.2297182 1.4734045 -1.173788 25
9.4818792 1.5136588 -1.3757921 3
9.0823298 1.4498758 -1.4822299 3
8.3326035 1.3301919 -1.5091349 3
7.6972065 1.2287589 -1.5330677 5
7.1412363 1.1400056 -1.5504651 5
6.6603255 1.0632344 -1.5656847 6
6.2657075 1.0002388 -1.5849378 7
4.7286921 0.75487423 -1.6473399 6
1.711305 0.27318761 -0.80780417 6
5.9341254 0.90274984 1.5844454 18
8.6971893 1.3230908 1.6999766 25
7.3980083 1.1254482 1.0468904 15
13.725851 2.0880938 1.2053947 34
13.739544 2.0901768 0.71496671 32
13.773598 2.0953574 0.47020751 35
13.756506 1.0778291 0.38374448 42
13.761355 3.1290283 0.3094168 89
13.763856 2.0938754 0.22308248 23
13.769094 1.0788153 0.13981523 43
11.108362 2.5257962 0.048116211 1
11.381042 1.7313813 -0.019087609 1
7.9474168 0.62268406 -0.0601069 28
10.604346 2.4111943 -0.14615855 0
10.485378 1.5951253 -0.20512736 9
7.9530845 0.62312818 -0.20137356 36
10.069966 2.2896879 -0.3214719 0
10.195612 1.5510436 -0.38230297 7
7.9602389 0.6236887 -0.34303188 33
9.6966534 2.2048049 -0.48548052 1
9.9780712 1.5179495 -0.5527941 9
7.7061849 0.60378343 -0.46871266 17
9.2119751 2.0945997 -0.62863541 21
9.6355791 1.4658467 -0.70632815 12
7.9074578 0.61955327 -0.62145197 21
8.9898863 2.0441015 -0.77660102 27
9.3697529 1.4254069 -0.85452002 34
7.7326107 0.60585392 -0.74493498 22
8.9092388 2.0257642 -0.93144989 41
9.3456478 1.4217398 -1.0195987 25
9.4953098 1.4445077 -1.2061855 5
9.5318651 1.4500688 -1.3814656 3
9.0966177 1.3838553 -1.4828664 3
8.3499165 1.2702606 -1.5105433 3
7.7215281 1.1746649 -1.5361555 5
7.1455345 1.0870398 -1.5496266 5
6.6563845 1.0126261 -1.5629711 8
6.2805448 0.95545018 -1.5868765 7
4.7266202 0.71905386 -1.6447375 6
1.7096775 0.26009074 -0.8061142 6
5.9326277 0.86018991 1.5824035 20
8.6906681 1.2600867 1.6969409 26
7.3978438 1.0726361 1.045782 15
13.740094 1.9922185 1.2053947 35
13.745893 1.9930594 0.71455568 28
13.776021 1.9974276 0.46980277 36
13.759706 0.98147976 0.38363329 40
13.759431 3.027725 0.30889073 63
13.766263 1.9960128 0.22289021 23
13.7723 0.98237807 0.13977474 43
11.121818 2.4473255 0.048099317 1
13.775928 1.9974142 -0.023080222 31
7.9595499 0.56775463 -0.060167216 34
10.484204 2.3070202 -0.14427714 0
11.184928 1.621737 -0.21858594 0
7.9053893 0.56389141 -0.20006137 38
10.058372 2.2133172 -0.32060069 0
10.269485 1.4890043 -0.38467383 21
7.9643993 0.56810057 -0.34303188 29
9.6922998 2.1327639 -0.48450527 0
10.213729 1.4809198 -0.56526315 5
7.7261424 0.55110574 -0.46968108 10
9.2302713 2.0310957 -0.628901 19
10.150953 1.4718179 -0.7433359 3
7.7206616 0.55071479 -0.60645461 25
9.0039368 1.9812915 -0.77660102 28
9.7224827 1.4096926 -0.88576978 4
7.7326803 0.55157208 -0.74455255 53
8.9192781 1.9626626 -0.93104422 45
9.9299698 1.4397768 -1.0822244 8
9.9450712 1.4419665 -1.2620089 2
10.015905 1.4522369 -1.4501133 2
9.1138725 1.3214484 -1.4841392 3
8.3468895 1.2102412 -1.5084307 4
7.7334242 1.1212929 -1.5369275 5
7.1606908 1.0382506 -1.5513036 5
6.6671476 0.96669024 -1.5638757 12
6.271699 0.9093529 -1.582999 8
4.7352681 0.68658108 -1.6460387 6
1.6899238 0.24502723 -0.79597443 6
5.9346571 0.81822389 1.5813826 19
8.6798 1.1967027 1.6931463 21
7.4090762 1.0215052 1.0463362 14
13.729981 1.8929821 1.2033188 36
13.751558 1.895957 0.71414471 32
13.773788 1.8990219 0.46926305 33
13.758243 0.88488334 0.38341087 41
13.77241 2.9299278 0.30871537 70
13.779862 1.8998592 0.22289021 25
13.778823 0.88620698 0.13977474 44
11.115158 2.3646269 0.047997948 1
13.781611 1.9001005 -0.023066958 32
7.971303 0.51268709 -0.060227536 34
10.449198 2.2229512 -0.14357834 0
11.564422 1.5944117 -0.22577931 0
7.9011526 0.50817525 -0.19985949 40
10.097043 2.1480343 -0.32134745 0
10.31131 1.4216424 -0.38585928 33
7.880434 0.50684267 -0.33925477 35
9.7147684 2.0667095 -0.48489538 0
10.718391 1.4777677 -0.59260756 5
7.7138638 0.49612945 -0.46871266 6
9.2598429 1.969929 -0.62996334 21
10.662904 1.4701176 -0.78005457 3
7.7163596 0.49628997 -0.60582972 20
9.0253468 1.9200426 -0.77727252 27
10.280652 1.4174156 -0.93569762 2
7.720449 0.49655297 -0.74302292 55
8.9444399 1.9028306 -0.93226129 44
10.672557 1.4714484 -1.1620079 3
11.134386 1.5351218 -1.4115361 1
10.021877 1.3817377 -1.449546 2
9.1111403 1.2561725 -1.4822299 3
8.3278313 1.1481761 -1.5035012 4
7.7060714 1.0624527 -1.5299799 4
7.1755133 0.98930347 -1.5529808 5
6.6814532 0.92118639 -1.5656847 10
6.2894282 0.86713696 -1.5859072 7
4.7361989 0.65298992 -1.6447375 6
1.6987761 0.23421392 -0.79935437 4
5.9361186 0.77834284 1.5803617 16
8.6680765 1.1365566 1.6893517 20
7.3960495 0.96976864 1.0435652 16
13.742234 1.8018793 1.2033188 32
13.755909 1.8036722 0.71373367 31
13.758334 1.8039902 0.46831861 33
7.927762 0.45711237 0.22083934 1
13.76412 2.8328793 0.30810162 54
13.768367 1.8053057 0.2225057 24
7.9144483 0.45634469 0.08025305 10
11.126678 2.290051 0.047981054 1
13.774081 1.8060549 -0.023033798 27
7.9585543 0.45888785 -0.0601069 38
10.463711 2.1536014 -0.14357834 0
12.209191 1.6008669 -0.23815502 2
7.912333 0.45622274 -0.20006137 35
10.118898 2.0826335 -0.32159635 0
11.55707 1.515361 -0.43209127 4
7.8955908 0.45525739 -0.33976981 46
9.7360878 2.003845 -0.48528549 0
11.270493 1.477785 -0.62257701 3
7.7090125 0.44449934 -0.46822846 9
9.2727032 1.9084729 -0.62996334 25
11.293462 1.4807967 -0.8254469 1
7.7115188 0.44464383 -0.60520482 20
9.0456905 1.8617499 -0.77794403 25
11.143033 1.4610724 -1.0132833 1
7.7315226 0.44579726 -0.74378771 22
8.9724522 1.8466763 -0.93388402 46
12.2909 1.6115806 -1.3370168 3
11.128582 1.4591776 -1.4095423 2
10.042598 1.3167835 -1.4512479 2
9.1271029 1.1967441 -1.4835029 3
8.3704004 1.0975254 -1.5098391 5
7.7635379 1.0179536 -1.5400152 5
7.1664052 0.93965775 -1.5496266 4
6.7067327 0.87938559 -1.5702071 6
6.291193 0.82490003 -1.5849378 7
4.7441759 0.62205547 -1.6460387 6
1.6787239 0.22011398 -0.78921455 3
5.9375696 0.73640662 1.5793408 19
8.6641064 1.0745652 1.6870749 27
7.4026394 0.91811174 1.0435652 16
13.73866 1.7039362 1.2019349 33
13.744379 1.7046455 0.71250063 28
13.770593 1.7078967 0.46831861 34
7.8828402 0.39932749 0.21950495 1
13.763949 2.7328265 0.30766323 43
13.768726 1.7076652 0.22231345 26
7.8814888 0.39925903 0.079888634 32
11.150241 2.2138755 0.048014842 1
13.774446 1.7083745 -0.023013901 31
7.9735489 0.40392259 -0.060197376 36
10.454952 2.0758264 -0.1432558 0
13.783794 1.709534 -0.26863021 40
7.9233127 0.40137774 -0.20026323 36
10.125349 2.0103838 -0.32134745 0
12.015623 1.4902366 -0.44883552 3
7.8945856 0.39992249 -0.33959815 46
9.7537594 1.9366047 -0.48548052 0
12.061373 1.4959108 -0.66567177 2
7.739841 0.39208347 -0.4699232 50
9.3014603 1.8468009 -0.63102567 21
12.241856 1.5182952 -0.89396912 12
7.7263827 0.39140171 -0.60614216 45
9.2578554 1.8381433 -0.79506755 1
11.829019 1.4670931 -1.0747052 5
7.7066102 0.39040008 -0.74111086 4
8.9968357 1.7863179 -0.93510103 44
12.282118 1.5232886 -1.3348721 3
11.150314 1.3829168 -1.4110377 2
10.063334 1.2481042 -1.45295 2
9.1352348 1.1329968 -1.4835029 3
8.373951 1.0385785 -1.5091349 4
7.7587709 0.96228093 -1.5376993 5
7.1650281 0.88864201 -1.5479496 5
6.689508 0.82966572 -1.5647801 7
6.3006496 0.78143758 -1.5859072 7
4.7521563 0.58938581 -1.6473399 6
1.6766219 0.20794289 -0.78752458 3
5.9428082 0.69286239 1.5793408 19
8.6756516 1.0114801 1.6878339 27
7.4013004 0.86290562 1.0424567 16
13.746823 1.6027198 1.2015889 31
13.732698 1.601073 0.71126753 28
13.766858 1.6050557 0.46777889 37
7.861587 0.34049469 0.21883777 1
13.7679 2.6288581 0.30731252 51
13.761012 1.6043741 0.22199301 23
7.9161725 0.34285885 0.080212563 24
11.177957 2.1343315 0.048065528 1
13.79057 1.6078203 -0.023020532 32
8.0002718 0.34650129 -0.060378328 27
10.446316 1.9946312 -0.14293328 0
13.772121 1.6056693 -0.26816612 47
7.930037 0.34345931 -0.20036417 34
10.151594 1.9383568 -0.32172081 0
13.781123 1.6067188 -0.51433086 48
7.8933125 0.34186873 -0.33942646 37
9.7637672 1.8643048 -0.48528549 0
13.781853 1.6068039 -0.75995523 43
7.7225623 0.33447334 -0.46871266 54
9.2990665 1.7755742 -0.62996334 16
13.80207 1.6091609 -1.0070163 44
7.7290444 0.33475411 -0.60614216 65
9.1810322 1.7530365 -0.78734517 19
12.626905 1.4721504 -1.1461847 7
7.7013092 0.33355284 -0.74034601 5
9.0214138 1.722559 -0.9363181 62
12.573417 1.4659142 -1.3653271 10
11.160151 1.3011439 -1.4110377 2
10.048615 1.1715518 -1.449546 2
9.1432943 1.0660019 -1.4835029 5
8.3813381 0.97716665 -1.5091349 4
7.7539206 0.90401703 -1.5353836 4
7.1830034 0.83745474 -1.5504651 5
6.6992798 0.78105819 -1.5656847 12
6.3100634 0.73568004 -1.5868765 7
4.7601061 0.55497307 -1.6486411 6
1.6781011 0.19564708 -0.78752458 3
5.959034 0.65262067 1.5824035 18
8.6825018 0.95088905 1.6878339 26
7.3992691 0.81035215 1.0413483 18
13.733909 1.5041084 1.1995131 31
13.739571 1.5047284 0.71106201 28
13.761832 1.5071665 0.4672392 34
7.9516811 0.2887958 0.22128412 2
13.766251 2.5290632 0.30687413 52
13.771877 1.5082667 0.22199301 23
13.77821 0.50040853 0.13957228 41
11.247663 2.0663612 0.048302054 1
13.785555 1.5097646 -0.022994004 33
8.0264797 0.2915124 -0.060559284 24
10.507192 1.9303259 -0.14357834 0
13.77902 1.5090488 -0.26808876 45
7.9761987 0.28968626 -0.2014745 30
10.14915 1.8645483 -0.32122299 0
13.799952 1.5113413 -0.51462722 50
7.9394369 0.28835112 -0.341315 35
9.7726164 1.7953736 -0.48509043 0
13.800675 1.5114205 -0.76039273 42
7.7286997 0.28069738 -0.46895477 48
9.3073101 1.70989 -0.62969774 38
13.80107 1.5114638 -1.0061489 43
7.7232227 0.28049847 -0.60551727 39
9.2283297 1.6953801 -0.79036695 3
13.832844 1.5149436 -1.254661 36
7.7153873 0.28021389 -0.74149328 58
9.0880146 1.6696023 -0.94199771 41
12.630784 1.3832965 -1.3704745 8
11.184745 1.2249293 -1.4130313 2
10.068357 1.1026651 -1.4512479 5
9.1662159 1.0038644 -1.4860486 5
8.3879566 0.91863108 -1.5091349 3
7.7717476 0.85114521 -1.5376993 5
7.2081141 0.78941733 -1.5546578 5
6.7006965 0.73384601 -1.5647801 8
6.3073301 0.69076532 -1.5849378 7
4.7601047 0.52131647 -1.6473399 6
1.6974456 0.18590063 -0.79597443 6
5.9634452 0.61100286 1.5824035 21
8.6850214 0.88985032 1.6870749 27
7.4047461 0.75867575 1.0413483 18
13.752004 1.4090034 1.200205 30
13.757689 1.4095858 0.71147305 30
13.760089 1.4098318 0.46683446 34
13.744773 0.403133 0.38241011 40
13.763881 2.4294209 0.30643573 56
13.774114 1.4112687 0.22186485 25
13.789363 0.40444082 0.13965327 47
11.301206 1.9947417 0.048471 0
13.783821 1.4122633 -0.022974107 28
8.0802946 0.23699436 -0.060951352 7
10.512534 1.8555356 -0.14347082 0
13.781262 1.4120011 -0.26793408 45
7.9980111 0.23458098 -0.20197921 28
10.185543 1.7978195 -0.32196972 0
13.80619 1.4145553 -0.51447904 50
8.0451164 0.23596258 -0.34577888 35
9.8006496 1.7298831 -0.48587063 1
13.798971 1.4138155 -0.75973648 44
7.7065248 0.22603171 -0.46750215 16
9.3779764 1.6552782 -0.63368148 24
13.803349 1.4142641 -1.0055708 43
7.7170205 0.22633955 -0.60489237 21
9.3105946 1.6433849 -0.79641056 32
13.835156 1.417523 -1.2539425 38
7.7171555 0.22634351 -0.74149328 57
9.1386375 1.6130333 -0.94605452 37
12.624309 1.2934619 -1.3687587 8
11.165386 1.1439836 -1.4095423 4
10.099444 1.0347693 -1.454652 4
9.165144 0.93904269 -1.4847757 3
8.394165 0.86004972 -1.5091349 4
7.7892132 0.79806751 -1.5400152 5
7.2212319 0.73987323 -1.556335 5
6.7095323 0.68744558 -1.5656847 8
6.3158593 0.64711058 -1.5859072 7
4.7673912 0.48845756 -1.6486411 6
1.6842757 0.17256759 -0.78921455 7
5.982965 0.57082462 1.5864872 21
8.6871128 0.82882273 1.686316 27
7.4019752 0.70620996 1.0402399 19
13.737703 1.310691 1.1981291 29
13.755263 1.3123665 0.71085656 29
13.765616 1.3133543 0.46669951 33
13.759245 0.30743617 0.38274369 39
13.764734 2.3306012 0.30608502 50
13.771687 1.3139334 0.22167259 27
13.783854 0.30798602 0.13957228 58
11.338518 1.9198021 0.048572369 0
13.777417 1.3144801 -0.022947578 30
13.788167 0.3080824 -0.10398825 43
10.552837 1.7867731 -0.14384711 0
13.790784 1.3157554 -0.26793408 46
8.0674162 0.18025811 -0.20369516 11
10.174193 1.7226624 -0.32122299 0
13.807771 1.3173761 -0.51418269 49
7.9946289 0.17863175 -0.34354696 40
9.7888527 1.6574177 -0.48470032 1
13.800553 1.3166875 -0.75929892 40
7.7079153 0.17222543 -0.46750215 20
9.4050446 1.5924325 -0.63474381 12
13.804943 1.3171062 -1.0049925 44
7.7223997 0.17254908 -0.60520482 11
9.3021898 1.5750175 -0.7947318 20
13.824886 1.3190091 -1.2521466 32
7.7185478 0.17246301 -0.74149328 62
9.2006807 1.5578303 -0.9513284 26
12.629071 1.2049184 -1.3683298 8
11.181002 1.0667604 -1.4105393 4
10.074889 0.96122813 -1.4501133 2
9.1675444 0.87465996 -1.4841392 3
8.4078045 0.80217439 -1.5105433 4
7.7945948 0.74366909 -1.5400152 4
7.2262211 0.6894415 -1.556335 5
6.7258043 0.64169765 -1.5683981 13
6.3163595 0.60263324 -1.5849378 7
4.7669191 0.45480371 -1.6473399 6
1.6962667 0.16183794 -0.79428446 7
5.9866195 0.53113204 1.5864872 19
8.6767712 0.76980197 1.6832803 26
7.4143877 0.65780348 1.0413483 20
13.726247 1.2177907 1.1963992 38
13.759686 1.2207575 0.71065104 30
13.762077 1.2209697 0.46629474 37
13.756983 0.21611145 0.38263249 40
13.768046 2.2373359 0.30582199 79
13.776114 1.2222149 0.2216085 24
13.785592 0.21656089 0.13957228 56
13.771233 2.2378538 0.058928844 33
13.789816 1.2234306 -0.022954211 29
13.801905 0.21681714 -0.10407873 45
10.564455 1.7167457 -0.14384711 0
13.77929 1.2224966 -0.26754734 46
13.805898 0.21687986 -0.34854281 36
10.232752 1.6628432 -0.32271647 3
7.9672117 0.70684993 -0.29650706 43
8.0276031 0.12610738 -0.34492046 22
9.8114595 1.5943824 -0.48528549 8
7.8493581 0.69639397 -0.43160382 22
7.7168722 0.12122604 -0.46798635 34
9.4823704 1.5409046 -0.63925874 1
13.801453 1.224463 -1.0041251 45
7.7313485 0.12145345 -0.60582972 66
9.3399725 1.5177647 -0.79708207 26
13.829362 1.2269391 -1.2517874 37
7.7115588 0.12114257 -0.74072844 13
9.277585 1.5076265 -0.95822501 39
12.632823 1.1207824 -1.3679007 6
11.235271 0.99679172 -1.4165204 2
10.092875 0.89543843 -1.4518154 3
9.1613436 0.8127932 -1.4822299 3
8.3933296 0.74465501 -1.5070223 5
7.7837181 0.69057041 -1.5369275 5
7.2267389 0.64115524 -1.5554963 5
6.7337937 0.59742129 -1.5693027 7
6.327949 0.56141478 -1.5868765 7
4.7735987 0.42351303 -1.6486411 6
1.6900802 0.14994368 -0.79090452 7
