# .PCD v0.7 - Point Cloud Data file format
VERSION 0.7
FIELDS x y z intensity
SIZE 4 4 4 4
TYPE F F F F
COUNT 1 1 1 1
WIDTH 1365
HEIGHT 1
VIEWPOINT 0 0 0 1 0 0 0
POINTS 1365
DATA ascii
-18.335823 -0.64350116 -0.57113224 35
-18.350458 0.68891907 -0.68073636 49
-18.338846 2.0311079 -0.79268181 42
-18.310904 -0.64262658 -0.89450127 21
-18.351547 0.6889599 -1.0058359 43
-18.353855 2.0327702 -1.1197294 50
-8.1409721 -0.28570983 -0.54205531 1
-18.319019 0.68773872 -1.3285214 41
-18.331387 2.0302818 -1.4450555 40
-7.6880221 -0.26981342 -0.64800692 47
-7.759038 0.2912924 -0.70006704 27
-18.319174 2.0289292 -1.7701765 39
-7.5839977 -0.26616263 -0.7736389 0
-7.6541839 0.28735593 -0.82614517 1
-7.5592556 0.28379211 -0.9499957 35
-7.5218277 0.28238696 -1.0785075 15
-7.4505501 0.27971104 -1.2015673 189
-7.4248729 0.27874705 -1.3288556 35
-7.4126635 0.27828869 -1.4589617 37
-7.3985348 0.27775827 -1.587361 32
-7.549789 0.28343669 -1.7538201 4
-7.5582767 0.28375536 -1.8893234 4
-5.6847816 0.21341997 -1.9570295 7
-1.5868366 0.05957355 -0.74020553 12
-2.0786681 0.092574514 0.54924715 14
-5.3045135 0.23623912 1.0260572 35
-6.4174738 0.28580537 0.55771995 4
-9.2745304 0.41304579 0.47760352 1
-18.363333 0.81782013 0.62037712 27
-13.493404 1.5898871 0.37785098 1
-11.524678 -0.32392871 0.25277659 2
-15.262911 0.67974126 0.24480754 21
-15.225886 1.7940203 0.15520179 20
-15.045923 -0.42290178 0.063574895 4
-18.341793 0.81686085 -0.030442018 23
-18.368406 2.164294 -0.13945524 37
-18.339102 -0.51546443 -0.246572 27
-18.34638 0.81706512 -0.3551828 46
-18.382936 2.1660061 -0.46724725 36
-18.347862 -0.51571071 -0.57138115 37
-18.333223 0.81647915 -0.68029183 45
-18.340096 2.1609583 -0.79336858 45
-18.306959 -0.514561 -0.89411116 46
-18.32634 0.81617266 -1.0047421 44
-18.351112 2.1622565 -1.1204557 52
-8.3901253 -0.23582458 -0.55852145 2
-18.325729 0.81614542 -1.3293887 45
-18.32865 2.1596096 -1.4459928 38
-7.6817503 -0.21591403 -0.64733541 45
-18.319458 0.81586611 -1.6533651 28
-18.300608 2.1563056 -1.7697941 36
-7.5458932 -0.21209544 -0.76958209 0
-7.695694 0.34273154 -0.83086354 16
-7.5808802 0.33761823 -0.95298624 22
-7.5275846 0.33524469 -1.0796423 5
-7.554935 0.33646277 -1.2187507 57
-7.4266801 0.33075088 -1.3295598 34
-7.4379869 0.33125442 -1.4643654 77
-7.4120445 0.33009908 -1.5907152 30
-7.4503131 0.33180338 -1.7312076 16
-7.5522351 0.33634254 -1.8883541 6
-5.6718173 0.25259718 -1.9531257 6
-1.5718946 0.070005104 -0.73344564 12
-2.0509343 0.10568983 0.54210085 15
-3.5887589 0.18493782 0.69441009 38
-3.5961599 0.18531922 0.50377101 20
-6.4033833 0.32998252 0.55668199 5
-14.800761 0.76272064 0.76243937 5
-14.740037 0.75959134 0.49813664 32
-13.454203 1.680581 0.3770726 2
-13.353811 -0.28205612 0.29284558 3
-14.758519 0.76054376 0.23679683 13
-15.224897 1.9017607 0.15532327 26
-18.355743 -0.38770577 0.077546842 36
-18.359612 0.94611722 -0.030481812 21
-18.380634 2.2959476 -0.13966636 38
-18.346252 -0.38750529 -0.24662575 39
-18.340229 0.94511831 -0.3551828 41
-18.383238 2.296273 -0.46765101 37
-18.339025 -0.38735265 -0.57100779 36
-18.351027 0.94567478 -0.68118089 48
-18.344389 2.2914205 -0.794227 43
-18.310104 -0.38674179 -0.89411116 46
-18.332161 0.94470263 -1.0053984 44
-18.347456 2.2918034 -1.121182 55
-8.3995476 -0.1774133 -0.55905259 2
-18.319584 0.94405448 -1.3293887 38
-18.344782 2.2914693 -1.4484923 37
-7.6711154 -0.16202752 -0.64632815 28
-18.30138 0.94311637 -1.6522875 48
-10.035475 1.2535435 -0.97132176 10
-7.5869746 -0.16025034 -0.7736389 0
-9.6670303 0.49816653 -1.0440484 2
-7.6813908 0.39584148 -0.96594524 6
-7.4973803 0.38635895 -1.075671 9
-7.4971886 0.38634908 -1.2098408 3
-7.4320545 0.38299257 -1.3309683 34
-7.4433322 0.38357371 -1.4659091 144
-7.4290886 0.38283971 -1.5949079 255
-7.4750533 0.3852084 -1.7375392 12
-7.5342007 0.3882564 -1.8844765 6
-5.6774707 0.29257441 -1.9557282 4
-1.5786089 0.081349708 -0.73682559 12
-2.0462859 0.11977948 0.54107994 15
-3.6148248 0.21159403 0.69972247 5
-3.6026878 0.21088359 0.50487942 2
-6.4049015 0.37491137 0.557028 5
-9.3157129 0.54529595 0.48006964 1
-18.378059 1.075761 0.62132156 38
-13.457998 1.7765611 0.3775174 2
-13.391442 -0.18933088 0.29363468 4
-16.693279 0.97714227 0.26794249 7
-15.239008 2.0116682 0.1556067 21
-18.389997 -0.26000145 0.077682003 50
-18.360548 1.0747359 -0.030495076 32
-18.380018 2.4263062 -0.13978699 34
-18.344511 -0.25935835 -0.246572 34
-18.349154 1.0740689 -0.3554922 44
-18.374689 2.4256027 -0.46785289 38
-18.333286 -0.25919965 -0.57075888 37
-18.347969 1.0739996 -0.68132907 48
-18.33983 2.4210012 -0.79474205 47
-18.312357 -0.25890374 -0.89411116 46
-18.349043 1.0740625 -1.006711 41
-18.350801 2.4224496 -1.1223925 49
-8.3965902 -0.11871266 -0.55878705 2
-18.328476 1.0728587 -1.3305453 35
-18.332289 2.4200058 -1.4488047 40
-7.6680737 -0.10841275 -0.6459924 38
-18.298325 1.0710938 -1.6526467 46
-7.5839295 -0.1072231 -0.77323323 0
-9.6077356 0.56238949 -1.0380433 0
-18.288792 1.0705357 -2.300724 47
-7.7158566 0.45164821 -1.1074418 3
-7.5455585 0.44167981 -1.2181143 26
-7.4645767 0.43693951 -1.3373061 35
-7.4404726 0.43552861 -1.4659091 31
-7.4496622 0.43606648 -1.5999391 25
-7.5305281 0.44079998 -1.7511066 4
-7.5390549 0.44129908 -1.8864152 5
-5.6601853 0.33131936 -1.9505234 4
-1.5924797 0.093215905 -0.74358547 11
-2.0685551 0.13558 0.54720533 15
-5.3219166 0.34881619 1.0306108 22
-5.7752447 0.3785288 0.80969131 0
-6.3941751 0.41909558 0.55633599 6
-9.3515415 0.61293125 0.48212472 1
-13.479386 0.88348401 0.45590565 4
-13.472991 1.8743227 0.37829578 3
-10.901101 -0.078008339 0.23901111 6
-13.86846 0.90898514 0.22269796 6
-15.240439 2.1202049 0.15576866 17
-15.055479 -0.10773709 0.063591793 5
-18.320663 1.2007976 -0.030442018 9
-18.378481 2.5567598 -0.13990763 37
-18.35387 -0.1313404 -0.24667951 33
-18.337219 1.2018826 -0.35541487 43
-18.37711 2.5565691 -0.46835756 39
-18.322655 -0.13111702 -0.57038546 35
-18.35598 1.2031121 -0.68192178 52
-18.346233 2.5522738 -0.79577219 46
-18.321709 -0.13111025 -0.89450127 42
-18.325155 1.2010919 -1.0058359 44
-18.349262 2.552695 -1.123361 49
-8.4331331 -0.06034755 -0.56117725 2
-18.332483 1.2015722 -1.3314127 40
-18.330748 2.5501194 -1.4500545 35
-7.6726298 -0.054905381 -0.64632815 36
-18.31028 1.2001169 -1.6544427 48
-9.9736137 1.3874997 -0.96711522 0
-7.7357054 -0.055356752 -0.7886492 2
-9.6075439 0.6297105 -1.0384722 0
-18.272953 1.1976703 -2.2997272 66
-15.982134 1.0475224 -2.294878 1
-7.628984 0.50002909 -1.2321156 12
-7.5359974 0.49393442 -1.3506863 19
-7.4959974 0.49131268 -1.4774883 18
-7.5361996 0.49394768 -1.6192256 2
-7.5467081 0.49463645 -1.7556291 2
-7.5280457 0.49341324 -1.8844765 6
-5.6728325 0.37181637 -1.9557282 4
-1.5628484 0.10243431 -0.7300657 13
-2.0521286 0.14889842 0.5431217 17
-5.3036833 0.38482484 1.0275751 25
-5.6736856 0.41167146 0.79583627 3
-6.4149404 0.46545547 0.5584119 6
-9.3510189 0.67849153 0.48233023 1
-12.440194 0.90263605 0.42096055 19
-13.479359 1.9712291 0.37885177 3
-10.529469 -0.0018375027 0.23085701 5
-13.781996 0.99999452 0.22141625 12
-15.213393 2.2248151 0.15564719 26
-18.363836 -0.0032046817 0.07756374 39
-18.355719 1.3318549 -0.030514972 33
-18.387888 2.689055 -0.14011875 41
-18.342344 -0.003200931 -0.24651824 38
-18.340345 1.3307395 -0.35564691 46
-18.370684 2.6865392 -0.46866038 39
-18.347113 -0.0032017631 -0.57113224 39
-18.355104 1.3318104 -0.68221813 52
-18.343786 2.6826055 -0.7964589 66
-18.318182 -0.0031967144 -0.89430624 45
-18.340225 1.3307307 -1.0071485 45
-18.350748 2.6836236 -1.1245714 48
-8.4533052 -0.0014751903 -0.56250519 2
-18.331608 1.3301054 -1.3319908 41
-10.002625 1.4627897 -0.79204661 0
-7.6768122 -0.0013396841 -0.6466639 34
-18.309401 1.3284942 -1.655161 48
-9.8257923 1.4369295 -0.95373088 0
-7.7438626 -0.0013513851 -0.7894606 1
-9.5830803 0.69532949 -1.0363275 0
-18.27602 1.3260721 -2.3012226 73
-15.942838 1.156781 -2.2903395 1
-11.966171 0.86824185 -2.1457462 1
-10.64357 0.77227652 -2.0988979 2
-9.6234293 0.69825715 -2.0686843 2
-7.5275254 0.54618245 -1.7520111 0
-7.5282874 0.54623777 -1.8854458 7
-5.6663251 0.41113743 -1.954427 4
-1.580175 0.11465439 -0.73851556 13
-2.0433285 0.16260773 0.54107994 15
-5.3047824 0.42215365 1.028334 40
-5.595643 0.44530031 0.78530639 18
-6.4115348 0.51022881 0.5584119 6
-9.3540182 0.74439114 0.48274127 1
-12.44156 0.99009722 0.42123038 33
-13.457364 2.0640724 0.37862936 3
-13.412466 0.091298223 0.29407308 10
-13.778665 1.0965037 0.22148034 9
-15.217258 2.3340027 0.15584965 20
-18.37141 0.1250536 0.077597529 42
-18.381859 1.4628252 -0.030574663 35
-18.376574 2.818574 -0.14017905 42
-18.345919 0.12488008 -0.246572 32
-18.338581 1.4593811 -0.35580158 41
-18.383102 2.8195753 -0.46946791 40
-18.338692 0.12483089 -0.57088333 34
-18.353331 1.4605548 -0.68251449 49
-18.32461 2.8106041 -0.7964589 82
-18.301779 0.12457961 -0.89352602 43
-18.334469 1.4590539 -1.0073673 42
-18.347351 2.8140919 -1.1255399 49
-8.5010023 0.057866052 -0.56569219 2
-18.345736 1.4599506 -1.3337256 40
-9.6255922 1.4763604 -0.76298928 0
-7.6766343 0.052254602 -0.6466639 33
-18.299681 1.4562854 -1.655161 89
-9.2448521 1.4179629 -0.8982814 0
-7.7397041 0.052683916 -0.78905493 2
-18.287781 1.4553385 -1.9787163 48
-18.290056 1.4555194 -2.304213 38
-15.902797 1.2655418 -2.2858007 1
-13.616702 1.0836148 -2.2013884 2
-11.920567 0.94863665 -2.1387041 2
-10.62227 0.84531844 -2.0958102 2
-9.602725 0.76418322 -2.0653303 3
-8.7586775 0.69701409 -2.0396411 2
-7.5049477 0.59724241 -1.880599 8
-5.6708579 0.4512859 -1.9570295 5
-1.5974063 0.12712131 -0.74696535 11
-2.0459964 0.1772026 0.54210085 13
-5.3017058 0.45917773 1.028334 41
-5.6002917 0.48503807 0.7864148 20
-6.423697 0.55635273 0.5597958 6
-9.3724728 0.81174451 0.48397431 2
-12.442309 1.0776213 0.42150024 30
-13.47421 2.1630423 0.37951896 4
-11.908006 0.1642008 0.26110604 23
-13.790597 1.1943958 0.22180076 12
-15.224289 2.4439862 0.15609258 29
-15.514386 0.21392958 0.065534689 9
-18.375187 1.5914644 -0.030581295 33
-18.376196 2.9499681 -0.14032985 40
-18.364595 0.25323141 -0.24684078 29
-18.339901 1.5884084 -0.35603365 44
-18.374813 2.9497461 -0.46977073 38
-18.357361 0.25313166 -0.57150561 36
-18.342686 1.5886496 -0.68251449 48
-18.32427 2.9416325 -0.79731739 80
-18.308451 0.25245723 -0.89391613 43
-18.343731 1.5887402 -1.008461 43
-9.6977959 1.5568069 -0.59557498 2
-8.6201153 0.11886371 -0.57365966 2
-18.331121 1.587648 -1.3334365 39
-9.272501 1.4885334 -0.73580658 0
-7.6880388 0.10601121 -0.64767116 36
-18.312881 1.5860683 -1.6573162 54
-9.0067091 1.4458654 -0.87610161 0
-7.6476302 0.10545401 -0.77972418 0
-18.300949 1.5850348 -1.98129 47
-18.287357 1.5838577 -2.3052099 40
-15.901464 1.3772168 -2.2869353 1
-13.597002 1.1776286 -2.1994791 1
-11.905808 1.0311553 -2.1372955 3
-10.63175 0.92080981 -2.0988979 2
-9.604949 0.8318792 -2.0670073 3
-8.7497158 0.75780797 -2.0387368 2
-7.5276594 0.65196633 -1.8873847 8
-5.6524959 0.48955944 -1.9518245 5
-1.582032 0.13701889 -0.74020553 12
-2.0563288 0.19184612 0.54516351 12
-4.6455131 0.43340522 0.9015947 13
-5.6206169 0.524378 0.78974003 9
-6.4238334 0.59931445 0.5601418 4
-9.3867702 0.87574297 0.48500186 2
-12.446831 1.1612327 0.42190501 27
-13.483229 2.256319 0.38018614 3
-13.441966 0.27453065 0.2947745 5
-13.822194 1.2895478 0.22244161 12
-15.243249 2.5508454 0.15645701 25
-15.304671 0.31257346 0.064656161 2
-18.384138 1.7151566 -0.030614456 33
-18.379896 3.0757401 -0.14051081 39
-18.358513 0.37494326 -0.24678701 34
-18.344891 1.7114948 -0.35634303 44
-18.386396 3.076828 -0.47057822 42
-18.343287 0.37463233 -0.57113224 39
-18.359606 1.7128677 -0.68355179 50
-18.339832 3.0690358 -0.79886258 63
-18.318357 0.37412319 -0.89450127 45
-18.352674 1.712221 -1.0095547 43
-9.4352312 1.5789164 -0.58008033 2
-8.6590414 0.17684707 -0.57631552 2
-18.336079 1.7106727 -1.3345931 41
-9.0539703 1.5151153 -0.71924704 0
-7.695137 0.15716086 -0.64834267 41
-18.321793 1.70934 -1.6591122 63
-8.7377348 1.4621955 -0.85086256 0
-7.6348271 0.15592913 -0.77850711 1
-18.313791 1.7085935 -1.9838636 46
-18.312016 1.7084277 -2.3096957 35
-15.864384 1.4800748 -2.282964 1
-13.577096 1.2666813 -2.1975698 1
-11.902628 1.110461 -2.1379998 3
-10.598054 0.98875022 -2.0934944 4
-9.5875387 0.89447373 -2.0644917 3
-8.7444973 0.81582189 -2.0387368 3
-7.5154419 0.70115656 -1.8854458 7
-5.6491246 0.52703762 -1.9518245 6
-1.5810884 0.14750837 -0.74020553 11
-2.0587153 0.20730206 0.54618442 1
-4.4741845 0.45052743 0.86896122 4
-5.7309251 0.57707477 0.80581188 2
-6.4192677 0.64638734 0.5601418 5
-9.4118948 0.94772953 0.48664594 2
-12.441961 1.2528416 0.42203993 27
-13.470266 2.3557842 0.38029733 4
-13.423602 0.37260738 0.29442379 3
-13.836246 1.393239 0.22282614 13
-15.235961 2.6645825 0.15657848 23
-15.245991 0.42319256 0.064419635 3
-18.375053 1.8502736 -0.030621089 33
-18.372616 3.2131453 -0.14063144 37
-18.359268 0.50960976 -0.24684078 32
-18.343788 1.8471253 -0.35657507 45
-18.383041 3.2149684 -0.47108293 41
-18.340048 0.5090763 -0.57113224 39
-18.354511 1.848205 -0.68384814 52
-18.332588 3.2061446 -0.79954928 76
-18.315123 0.50838441 -0.89450127 57
-18.355526 1.8483073 -1.0104297 42
-9.1244974 1.5957626 -0.5616805 2
-8.6934185 0.24130869 -0.57870579 1
-18.338923 1.8466353 -1.3357495 38
-8.7715778 1.5340413 -0.6976884 0
-7.7455745 0.2149988 -0.65270746 19
-18.312733 1.8439982 -1.6594714 66
-8.4600754 1.4795635 -0.82485867 0
-7.661324 0.21266019 -0.78134692 0
-18.316603 1.8443879 -1.9855794 52
-18.291101 1.84182 -2.3086989 35
-15.825529 1.5935496 -2.2789927 1
-13.575304 1.3669635 -2.1988428 1
-11.894168 1.1976817 -2.1379998 3
-10.594427 1.0668044 -2.0942662 4
-9.5807238 0.96472973 -2.0644917 4
-8.7227745 0.87833863 -2.0351188 3
-7.4946551 0.7546733 -1.8815683 6
-5.641346 0.56805462 -1.9505234 7
-1.5619286 0.1572782 -0.73175567 13
-2.0303011 0.21876921 0.53903812 2
-5.2909269 0.57010847 1.028334 13
-5.726757 0.61707008 0.80581188 12
-6.3987508 0.68947881 0.5587579 4
-9.504343 1.0241128 0.49178365 16
-12.432912 1.3396723 0.42203993 36
-13.469226 2.452632 0.38074213 4
-13.432664 0.46672934 0.29468682 2
-13.834135 1.4906571 0.2229543 13
-15.236663 2.7744672 0.15678093 24
-14.659022 0.50934017 0.061953001 2
-18.369642 1.9793675 -0.030634353 33
-18.385153 3.3477807 -0.14090288 42
-18.371254 0.6383248 -0.24705578 33
-18.35828 1.9781431 -0.35711652 45
-18.371952 3.345377 -0.47138575 40
-18.348034 0.63751805 -0.57150561 40
-18.353083 1.9775833 -0.68429267 48
-18.333347 3.3383474 -0.80057943 79
-18.319113 0.63651317 -0.89489138 50
-18.342175 1.9764079 -1.0104297 42
-8.8146 1.6050642 -0.5432806 5
-18.328382 0.63683522 -1.2203548 43
-18.333519 1.9754751 -1.3363278 38
-8.5095654 1.5495198 -0.67769194 0
-7.8633895 0.27322015 -0.66278011 2
-18.31922 1.9739344 -1.6612673 57
-8.2654285 1.5050646 -0.80688542 0
-7.6874914 0.26710844 -0.78418672 0
-18.319096 1.9739211 -1.9872952 50
-18.309366 1.9728726 -2.3126862 37
-11.196184 1.2064123 -1.6135063 1
-13.53402 1.4583191 -2.1937513 1
-11.885517 1.2806894 -2.1379998 2
-10.563308 1.1382186 -2.0896347 2
-9.5620899 1.0303353 -2.061976 4
-8.7125578 0.93879634 -2.0342143 3
-7.5123549 0.80947196 -1.8873847 5
-5.6297216 0.60661429 -1.9479209 6
-1.5680019 0.16895549 -0.73513561 12
-2.0287244 0.23293708 0.53903812 5
-5.3141298 0.61016566 1.0336465 25
-5.7695365 0.6624552 0.81246233 2
-6.4254537 0.73776722 0.5615257 4
-10.064477 1.155598 0.52117151 9
-12.447087 1.4291681 0.42284948 25
-13.479276 2.5518115 0.38152051 5
-13.433074 0.56066239 0.2947745 1
-13.978354 1.6049874 0.22545364 17
-15.232641 2.8837476 0.1569429 23
-14.655109 0.61166704 0.061953001 3
-18.371271 2.1093798 -0.030660883 35
-18.384912 3.4805157 -0.14108384 38
-18.346369 0.7657308 -0.24678701 47
-18.344023 2.1062512 -0.35711652 44
-18.38744 3.480994 -0.47239515 41
-18.339142 0.7654292 -0.57138115 39
-18.3706 2.1093028 -0.68547809 50
-18.33708 3.4714601 -0.80178124 77
-18.314222 0.76438916 -0.89489138 44
-18.359674 2.1080482 -1.0121799 41
-8.6070318 1.6294289 -0.53117543 7
-18.311527 0.76427656 -1.219558 47
-18.343061 2.1061409 -1.3380625 40
-8.2673674 1.5651258 -0.65925771 0
-18.299204 0.7637623 -1.5427936 40
-18.304993 2.1017699 -1.6612673 47
-7.9926028 1.5131091 -0.78126389 5
-7.7848372 0.32491934 -0.79432881 3
-18.308821 2.1022093 -1.9877241 49
-10.778382 1.2375683 -1.5545033 5
-11.063621 1.2703192 -1.7947139 2
-10.949185 1.2571799 -1.9711006 1
-10.590197 1.215961 -2.0965822 2
-9.5507774 1.0966153 -2.0611374 4
-8.7019196 0.99914998 -2.0333097 3
-7.5103765 0.86233753 -1.8883541 5
-5.6366229 0.64719409 -1.9518245 6
-1.5775895 0.18113801 -0.74020553 13
-2.0385659 0.2484985 0.54210085 7
-5.3019433 0.6462999 1.0321286 35
-5.7293806 0.69840395 0.80747449 0
-6.4082789 0.78116077 0.56048775 4
-10.056165 1.2258332 0.52117151 5
-12.452679 1.5179652 0.42338917 23
-13.50429 2.6543353 0.38274369 15
-13.444809 0.65520787 0.29512522 1
-13.982689 1.7044713 0.22570999 20
-15.231762 2.9938784 0.15714535 24
-15.585364 0.75952387 0.065906368 2
-18.387863 2.2414563 -0.03071394 31
-18.383717 3.6134107 -0.14126478 41
-18.356554 0.89457268 -0.24700204 34
-18.348721 2.2366848 -0.35750327 43
-18.394079 3.6154475 -0.47320265 42
-18.353317 0.89441496 -0.57200342 38
-18.359396 2.2379861 -0.68562627 47
-18.335926 3.6040175 -0.80281138 81
-18.320412 0.8928113 -0.89547652 40
-18.35244 2.2371383 -1.0126173 41
-8.4309025 1.6571357 -0.52100706 5
-18.305744 0.89209652 -1.219558 47
-18.351673 2.2370448 -1.3397973 39
-8.0645065 1.5851189 -0.64394796 9
-18.321293 0.89285427 -1.545144 37
-18.32151 2.2333679 -1.6641408 44
-7.8411956 1.5412259 -0.76749712 14
-9.6663666 0.47107247 -0.98662287 1
-10.682509 1.3021839 -1.1607211 4
-10.353434 1.2620699 -1.3098576 6
-10.258519 1.2505 -1.4807495 6
-10.552718 1.2863625 -1.7132517 2
-10.545374 1.2854673 -1.8999748 2
-10.554178 1.2865405 -2.0911784 2
-9.5351248 1.1623192 -2.0594604 2
-8.671526 1.0570476 -2.0278828 6
-7.5157294 0.91615754 -1.8912622 6
-5.6282125 0.68607169 -1.9505234 5
-1.5618912 0.19039248 -0.73344564 12
-2.0482886 0.26420864 0.54516351 18
-5.2934074 0.6827963 1.0313697 39
-8.8517466 1.1417863 1.2486205 19
-6.3789558 0.82282114 0.5584119 5
-9.762105 1.2592134 0.50637484 14
-17.171875 2.2149992 0.58435261 30
-13.548119 2.7613182 0.38452286 5
-14.741574 0.82160091 0.32370836 7
-13.978382 1.8030708 0.22583817 20
-15.234007 3.1049287 0.1573883 22
-15.551726 0.86675358 0.065788105 3
-18.411438 2.3748903 -0.030780263 34
-18.385479 3.7472477 -0.1414759 42
-18.357849 1.0231489 -0.24710955 31
-18.340593 2.365752 -0.35765794 43
-18.395819 3.7493553 -0.47390923 42
-18.35461 1.0229684 -0.57225233 38
-18.359182 2.36815 -0.68621898 51
-18.345564 3.7391126 -0.80435658 48
-18.337667 1.022024 -0.89664686 45
-18.352221 2.3672519 -1.0134923 44
-8.3095865 1.6936237 -0.51422817 2
-18.31501 1.0207614 -1.2206203 52
-18.347479 2.3666403 -1.3406646 37
-18.306656 1.0202957 -1.5444725 36
-10.071368 1.2991052 -0.91558278 10
-9.6350307 0.53699487 -0.98378313 0
-10.32212 1.3314497 -1.1225451 5
-9.9231958 1.2799925 -1.2565262 4
-9.85291 1.2709262 -1.4234484 4
-10.19882 1.3155452 -1.6572464 4
-10.426799 1.3449522 -1.8802568 1
-10.541047 1.359689 -2.0904067 2
-9.5151415 1.2273575 -2.0569448 2
-8.6368847 1.1140712 -2.0215514 6
-7.505302 0.96810848 -1.8902928 4
-5.6120319 0.72389567 -1.9466196 6
-1.5677153 0.2022195 -0.73682559 13
-2.0655553 0.28110963 0.55026805 15
-5.2846203 0.71920502 1.0306108 36
-8.8553343 1.2051578 1.2502831 16
-6.3888502 0.86948413 0.5597958 4
-10.042027 1.3666595 0.52137697 11
-16.898514 2.2997861 0.57558256 32
-13.485475 2.84675 0.38329968 5
-13.462289 0.84461719 0.29573897 0
-13.989231 1.9038502 0.22622268 20
-15.223699 3.2136848 0.15750977 27
-15.58921 0.97805911 0.065973952 10
-18.394409 2.5033684 -0.030780263 30
-18.382351 3.8804686 -0.14165685 36
-18.362236 1.1520373 -0.24727081 32
-18.347404 2.4969714 -0.35812205 46
-18.408319 3.8859503 -0.4749186 38
-18.351011 1.1513331 -0.57237679 37
-18.358044 2.4984193 -0.68681169 48
-18.350292 3.8737013 -0.80573004 48
-18.314137 1.1490196 -0.89586663 58
-18.343163 2.4963939 -1.0139298 43
-8.2975597 1.7515943 -0.51422817 3
-18.327356 1.1498489 -1.2219483 49
-18.342367 2.4962859 -1.341532 38
-7.8582053 1.6588476 -0.62926304 0
-18.31102 1.1488241 -1.5454797 34
-10.200214 1.3881878 -0.92815453 27
-7.7643714 1.6390395 -0.76214343 0
-9.5913315 0.60175526 -0.97972625 1
-9.8751659 1.3439506 -1.0749323 3
-9.5364904 1.2978591 -1.2086776 5
-9.4239941 1.2825489 -1.3627434 5
-9.6885262 1.3185501 -1.5757842 5
-9.7343826 1.324791 -1.7570189 1
-10.539075 1.4343047 -2.0919504 2
-9.506341 1.2937558 -2.0569448 2
-8.6520605 1.1774935 -2.0269783 3
-7.9636426 1.0838039 -2.0075879 6
-5.6030936 0.76254731 -1.9453185 7
-1.562673 0.2126704 -0.73513561 13
-2.0290861 0.29058856 0.54107994 14
-5.2989087 0.75886488 1.0344054 35
-5.9213324 0.84800315 0.83684731 4
-6.1893315 0.88638371 0.54284281 3
-10.127147 1.4503243 0.52630919 8
-16.688137 2.3899338 0.56897134 31
-13.492617 2.9467993 0.38407809 7
-13.727339 0.95750296 0.3017011 7
-13.987475 2.0031679 0.22641493 18
-15.247784 3.3301294 0.15799566 22
-15.749592 1.0985582 0.066683531 5
-18.400242 2.6351271 -0.030820057 32
-18.382168 4.0146813 -0.14186797 38
-18.365713 1.2810367 -0.24743207 31
-18.349319 2.6278343 -0.35850877 43
-18.396368 4.0177832 -0.47532237 39
-18.350504 1.2799758 -0.5726257 37
-18.340153 2.6265216 -0.68681169 44
-18.338417 4.0051265 -0.80641681 68
-18.305668 1.2768484 -0.89586663 67
-18.376684 2.6317532 -1.0167737 43
-8.265626 1.8052199 -0.51301765 4
-18.322861 1.2780477 -1.2222139 53
-18.356087 2.6288035 -1.3438449 36
-7.9126635 1.7281326 -0.63457459 0
-18.30653 1.2769085 -1.5458155 36
-7.7216196 1.6864085 -0.75908411 0
-18.300451 1.2764845 -1.8702021 41
-9.5112324 1.3621184 -1.0363275 4
-9.1775398 1.3143296 -1.1643178 6
-9.0738068 1.2994739 -1.3133851 5
-9.3077145 1.332972 -1.515324 8
-9.3000412 1.3318732 -1.6802593 7
-10.501609 1.5039515 -2.0865469 2
-9.4738464 1.3567642 -2.0519135 2
-8.6320581 1.2362103 -2.0242648 2
-7.9443574 1.1377237 -2.0046797 9
-5.6013775 0.8021819 -1.9466196 6
-1.5790944 0.22614455 -0.74358547 12
-2.0537798 0.30877215 0.54822624 14
-5.2973652 0.79642361 1.0351644 42
-8.8063059 1.3239696 1.2458495 16
-6.3879099 0.96037978 0.56083375 7
-10.144427 1.5251471 0.52774781 5
-16.441753 2.4719083 0.56114578 27
-13.495117 3.046206 0.38474527 7
-13.628613 1.0462741 0.29968449 14
-13.98897 2.1031487 0.22667128 16
-15.239771 3.4400206 0.15815763 22
-15.677729 1.2035854 0.066413209 12
-18.393263 2.7653048 -0.030839954 34
-18.384905 4.1499605 -0.14210923 37
-18.3643 1.4098346 -0.24753958 39
-18.338438 2.7570622 -0.35866347 46
-18.391275 4.1513987 -0.47592801 38
-18.349094 1.4086672 -0.57287461 40
-18.360899 2.7604392 -0.68829352 50
-18.341196 4.1400948 -0.80779034 66
-18.328176 1.4070613 -0.89742702 46
-18.369713 2.761764 -1.0174299 43
-8.2177696 1.8549685 -0.51083869 4
-18.325432 1.4068507 -1.2230105 50
-7.9159656 1.7868435 -0.63582438 0
-18.317039 1.4062064 -1.5474942 39
-9.7622433 1.4676884 -0.89008009 0
-7.7329617 1.7455347 -0.76137859 0
-18.310932 1.4057376 -1.8722305 42
-9.2104692 1.3847327 -1.0045856 6
-8.8816366 1.335295 -1.1279329 8
-8.7630167 1.3174613 -1.2697002 5
-9.0013905 1.3532991 -1.4669558 6
-8.9478655 1.3452522 -1.6182884 5
-10.486973 1.5766466 -2.0857749 1
-9.4834824 1.4257786 -2.0561063 2
-8.6232176 1.2964435 -2.0242648 2
-7.7712035 1.1683488 -1.9629964 3
-5.5919003 0.84070504 -1.9453185 6
-1.5810623 0.23770221 -0.74527544 12
-2.0439334 0.32189935 0.54618442 17
-5.3033147 0.8352198 1.037441 38
-8.7811956 1.3829516 1.2436327 19
-6.4086051 1.0092921 0.56325561 4
-9.4705906 1.4915246 0.49322224 1
-16.20295 2.5518045 0.55359012 25
-13.496887 3.1457913 0.38541245 7
-13.640902 1.1430639 0.30012289 14
-14.009503 2.2063587 0.22724804 14
-15.246547 3.5535936 0.15848155 28
-15.501531 1.2989787 0.06570363 5
-18.381413 2.8948913 -0.030853217 34
-18.386648 4.2854743 -0.14235051 40
-18.35401 1.5380073 -0.24753958 29
-18.354296 2.8906207 -0.35935962 43
-18.389105 4.2860465 -0.47663459 39
-18.346779 1.5374014 -0.57312351 40
-18.341181 2.888555 -0.68829352 47
-18.350767 4.2771106 -0.80950719 55
-18.337811 1.5366499 -0.89840227 45
-18.349983 2.8899415 -1.0174299 47
-8.1774006 1.9059502 -0.50914401 4
-18.311184 1.5344187 -1.2227449 49
-9.5095425 1.4976592 -0.69765443 0
-7.8799963 1.8366327 -0.6339497 0
-18.310747 1.5343821 -1.54783 32
-9.377902 1.476927 -0.85595679 0
-7.7050772 1.7958633 -0.75984895 0
-18.320499 1.5351993 -1.874259 40
-8.9059391 1.4025977 -0.97241485 9
-8.6172647 1.3571342 -1.0955354 8
-8.3937607 1.3219346 -1.2175051 5
-8.5665178 1.3491421 -1.3975856 5
-8.5376291 1.3445923 -1.5457541 2
-8.560462 1.3481883 -1.7044379 1
-8.3760643 1.3191475 -1.8179601 1
-8.6178055 1.3572195 -2.0251691 2
-7.7743578 1.2243847 -1.9659045 4
-5.5896311 0.88031179 -1.9466196 8
-1.5793643 0.2487343 -0.74527544 13
-2.0721653 0.34118754 0.55435169 16
-5.30123 0.87286162 1.0382 35
-8.7205124 1.4358556 1.236428 20
-6.4092669 1.0553029 0.56394756 4
-9.5230141 1.5679897 0.49651039 1
-15.959898 2.6278398 0.54589945 29
-13.494035 3.2446146 0.38596845 9
-13.660468 1.2407932 0.30073664 16
-14.001653 2.3054094 0.22737622 15
-15.240811 3.6646235 0.15868402 20
-16.03385 1.4563696 0.068001315 3
-18.388384 3.0276964 -0.030899644 34
-18.391285 4.4221487 -0.14262193 34
-18.366726 1.668267 -0.2478621 36
-18.345509 3.020637 -0.35959166 73
-18.374287 4.4180613 -0.47703835 41
-18.351528 1.6668866 -0.57362133 39
-18.363953 3.0236738 -0.68992347 47
-18.347658 4.4116592 -0.810709 56
-18.334597 1.6653488 -0.89879239 45
-18.353006 3.0218716 -1.0187424 34
-8.1406021 1.9573921 -0.50769138 5
-18.331825 1.665097 -1.2248696 49
-9.207552 1.516048 -0.67625934 0
-7.8631053 1.8906685 -0.63363731 0
-18.327377 1.664693 -1.5501802 36
-9.1157856 1.5009383 -0.83296841 0
-7.6923518 1.849611 -0.75984895 0
-18.305372 1.6626943 -1.8738533 39
-8.6447878 1.4233874 -0.9449625 9
-8.3295374 1.3714806 -1.0601473 7
-8.1030264 1.3341849 -1.1766568 7
-8.4672689 1.3941584 -1.3829479 3
-8.310463 1.3683398 -1.506318 1
-8.2255373 1.3543565 -1.6395952 1
-8.1621161 1.3439142 -1.7735175 2
-8.4504919 1.3913959 -1.9880849 2
-7.7617917 1.2779998 -1.9649351 4
-5.5796175 0.91869891 -1.9453185 7
-1.5561256 0.25622022 -0.73513561 13
-2.0697331 0.35564467 0.55435169 16
-5.3027482 0.91117752 1.0397178 37
-8.6673307 1.4893177 1.2303318 8
-6.393889 1.0986695 0.56325561 3
-11.653574 2.0024474 0.60830742 21
-15.779624 2.7114313 0.5403676 30
-13.494341 3.3445129 0.38663563 8
-13.663413 1.3372997 0.30099967 16
-14.004927 2.4064829 0.22769664 12
-15.234267 3.7757463 0.15888646 24
-15.848131 1.5511278 0.067257948 12
-18.382566 3.1586981 -0.030926172 33
-18.398788 4.5600586 -0.14292353 36
-18.362593 1.7972295 -0.24796961 35
-18.339741 3.1513393 -0.35990104 83
-18.38957 4.5577741 -0.47824961 38
-18.371275 1.7980794 -0.57461703 37
-18.362097 3.1551805 -0.69066435 48
-18.355202 4.5492563 -0.81242585 44
-18.3265 1.7936969 -0.89898747 46
-9.3960066 1.6145269 -0.5221684 1
-8.0957355 2.0064926 -0.50575453 7
-18.323727 1.7934256 -1.2251352 53
-8.9372377 1.5356961 -0.65717721 0
-7.8458433 1.9445578 -0.63332486 0
-18.319277 1.7929899 -1.550516 34
-8.8302441 1.5173111 -0.80782491 0
-7.6676569 1.9003952 -0.75870174 0
-18.328962 1.793938 -1.8775045 40
-8.4151487 1.445985 -0.92094165 9
-8.1085396 1.3932999 -1.0332325 9
-7.9374208 1.3638964 -1.1539634 15
-8.036994 1.3810061 -1.3142142 0
-7.9941363 1.3736418 -1.450685 2
-7.9335098 1.3632244 -1.5832437 1
-7.8750019 1.3531709 -1.7131424 2
-8.0373602 1.3810691 -1.8931127 1
-7.7947531 1.3393816 -1.9755983 4
-5.5656123 0.95634574 -1.942716 6
-1.5793108 0.27137482 -0.74696535 12
-2.0481646 0.36667767 0.54924715 17
-5.3039899 0.94955969 1.0412357 38
-5.4357972 0.97315681 0.7725597 4
-6.3978305 1.1453872 0.56429356 3
-11.72975 2.099947 0.61303413 18
-15.602904 2.7933478 0.5349707 23
-13.486159 3.4425957 0.38708043 8
-13.665676 1.4339076 0.30126271 18
-14.015342 2.5091307 0.22814526 12
-15.246291 3.8919024 0.15929137 23
-15.936369 1.6721662 0.067680314 5
-18.407316 3.2954144 -0.031005759 32
-18.389757 4.6943312 -0.14310448 38
-18.365509 1.9270501 -0.24818464 30
-18.348787 3.2849362 -0.36051983 60
-18.388298 4.6939588 -0.47905713 35
-18.37418 1.92796 -0.57511485 36
-18.359295 3.2868176 -0.6914053 51
-18.342356 4.6822309 -0.81328434 44
-18.329424 1.923264 -0.89976764 42
-9.0935745 1.6279993 -0.50598055 2
-8.0853996 2.0639501 -0.50599664 9
-18.326637 1.9229716 -1.2261976 46
-8.6631832 1.5509474 -0.63780594 0
-7.8320765 1.9992847 -0.63332486 0
-18.322168 1.9225026 -1.551859 37
-8.5880671 1.5374997 -0.78663254 0
-7.6696348 1.9578185 -0.76023138 0
-18.323908 1.9226851 -1.8783158 37
-8.2130299 1.4703577 -0.89992344 10
-7.907186 1.4156033 -1.0088097 11
-7.7990847 1.3962501 -1.1352413 15
-7.817245 1.3995013 -1.2798474 14
-7.74017 1.3857027 -1.4063194 18
-7.6842694 1.375695 -1.5353836 4
-7.8191638 1.3998449 -1.7030798 3
-7.8702703 1.4089943 -1.8560283 1
-7.7699318 1.3910309 -1.9717208 6
-5.5662465 0.99651086 -1.9453185 6
-1.5595341 0.27919939 -0.73851556 13
-2.0417528 0.38025954 0.54822624 15
-5.3010921 0.98728442 1.0419946 34
-5.2185702 0.97191542 0.74263269 5
-6.4014316 1.1922135 0.56533152 3
-11.742294 2.1869049 0.61447269 18
-15.476909 2.8824458 0.53132778 22
-13.512072 3.5498641 0.38852599 10
-13.679177 1.5319476 0.30178878 17
-14.013211 2.6098442 0.22840159 8
-15.2497 4.0063701 0.15961531 23
-15.860704 1.7762594 0.06741 11
-18.411386 3.4289682 -0.031052185 31
-18.379751 4.8286905 -0.14328544 42
-18.355581 2.0556638 -0.24823838 36
-18.341133 3.4158838 -0.36082923 103
-18.397625 4.8333864 -0.48016745 40
-18.376165 2.0579689 -0.57561266 38
-18.355549 3.4185686 -0.69214618 51
-18.355604 4.8223472 -0.81534457 43
-18.327461 2.0525146 -0.90035278 43
-8.8974419 1.6570748 -0.49569905 1
-8.0901022 2.1254151 -0.50720716 9
-18.336563 2.053534 -1.2277911 50
-8.4285851 1.569754 -0.62132591 0
-7.8256426 2.0559371 -0.6339497 0
-18.324144 2.0521431 -1.553202 36
-8.3421354 1.5536535 -0.76508093 0
-7.6596317 2.0123229 -0.76061374 0
-18.302128 2.0496774 -1.8775045 41
-8.0188084 1.4934365 -0.87976307 11
-7.7293363 1.4395247 -0.98737746 3
-7.6918316 1.4325398 -1.1210579 28
-7.7063451 1.4352428 -1.2633003 22
-7.6490173 1.424566 -1.3915309 25
-7.6243181 1.419966 -1.5253483 22
-7.6707807 1.4286193 -1.6728923 0
-7.8602419 1.4639049 -1.8560283 3
-7.7714767 1.447373 -1.9746289 5
-5.5554352 1.0346538 -1.9440173 6
-1.5432901 0.28742498 -0.73175567 14
-2.0352511 0.39376974 0.54720533 17
-5.2747912 1.0205389 1.0382 33
-4.9432964 0.95640308 0.70439267 22
-6.3929524 1.2368749 0.56533152 3
-11.773805 2.2779341 0.61693877 17
-15.385759 2.9767561 0.52889913 13
-13.51784 3.6524534 0.38941559 10
-13.969943 1.6633424 0.30845234 24
-14.022136 2.7129292 0.22885019 13
-15.248387 4.1200385 0.15989874 15
-15.99885 1.9049157 0.068052001 6
-18.40271 3.5604596 -0.031078713 33
-18.39579 4.9704514 -0.1436775 39
-18.364613 2.1865971 -0.24856092 29
-18.352177 3.5506828 -0.36152536 103
-18.394316 4.9700527 -0.48097497 37
-18.361349 2.1862085 -0.57561266 41
-18.346933 3.5496683 -0.69273889 55
-18.352356 4.9587154 -0.81671804 44
-18.324587 2.1818314 -0.90093797 44
-8.6503801 1.6736301 -0.48257375 1
-8.1020479 2.1891332 -0.50890189 13
-18.325745 2.1819692 -1.2280567 53
-8.1941576 1.5853626 -0.60484588 9
-7.826498 2.1146808 -0.63519949 0
-18.329161 2.1823761 -1.5548809 35
-8.0612049 1.5596397 -0.74029666 1
-7.6646156 2.070941 -0.7625258 0
-10.929749 1.3013591 -1.1221212 0
-7.8676238 1.5221865 -0.86432111 12
-7.6567526 1.4813883 -0.97940266 28
-7.6388812 1.4779307 -1.1148171 46
-7.6185942 1.4740057 -1.2505718 32
-7.5499716 1.4607289 -1.3753339 24
-7.5255919 1.456012 -1.5075938 33
-7.5684624 1.4643064 -1.6527673 1
-7.8498306 1.518744 -1.8560283 3
-7.7649932 1.5023302 -1.9755983 5
-5.5555038 1.0748497 -1.9466196 6
-1.5626026 0.30232418 -0.7418955 13
-2.0589957 0.41329682 0.55435169 18
-5.3214455 1.0681598 1.0488248 40
-4.9326153 0.99011087 0.70383847 21
-6.3607192 1.2767705 0.56325561 3
-11.749782 2.3585029 0.6165278 16
-13.965326 2.8032234 0.48073155 1
-13.522833 3.755296 0.39030516 10
-13.977829 1.763333 0.30889073 26
-13.975406 2.8052466 0.22840159 10
-15.261646 4.2381649 0.16034414 17
-15.929602 2.0095534 0.067815475 11
-18.38917 3.6912096 -0.03109861 32
-18.391474 5.1073194 -0.14391878 41
-18.372709 2.3177567 -0.24888344 28
-18.338703 3.6810799 -0.3617574 63
-18.409258 5.112258 -0.48228717 37
-18.349606 2.314842 -0.57573712 37
-18.360895 3.6855345 -0.69422066 49
-18.351946 5.0963421 -0.81826323 58
-18.316835 2.310708 -0.90132803 47
-8.4701004 1.700181 -0.47316727 1
-8.090415 2.2467113 -0.50914401 13
-18.325905 2.311852 -1.2291189 47
-8.0342522 1.6126943 -0.5938592 17
-7.8230715 2.1724701 -0.63613683 0
-18.325342 2.3117809 -1.5558881 39
-7.9251299 1.5907905 -0.72880244 11
-7.649971 2.1243999 -0.7625258 0
-10.265016 1.2949536 -1.0547777 6
-7.6306539 1.5316811 -0.83944237 0
-7.7201571 1.5496469 -0.98887271 5
-7.6206126 1.5296656 -1.1136825 45
-7.5926309 1.5240489 -1.2480261 37
-7.5241475 1.5103024 -1.372517 1
-7.5460281 1.5146945 -1.5137693 167
-7.492866 1.5040234 -1.6385121 2
-7.8886986 1.5834777 -1.8677868 2
-7.7771449 1.5610858 -1.9814146 6
-5.5404477 1.1121196 -1.9440173 7
-1.5391265 0.30894485 -0.73175567 14
-2.0484874 0.42608607 0.55230987 17
-5.3177042 1.1060842 1.0495838 32
-4.9449749 1.0285565 0.70660949 25
-6.3711581 1.3252031 0.56498551 4
-11.73694 2.4412875 0.61673331 12
-15.080462 3.1367412 0.51985925 6
-13.534738 3.8605788 0.39141715 12
-13.981034 1.8629866 0.30924144 29
-14.03771 2.9198484 0.2297474 10
-15.254765 4.3511906 0.16058709 22
-16.042061 2.1376204 0.068356104 6
-18.382532 3.8235729 -0.031131772 33
-12.047154 3.4362683 -0.094458006 1
-18.360046 2.4464941 -0.2489372 28
-18.351713 3.8171625 -0.36253089 44
-12.028279 3.4308844 -0.31573761 8
-18.352814 2.4455307 -0.57635939 40
-18.362112 3.8193257 -0.69525796 49
-18.338976 5.2309151 -0.81929338 62
-18.320059 2.4411659 -0.90230328 69
-8.6887331 1.8072594 -0.48607382 3
-8.0745325 2.303138 -0.50914401 11
-18.329098 2.4423704 -1.2304469 51
-7.8192186 2.2303135 -0.63707417 0
-18.32456 2.4417658 -1.5572311 37
-7.6234665 2.1744783 -0.76137859 0
-10.117666 1.3481891 -1.0405788 1
-7.6820722 1.5978736 -0.84630549 2
-7.6974936 1.6010813 -0.98737746 9
-7.5981178 1.5804111 -1.1119804 47
-7.5702066 1.5746056 -1.2461169 39
-7.5172753 1.5635958 -1.3732212 68
-7.4737887 1.5545505 -1.5014184 255
-7.4706964 1.5539074 -1.6359965 3
-8.5030699 1.7686415 -2.0161242 2
-7.7546582 1.6129715 -1.9785064 6
-5.5288453 1.1500018 -1.942716 7
-1.5617788 0.3248505 -0.74358547 12
-2.0492437 0.44119084 0.55333078 15
-5.3175311 1.144835 1.0511016 42
-4.9492917 1.0655551 0.7082721 26
-6.3578553 1.368811 0.56463951 4
-11.696179 2.5181227 0.61550021 4
-12.928241 2.7833788 0.44632611 7
-11.91112 3.4875689 0.34515876 16
-13.967688 1.9605471 0.30924144 27
-14.075632 3.0304058 0.23070867 8
-11.849858 3.4696314 0.12499554 20
-15.975252 2.2423351 0.068136476 9
-18.402315 3.9619169 -0.031211359 35
-11.792548 3.4528511 -0.092648469 13
-18.378166 2.5796154 -0.24942099 33
-18.355894 3.9519224 -0.36314967 44
-11.712375 3.4293764 -0.30806622 17
-18.35113 2.5758204 -0.57685721 39
-18.370171 3.9549959 -0.69659156 46
-11.923921 3.491317 -0.53377688 24
-18.322353 2.5717814 -0.90327853 45
-8.6212416 1.8561056 -0.48301125 3
-8.0659199 2.3616967 -0.50962818 12
-18.319506 2.5713816 -1.2309781 53
-7.835444 1.6869278 -0.58084863 1
-7.8225932 2.2904506 -0.63863641 0
-10.175856 1.4283141 -0.86557603 5
-7.8047819 1.6803263 -0.71982265 0
-7.653955 2.2410734 -0.76596749 0
-9.7060518 1.362371 -0.99919909 1
-7.6590662 1.6489545 -0.84501868 3
-7.5774903 1.6313918 -0.97342157 22
-7.5907707 1.6342509 -1.1125478 37
-7.5590296 1.6274172 -1.2461169 42
-7.5023265 1.6152095 -1.372517 14
-7.4781013 1.6099938 -1.504506 36
-7.4596658 1.6060249 -1.6359965 3
-8.4448061 1.81812 -2.0052702 2
-7.7659721 1.6719708 -1.9843228 7
-5.5280781 1.1901646 -1.9453185 6
-1.5559285 0.33498281 -0.7418955 14
-2.0423384 0.45464614 0.55230987 16
-5.3132424 1.1827838 1.0518605 38
-4.9455986 1.1009425 0.7088263 26
-6.3675928 1.4174935 0.56636941 3
-11.385869 2.5346148 0.60008705 3
-12.86557 2.8640118 0.44484195 6
-11.622253 3.4912663 0.33748609 17
-13.478911 1.9879854 0.29872003 24
-14.077556 3.1338127 0.2310932 6
-11.553367 3.4705732 0.12212069 17
-16.073967 2.3707266 0.068626426 5
-18.401539 4.0963769 -0.031257786 32
-11.511493 3.4579945 -0.090627812 15
-18.367624 2.7090147 -0.2495285 32
-18.355183 4.0860577 -0.36369112 75
-11.462198 3.4431865 -0.30211082 15
-18.348524 2.7061975 -0.57735509 39
-18.36162 4.0874906 -0.69733244 48
-11.616033 3.4893975 -0.52107197 23
-18.339527 2.7048705 -0.90503401 47
-8.5690861 1.9075692 -0.4808237 2
-8.0683556 2.4236932 -0.51083869 13
-18.320852 2.7021163 -1.232306 52
-7.819582 1.7407216 -0.58055949 0
-7.8446031 2.3564794 -0.64176083 0
-9.8817253 1.4574414 -0.8414017 0
-7.8006377 1.7365043 -0.72054106 0
-7.6457496 2.2967446 -0.76673234 0
-9.3459311 1.3784181 -0.96309322 1
-7.6551309 1.704113 -0.84587657 3
-7.6124043 1.6946017 -0.97940266 31
-7.5675812 1.6846235 -1.1108458 43
-7.5513382 1.6810077 -1.2467533 42
-7.4793377 1.6649796 -1.3704044 44
-7.47051 1.6630144 -1.505278 39
-7.4788127 1.6648628 -1.6427048 2
-8.4243011 1.8753384 -2.0034614 2
-7.7692618 1.7295198 -1.9882003 7
-5.5196342 1.2287289 -1.9453185 6
-1.5641685 0.34820044 -0.74696535 12
-2.0391147 0.46889323 0.55230987 8
-5.2933736 1.2172081 1.0495838 26
-4.9455137 1.137218 0.70993471 24
-6.3536587 1.46102 0.56602347 4
-10.978586 2.5245194 0.57953614 6
-12.794614 2.9421139 0.44308797 5
-11.337749 3.492281 0.32992461 17
-13.500273 2.0875375 0.29950914 15
-14.113803 3.2454605 0.23205449 6
-11.2651 3.4699032 0.11932682 16
-16.013542 2.4761627 0.068440579 9
-18.42317 4.2363973 -0.031344004 28
-11.234776 3.4605629 -0.088637315 24
-18.364073 2.8396237 -0.24974352 35
-18.345697 4.2185826 -0.36407784 55
-11.200945 3.4501421 -0.2958526 34
-18.35684 2.8385053 -0.57822627 38
-18.359907 4.2218499 -0.69836968 47
-11.343138 3.4939408 -0.50991225 26
-18.335987 2.8352807 -0.90581423 46
-8.5322065 1.9619758 -0.47951117 2
-8.0893955 2.4917152 -0.51325977 13
-9.8528557 1.52354 -0.66342682 7
-7.7955747 1.7925878 -0.57969213 0
-7.8393941 2.4147093 -0.64269817 0
-9.4458895 1.4606112 -0.8051402 0
-7.7533822 1.7828857 -0.71730828 0
-7.6523604 2.3570988 -0.76902682 0
-9.0647278 1.4016725 -0.93510103 1
-7.6430478 1.7575144 -0.84587657 2
-7.5578418 1.7379212 -0.97392005 80
-7.559495 1.7383014 -1.1114131 41
-7.5355701 1.7328 -1.2461169 52
-7.4560194 1.7145073 -1.3682917 39
-7.462543 1.7160074 -1.5060499 41
-7.5470529 1.7354404 -1.6603142 2
-8.0198822 1.8441671 -1.9102981 2
-7.7607803 1.7845869 -1.9891696 7
-5.4924903 1.2629949 -1.9388124 6
-1.5581663 0.3582994 -0.74527544 13
-2.0433178 0.48490256 0.55435169 12
-4.1422029 0.98299181 0.82266724 10
-4.9451628 1.1735435 0.71104312 26
-6.3471818 1.5062585 0.56636941 4
-10.680848 2.5346868 0.56473947 3
-12.738756 3.0230517 0.44187364 3
-11.175824 3.5280156 0.32592151 43
-13.493266 2.1830137 0.29968449 15
-14.129716 3.3531423 0.23269534 7
-11.175758 3.5279946 0.11863846 47
-16.086685 2.6025908 0.068829156 5
-18.404823 4.3676739 -0.031363901 33
-11.179828 3.5292795 -0.088396043 46
-18.359596 2.9703147 -0.24995853 33
-18.350822 4.3548589 -0.36477399 59
-11.176585 3.5282557 -0.2958526 47
-18.372097 2.9723375 -0.57934636 38
-18.357212 4.3563752 -0.69940698 44
-11.146976 3.5189087 -0.5021863 70
-18.327579 2.9651351 -0.90639937 49
-8.4872141 2.0141125 -0.47776112 2
-8.0984554 2.5565431 -0.51495445 12
-9.5937634 1.5521309 -0.64669508 0
-7.7828708 1.8469639 -0.57969213 0
-7.8375564 2.4741819 -0.64394796 0
-9.167902 1.4832329 -0.78230888 0
-7.760128 1.8415667 -0.71910429 0
-7.6547027 2.4164581 -0.77093881 0
-8.8111677 1.4255184 -0.90994865 1
-7.6073761 1.8053169 -0.84330291 1
-7.5378022 1.7888062 -0.97292316 3
-7.5510287 1.791945 -1.1119804 41
-7.527133 1.7862743 -1.2467533 41
-7.4591937 1.7701515 -1.3711085 52
-7.4465632 1.7671542 -1.505278 36
-7.553781 1.7925982 -1.6645069 2
-7.862751 1.8659203 -1.8759272 3
-7.7481337 1.8387202 -1.9891696 7
-5.4909005 1.3030531 -1.9414148 6
-1.5485721 0.36749378 -0.7418955 14
-2.0323694 0.49731728 0.55230987 16
-4.0284247 0.98574859 0.80141753 4
-4.9483929 1.2108632 0.71270573 26
-6.3248992 1.5476919 0.56533152 6
-10.534843 2.5778582 0.55795765 6
-12.65521 3.0967081 0.43971488 2
-11.173749 3.6133332 0.32658869 42
-13.5053 2.2818251 0.30029824 15
-14.133157 3.458359 0.23314394 4
-11.181302 3.6157753 0.11896239 47
-16.044458 2.7108355 0.068727791 7
-18.41662 4.5065155 -0.031436857 31
-11.181558 3.6158581 -0.088607162 46
-18.373905 3.1044137 -0.25044233 39
-18.351049 4.4904699 -0.36539277 66
-11.178314 3.6148095 -0.29655918 46
-18.374552 3.1045232 -0.58009309 39
-18.361294 4.4929771 -0.70074058 46
-11.141151 3.6027918 -0.50304478 71
-18.32613 3.0963418 -0.90737462 46
-8.4535475 2.0685685 -0.47666734 2
-8.1108007 2.6228464 -0.5168913 10
-9.2009592 1.5545734 -0.62093347 0
-7.83179 1.9164256 -0.5843181 0
-7.8352699 2.5337458 -0.64519775 0
-8.8900709 1.5020465 -0.7594775 0
-7.7393427 1.893804 -0.71838588 0
-7.660378 2.4771898 -0.77323329 0
-8.5851936 1.4505351 -0.88763607 0
-7.590724 1.8574371 -0.84287393 0
-7.5405502 1.8451598 -0.97491688 3
-7.5421805 1.8455585 -1.1125478 43
-7.5183144 1.8397186 -1.2473898 44
-7.4466534 1.8221833 -1.3711085 51
-7.4454818 1.8218966 -1.5075938 11
-7.5638762 1.8508675 -1.6695381 1
-8.4096727 2.0578325 -2.0097928 4
-7.7464166 1.8955348 -1.9920778 7
-5.4853435 1.342254 -1.942716 6
-1.5389255 0.37657243 -0.73851556 15
-2.0400984 0.51433015 0.5553726 16
-3.9071991 0.98504579 0.77864999 6
-4.9475021 1.247317 0.71381414 22
-6.3216681 1.5937586 0.56602347 4
-10.512717 2.6503661 0.55775213 7
-13.07132 3.2954164 0.45496121 2
-11.190006 3.7050719 0.32781187 44
-13.532362 2.3836851 0.30126271 14
-14.077643 3.5491211 0.23263125 6
-11.186165 3.7038002 0.11928632 45
-16.107868 2.8373528 0.069082581 5
-18.415741 4.6428008 -0.031489912 35
-11.178826 3.7013702 -0.088788114 46
-18.363602 3.2346935 -0.25060359 31
-18.34252 4.624341 -0.36585686 99
-11.167993 3.697783 -0.29696292 42
-18.364243 3.2348065 -0.58046651 37
-18.368242 4.630826 -0.70222235 46
-11.142286 3.6892715 -0.50424659 67
-18.32374 3.2276721 -0.90834987 45
-8.4156637 2.1216769 -0.47535482 2
-8.1377783 2.6944625 -0.51979655 8
-8.9422503 1.5751507 -0.60420173 0
-7.833694 1.9749562 -0.58547461 0
-7.8514624 2.5996618 -0.64800972 0
-8.6124372 1.517055 -0.73664618 0
-7.7336593 1.9497362 -0.71910429 0
-7.6769166 2.5418689 -0.77667499 0
-8.339716 1.4690161 -0.86329502 0
-7.5968533 1.9152461 -0.84501868 0
-7.5313334 1.8987279 -0.97541529 48
-7.5406303 1.9010718 -1.1142498 41
-7.5129466 1.8940923 -1.2486626 49
-7.4146605 1.8693135 -1.3675874 45
-7.4401927 1.8757503 -1.5091376 4
-7.6493745 1.9284873 -1.6913402 4
-8.39888 2.1174455 -2.0106974 4
-7.7292314 1.9486201 -1.9911084 6
-5.4795065 1.3814409 -1.9440173 6
-1.5221972 0.38376182 -0.73175567 16
-2.0439451 0.53050345 0.55741441 17
-3.8660142 1.0034193 0.77181971 6
-4.9578447 1.2868025 0.71658516 25
-6.3296733 1.642859 0.56775337 4
-10.528756 2.7327259 0.55960172 7
-13.152472 3.4137077 0.45860413 4
-11.182802 3.7895193 0.32836786 41
-13.546858 2.4838705 0.30196413 13
-14.149302 3.6724341 0.23423339 4
-11.194129 3.7933574 0.11965074 44
-16.158484 2.9627225 0.069386683 4
-18.421597 4.7813025 -0.031556237 30
-11.194385 3.7934439 -0.089119859 44
-18.383844 3.3707511 -0.25119489 39
-18.363983 4.7663493 -0.36693972 71
-11.168414 3.7846434 -0.2976695 45
-18.376604 3.3694234 -0.5815866 35
-18.362547 4.7659769 -0.70325965 49
-11.146537 3.77723 -0.50562006 72
-18.31255 3.3576789 -0.90893501 36
-8.4083776 2.1823843 -0.47579235 2
-8.2284307 2.7883706 -0.52681756 6
-8.7033434 1.5957927 -0.58879793 0
-7.7695146 2.0165679 -0.581716 2
-7.8935509 2.6748898 -0.65300882 0
-8.3703251 1.5347325 -0.71683663 0
-7.7160029 2.0026791 -0.71874505 0
-7.7042365 2.6107366 -0.78126389 0
-8.1492062 1.4941895 -0.84463358 0
-7.5871463 1.9692345 -0.8454476 0
-7.5255775 1.9532545 -0.97641212 50
-7.5348396 1.9556584 -1.1153845 39
-7.5110068 1.9494727 -1.2505718 43
-7.4166746 1.9249889 -1.3704044 40
-7.4535084 1.934549 -1.5145413 3
-7.6205816 1.9779127 -1.6879861 4
-8.3612633 2.1701558 -2.0052702 6
-7.7041702 1.9996079 -1.9882003 6
-5.4697285 1.4196614 -1.9440173 5
-1.5370269 0.39893344 -0.74020553 16
-2.0514014 0.54775316 0.56047714 17
-3.8551207 1.0293716 0.77106082 6
-4.9525681 1.3224055 0.71713936 23
-6.3488507 1.6952327 0.57052118 3
-10.524859 2.810286 0.56042373 7
-13.3562 3.566294 0.4665646 7
-11.174963 3.8740458 0.32892385 43
-13.599898 2.5918608 0.30354235 25
-14.185145 3.7876339 0.23525877 3
-11.186269 3.8779652 0.11985319 45
-16.200275 3.0874391 0.069657005 6
-18.407089 4.9149523 -0.031589396 38
-11.190304 3.879364 -0.089300819 45
-18.38344 3.5035052 -0.25151742 41
-18.357306 4.9016595 -0.36748117 81
-11.168167 3.8716898 -0.29837608 43
-18.368343 3.5006282 -0.58208442 38
-18.363585 4.903336 -0.70459324 51
-11.14255 3.8628094 -0.50665021 66
-18.327908 3.4929218 -0.91088551 44
-8.2617369 2.2060003 -0.46835467 4
-11.155015 3.8671305 -0.71590048 49
-8.4293098 1.6064531 -0.57100385 3
-7.7899375 2.0800233 -0.5843181 7
-7.9161296 2.7442999 -0.65644574 0
-8.1166515 1.5468668 -0.69601983 4
-7.7210779 2.0616367 -0.72054106 0
-7.6895847 2.6657631 -0.78164631 0
-7.9274902 1.5108165 -0.82272667 10
-7.561686 2.0190768 -0.8441608 0
-7.5270953 2.0098407 -0.97840583 50
-7.5248289 2.0092354 -1.1159518 41
-7.5048447 2.0038993 -1.2518448 39
-7.4144673 1.9797673 -1.372517 42
-7.4436131 1.9875497 -1.5153131 3
-7.6330385 2.0381289 -1.6938559 3
-8.3609676 2.2324963 -2.0088882 5
-7.6900225 2.0533445 -1.9882003 5
-5.4523759 1.4558612 -1.9414148 6
-1.5271988 0.40778363 -0.73682559 17
-2.0363388 0.55898988 0.55741441 17
-3.8440528 1.0552206 0.77030188 6
-4.9432149 1.3569487 0.71713936 26
-6.3061185 1.7310756 0.56775337 3
-10.539654 2.8932121 0.56227332 6
-13.342543 3.6626258 0.46696937 8
-11.170257 3.9599836 0.32959104 44
-13.667778 2.7038162 0.30547127 11
-14.289488 3.922569 0.23743768 12
-11.189082 3.9666576 0.12017712 46
-16.162632 3.1973581 0.069589421 4
-18.410902 5.0539269 -0.031655718 37
-11.193108 3.9680848 -0.089542091 50
-18.382074 3.6364176 -0.25183994 39
-18.372774 5.0434608 -0.3684867 46
-11.167248 3.9589171 -0.29908264 44
-18.366989 3.6334336 -0.58283114 42
-18.367451 5.0419998 -0.70607501 48
-11.141678 3.9498522 -0.50785202 64
-18.334431 3.6269927 -0.9124459 52
-8.1768074 2.2445934 -0.46441707 38
-11.139035 3.9489155 -0.71662682 49
-8.2260399 1.627309 -0.55799025 9
-7.7636847 2.1311884 -0.58345073 2
-7.9306054 2.8114903 -0.65925771 0
-7.9570708 1.5741005 -0.68326116 12
-7.7141809 2.117599 -0.72125942 0
-7.7083144 2.7326856 -0.78547043 0
-7.7801194 1.5390953 -0.80852771 2
-7.5742517 2.0791876 -0.84716338 0
-7.5243626 2.0654926 -0.97990108 51
-7.5297098 2.0669603 -1.1187885 40
-7.5059047 2.0604258 -1.2543905 45
-7.4156537 2.0356512 -1.3753339 42
-7.4371252 2.0415454 -1.516857 255
-7.6261673 2.0934386 -1.6955329 3
-8.3226337 2.2846239 -2.0034614 7
-7.6792421 2.1080081 -1.9891696 5
-5.4420791 1.4938905 -1.9414148 5
-1.5348032 0.42131472 -0.7418955 22
-2.0398312 0.57529217 0.55945623 17
-3.8441522 1.0841635 0.77181971 8
-4.9412465 1.3935764 0.71824777 26
-6.2977152 1.7761401 0.56809932 3
-10.561492 2.9786501 0.56453395 7
-13.366668 3.7697918 0.46872336 7
-11.176172 4.0501313 0.3305918 43
-13.648568 2.7991693 0.30547127 20
-14.207865 4.0070343 0.23654048 8
-11.17616 4.0501266 0.12033909 46
-15.93224 3.267525 0.068694003 10
-18.413668 5.1931934 -0.031722043 32
-11.191457 4.0556703 -0.089753203 47
-18.379747 3.7694817 -0.25216246 31
-18.36791 5.1802888 -0.36910549 44
-11.173173 4.0490441 -0.2999911 43
-18.376423 3.7687998 -0.58395129 38
-18.366428 5.1798711 -0.70740867 45
-11.140132 4.0370703 -0.50905383 68
-18.347799 3.7629292 -0.91439641 45
-8.383894 2.3645036 -0.47710487 3
-11.152488 4.0415478 -0.71928996 47
-8.0815458 1.6574349 -0.54896045 9
-7.8023744 2.2004981 -0.58749849 2
-7.9782701 2.8912439 -0.66488171 1
-7.902936 1.6208042 -0.67956787 1
-7.6838722 2.1670771 -0.71982265 0
-7.7601748 2.8122084 -0.79273623 0
-7.7574897 1.5909747 -0.8073107 0
-7.5748625 2.1363332 -0.84887916 0
-7.5364985 2.1255133 -0.98339009 49
