# .PCD v0.7 - Point Cloud Data file format
VERSION 0.7
FIELDS x y z intensity
SIZE 4 4 4 4
TYPE F F F F
COUNT 1 1 1 1
WIDTH 1363
HEIGHT 1
VIEWPOINT 0 0 0 1 0 0 0
POINTS 1363
DATA ascii
-5.0156875 2.4604182 -1.9218966 5
-1.2043254 0.59077525 -0.62528777 0
-2.0346427 1.0157665 0.60029244 14
-3.2889149 1.6419442 0.71034735 4
-5.0612397 2.5267522 0.79140264 2
-6.1930819 3.0918083 0.60096747 17
-9.14606 4.5660405 0.52589822 2
-9.4748526 4.7301855 0.35741168 15
-10.407066 6.179266 0.33659652 21
-12.540235 5.1610293 0.29731718 11
-14.545964 7.2618661 0.26050854 14
-10.39336 6.1711283 0.12236363 24
-18.424465 7.5827298 0.084152684 48
-18.430805 9.2013178 -0.034156077 56
-10.372962 6.1590161 -0.090959564 25
-18.419268 7.5805902 -0.26769751 35
-18.370134 9.1710291 -0.39710552 42
-10.342446 6.1408973 -0.3036249 24
-18.400921 7.5730395 -0.61942148 35
-18.385992 9.1789455 -0.76179051 41
-10.432423 6.1943212 -0.52124363 28
-18.339905 7.5479279 -0.96823037 43
-18.396101 9.1839924 -1.1261512 40
-10.412601 6.1825523 -0.73430037 26
-18.358137 7.5554318 -1.3210108 47
-18.396898 9.184391 -1.4901413 36
-10.375853 6.1607323 -0.9454568 25
-18.363293 7.5575538 -1.6727308 43
-8.4653168 4.2261891 -0.85308325 12
-6.8610044 4.0737677 -0.76634991 10
-18.373783 7.5618715 -2.025579 38
-18.331667 9.151825 -2.2099168 42
-15.762489 7.8691988 -2.212503 1
-13.345057 6.6623302 -2.1371584 1
-11.560675 5.771503 -2.0823772 2
-10.177667 5.0810556 -2.0344801 2
-9.1826439 4.5843048 -2.0186164 3
-8.3212872 4.1542845 -1.9940541 4
-7.5857658 3.7870858 -1.9681859 6
-7.0206232 3.5049465 -1.9600883 8
-4.9983883 2.4953744 -1.9218966 5
-1.1223227 0.56030369 -0.58472854 0
-2.0412951 1.0369518 0.60437608 13
-3.2983816 1.6755358 0.71490085 5
-4.9763727 2.5279338 0.78087276 4
-6.2033238 3.1512094 0.60408127 14
-10.702406 5.4366856 0.61755532 2
-9.4950638 4.8233714 0.35943553 16
-10.243843 6.1794839 0.33270457 23
-12.544459 5.2654762 0.29828164 12
-12.084445 6.1387439 0.21718659 17
-10.233579 6.1732917 0.12098694 23
-18.411648 7.7282004 0.084338531 48
-12.057449 6.1250305 -0.022423631 21
-10.213263 6.1610365 -0.089934155 25
-18.424902 7.7337637 -0.26855761 34
-18.380543 9.337081 -0.39872983 41
-10.196604 6.1509871 -0.30059674 15
-18.413958 7.7291698 -0.62166166 32
-18.392744 9.3432789 -0.76475412 43
-10.262313 6.1906257 -0.51489121 29
-18.353071 7.7036133 -0.97174126 42
-12.085713 6.1393881 -0.74245477 2
-10.232433 6.1726012 -0.72461623 24
-18.341743 7.6988583 -1.3236666 49
-12.086395 6.1397347 -0.98244089 12
-10.223322 6.1671047 -0.9354586 27
-18.376238 7.7133374 -1.6787744 41
-8.2828789 4.2075968 -0.8376379 12
-6.743753 4.0680938 -0.75640726 10
-18.375584 7.7130623 -2.0316641 37
-18.345339 9.3191977 -2.2193537 39
-12.119185 6.1563916 -1.7071013 0
-12.034414 6.1133289 -1.9340518 1
-11.506021 5.8449116 -2.0798316 2
-10.14897 5.1555471 -2.0358884 2
-9.1259222 4.6358523 -2.0132129 3
-8.3060322 4.2193584 -1.9974083 4
-7.5765128 3.8487718 -1.9727085 6
-6.9890647 3.5503557 -1.9581494 6
-4.9842191 2.5319197 -1.9231977 6
-3.6202023 1.8390167 -1.8927629 0
-2.0271342 1.0476261 0.60233426 12
-3.2970705 1.7039313 0.71717763 7
-4.8952565 2.5298762 0.77089709 3
-6.2165747 3.2127357 0.60754108 16
-11.452026 5.9184251 0.66317838 6
-9.4931221 4.9060607 0.36064985 16
-5.7411633 3.5181916 0.18725753 22
-12.536805 5.3655124 0.29898307 12
-11.881406 6.1403294 0.21430273 17
-5.7430887 3.5193715 0.068186752 25
-18.405052 7.8770099 0.084558159 49
-11.872253 6.1355996 -0.02215834 18
-5.729578 3.5110922 -0.050667129 25
-18.407232 7.8779426 -0.26909515 33
-11.973083 6.1877084 -0.26066333 24
-5.6972313 3.4912696 -0.16866928 27
-18.396305 7.8732662 -0.62290627 37
-11.949347 6.1754413 -0.49862382 28
-5.744905 3.5204844 -0.28946534 19
-18.346592 7.8519897 -0.9742769 42
-11.91837 6.1594329 -0.73479837 21
-5.7226405 3.5068407 -0.40697622 28
-18.357264 7.8565574 -1.3287127 45
-11.873115 6.1360445 -0.96856296 32
-5.7156348 3.5025475 -0.52521908 30
-9.9817934 4.272016 -0.91459626 2
-8.1294317 4.2013035 -0.82506615 10
-5.7068911 3.4971895 -0.64283144 25
-18.376163 7.864646 -2.0377495 34
-11.952197 6.1769142 -1.4511158 30
-11.913723 6.1570306 -1.6841738 17
-11.882397 6.1408415 -1.9164643 23
-11.524574 5.9559178 -2.0906508 2
-10.133718 5.2371216 -2.0401137 2
-9.075902 4.6904407 -2.0093532 3
-8.2624741 4.2700596 -1.9940541 3
-7.5321512 3.8926277 -1.9681859 6
-6.9813461 3.6079705 -1.9629964 6
-4.95298 2.5597079 -1.9179929 6
-3.610496 1.8659101 -1.8944529 1
-2.0368876 1.0707506 0.60743874 12
-3.3094285 1.7396996 0.72249001 8
-4.8213725 2.5344977 0.76202983 4
-6.2116303 3.2653284 0.60927099 16
-9.5222445 5.005651 0.55343646 2
-9.5046415 4.9963975 0.36240384 12
-5.6587558 3.5222638 0.18536715 23
-12.543026 5.4720941 0.30003521 11
-11.689563 6.1449666 0.21161112 18
-5.6436753 3.5128767 0.067295946 26
-18.426603 8.0388985 0.084912948 51
-11.666263 6.1327181 -0.021853257 21
-5.637012 3.5087295 -0.050063949 27
-18.406773 8.0302467 -0.26990145 37
-11.780915 6.1929889 -0.25741473 25
-5.6184034 3.4971466 -0.16705427 23
-18.406853 8.0302811 -0.62514645 35
-11.757339 6.1805954 -0.49240029 31
-5.6591201 3.5224903 -0.28637499 30
-18.349918 8.0054426 -0.97739774 45
-11.70892 6.1551418 -0.72451687 27
-5.6403961 3.5108356 -0.40286046 26
-18.364157 8.0116549 -1.3332276 53
-11.685203 6.1426744 -0.95670891 24
-5.6233344 3.5002158 -0.51897019 24
-9.7727118 4.2635007 -0.8981443 7
-7.9729567 4.1912217 -0.81213522 12
-5.6214929 3.4990697 -0.63594806 28
-18.364578 8.0118389 -2.0426178 45
-11.757415 6.180635 -1.4326712 30
-11.722901 6.1624923 -1.6632401 27
-11.678015 6.138896 -1.8903668 24
-11.489704 6.0399051 -2.0919235 3
-10.075997 5.2967477 -2.0358884 2
-9.0394621 4.751862 -2.0085812 3
-8.2186146 4.3203592 -1.9906999 4
-7.5151386 3.9505563 -1.9708995 5
-6.9422469 3.6493986 -1.9591188 6
-4.9450336 2.599504 -1.9218966 6
-3.5781269 1.8809489 -1.8843131 2
-2.0395949 1.0904149 0.61050147 12
-3.2833488 1.7553546 0.71945435 11
-4.7371845 2.5326092 0.75149995 3
-6.1957121 3.312372 0.60996294 15
-8.9656839 4.793263 0.52302104 0
-11.531954 6.1652508 0.44133395 23
-5.5596738 3.514679 0.1829208 24
-12.537405 5.5741491 0.30082431 9
-11.484133 6.1396847 0.20866318 17
-5.5649195 3.5179949 0.066648096 27
-18.413891 8.1868439 0.085115686 50
-11.475009 6.1348066 -0.021574702 19
-5.5582843 3.5138004 -0.049581405 26
-18.412394 8.1861782 -0.27081528 32
-11.578685 6.1902342 -0.25393406 28
-5.5262523 3.4935508 -0.16503549 26
-18.401487 8.1813297 -0.62688887 36
-11.562325 6.1814885 -0.48602858 31
-5.5566978 3.5127974 -0.28242615 32
-18.351994 8.1593246 -0.98051852 44
-11.51773 6.1576462 -0.71532917 27
-5.5516267 3.5095916 -0.3982605 24
-18.366131 8.1656094 -1.337477 51
-11.501303 6.1488643 -0.94514394 27
-5.5313473 3.4967716 -0.5127213 28
-9.5642443 4.2522774 -0.88169229 9
-7.8064852 4.1735287 -0.7981267 9
-5.5363483 3.499933 -0.62906468 31
-18.37365 8.168952 -2.0499201 39
-11.559664 6.1800656 -1.4137977 28
-11.529094 6.1637216 -1.6418078 28
-11.484723 6.1400003 -1.8659713 21
-11.415915 6.1032138 -2.0861957 4
-10.024884 5.3595362 -2.0330715 2
-9.0026064 4.8130031 -2.0078092 3
-8.1710072 4.3684106 -1.9865072 4
-7.4839396 4.0010881 -1.9699949 4
-6.9063334 3.6922867 -1.9562107 6
-4.9234295 2.63218 -1.9205954 6
-3.5776975 1.9127204 -1.891073 3
-2.0387285 1.1083218 0.61254328 11
-3.2917168 1.7894888 0.72400784 11
-4.7681131 2.5921078 0.75925881 0
-6.1864405 3.3631585 0.61134684 15
-11.343117 6.1665025 0.66420591 13
-11.337604 6.1635056 0.43553224 22
-5.4912596 3.5253251 0.18147522 25
-12.53097 5.6763921 0.30161342 9
-11.296924 6.1413903 0.20603567 18
-5.4830036 3.5200248 0.065959744 26
-18.41823 8.343257 0.085402898 51
-11.280787 6.132618 -0.021289516 16
-5.4629331 3.5071399 -0.048948068 27
-18.409445 8.3392763 -0.27162161 30
-11.387615 6.1906934 -0.25068542 27
-5.4478884 3.4974816 -0.16342045 24
-18.405836 8.3376417 -0.62900466 34
-11.371391 6.1818733 -0.47980502 28
-5.4748688 3.5148025 -0.27950746 22
-18.345533 8.3103256 -0.98324925 45
-11.330591 6.1596932 -0.70636022 21
-5.4564323 3.5029664 -0.39317632 26
-18.35594 8.3150396 -1.3409295 48
-11.286345 6.1356401 -0.93097693 19
-5.4564638 3.5029869 -0.50803465 25
-9.3709421 4.2449341 -0.86658335 8
-7.658155 4.1632323 -0.78591412 9
-5.4514675 3.499779 -0.6221813 27
-18.370544 8.3216553 -2.0560052 34
-11.372983 6.1827388 -1.396211 27
-11.346306 6.1682363 -1.6218709 26
-11.305907 6.1462746 -1.8438451 21
-11.327925 6.1582437 -2.0779223 6
-9.9733849 5.4218698 -2.0302548 2
-8.9618893 4.8719864 -2.0062654 2
-8.1368742 4.4234805 -1.9856687 4
-7.4318624 4.0402122 -1.9636635 5
-6.8940263 3.7478261 -1.9600883 6
-4.8949642 2.6610682 -1.9166917 6
-3.5419605 1.9255297 -1.8792433 4
-2.0580204 1.1374949 0.62071055 10
-3.2894549 1.818125 0.72628462 11
-4.8123078 2.6598258 0.76923448 0
-6.169786 3.4101217 0.61203879 23
-8.8664179 4.9005857 0.52117151 2
-11.157843 6.1670861 0.43027025 19
-5.4028721 3.5220878 0.17936246 23
-12.545503 5.7888694 0.3029286 9
-11.117257 6.1446543 0.20353632 16
-5.4013333 3.5210848 0.0652714 27
-18.417645 8.4984512 0.085673213 45
-11.101165 6.1357598 -0.021030858 14
-5.3880534 3.5124278 -0.04849568 25
-18.412516 8.4960842 -0.27253544 31
-11.176109 6.1771822 -0.24697271 19
-5.3663921 3.4983065 -0.1617045 24
-18.427044 8.5027876 -0.63174266 29
-11.167027 6.172163 -0.47298878 22
-5.3832412 3.5092907 -0.27607372 31
-18.341484 8.4633083 -0.986175 43
-11.137001 6.1555667 -0.69695371 18
-5.3749833 3.5039074 -0.38906056 25
-18.359047 8.4714127 -1.3454444 49
-11.121027 6.1467376 -0.92085761 16
-5.3617225 3.4952626 -0.50147331 24
-9.178215 4.2351027 -0.85147434 8
-7.5068688 4.1491451 -0.77334237 6
-5.3768682 3.5051363 -0.61644512 28
-18.384264 8.4830484 -2.0641189 34
-11.176393 6.1773391 -1.3773376 23
-11.139709 6.1570635 -1.5984449 15
-11.120639 6.146523 -1.8205844 22
-11.201706 6.19133 -2.0626481 11
-9.9352894 5.491365 -2.0302548 3
-8.9276571 4.9344335 -2.0062654 2
-8.105794 4.4801788 -1.9856687 4
-7.4205251 4.1014218 -1.9681859 4
-6.8439174 3.7827232 -1.9533025 5
-4.8663354 2.6896875 -1.912788 5
-3.5601616 1.967748 -1.8961428 5
-2.0365419 1.1442571 0.61662692 9
-3.2869539 1.8468168 0.7285614 12
-4.8005285 2.697238 0.77034289 0
-6.1875186 3.4765358 0.61619055 17
-8.8563681 4.9760633 0.52261007 1
-10.971621 6.1645446 0.42473838 20
-5.3281379 3.5266182 0.17769448 25
-12.544596 5.895021 0.30389306 8
-10.927643 6.1398349 0.20084472 17
-5.3232541 3.5233855 0.06462355 26
-18.426649 8.6591454 0.085994214 44
-10.90462 6.1268992 -0.020739039 14
-5.3133693 3.5168428 -0.048043296 28
-18.410671 8.6516371 -0.27339551 32
-11.003707 6.1825724 -0.24411084 19
-5.2884865 3.5003734 -0.16008946 24
-18.399801 8.6465292 -0.63286281 32
-10.977302 6.1677365 -0.46676525 22
-5.3186207 3.5203187 -0.27401346 31
-18.350657 8.623435 -0.98988092 43
-10.975366 6.1666489 -0.68951607 18
-5.2904606 3.5016801 -0.38470271 20
-18.360867 8.628233 -1.3499594 46
-10.938718 6.1460576 -0.9092927 17
-5.2839842 3.4973934 -0.49647418 24
-8.9716616 4.2160091 -0.83502239 8
-7.3735247 4.1429086 -0.76256663 4
-5.2891822 3.5008337 -0.60917938 29
-18.353407 8.6247282 -2.0673645 39
-10.990842 6.175344 -1.3597509 23
-10.95113 6.1530313 -1.5775112 16
-10.946281 6.1503072 -1.7990255 22
-11.03771 6.2016773 -2.0403733 18
-9.8589506 5.5393767 -2.0225084 3
-8.8861475 4.992795 -2.0047214 3
-8.0709095 4.5347428 -1.9848301 4
-7.3849173 4.1493096 -1.9663769 4
-6.8308754 3.8380141 -1.95718 6
-4.8639274 2.7328594 -1.9192941 6
-3.5400159 1.9890029 -1.8927629 6
-2.0520132 1.1718726 0.62377328 10
-3.2876222 1.8775095 0.73159707 13
-4.7712617 2.7247927 0.76868027 0
-6.1873202 3.5334816 0.61861241 24
-8.9081364 5.087297 0.52774781 3
-10.7964 6.1656542 0.4196113 27
-5.24365 3.523587 0.17569292 26
-12.539211 5.9997101 0.30476984 9
-10.759483 6.1445723 0.19853763 18
-5.2454085 3.5247686 0.063975692 28
-18.423483 8.8151913 0.086264528 45
-10.743482 6.1354342 -0.020513542 20
-5.2289286 3.5136945 -0.047500435 26
-18.418375 8.812748 -0.27441683 36
-10.82831 6.1838779 -0.2411716 20
-5.2141361 3.5037544 -0.15857537 24
-18.429153 8.8179045 -0.63597423 31
-10.795132 6.1649303 -0.46083805 21
-5.2474771 3.5261588 -0.27160984 30
-18.358484 8.784091 -0.9935869 41
-10.78638 6.1599321 -0.68032837 20
-5.2062345 3.4984448 -0.38034484 27
-18.354191 8.7820368 -1.3539431 48
-10.750039 6.1391788 -0.8971495 20
-5.2064805 3.4986103 -0.49147508 26
-8.776618 4.1993999 -0.81957763 7
-7.2268009 4.1271124 -0.75035405 1
-5.2117352 3.5021412 -0.60306078 26
-18.389671 8.7990141 -2.0783179 35
-10.819685 6.1789522 -1.3438799 22
-10.773498 6.152575 -1.5580727 16
-10.775858 6.1539235 -1.7780341 21
-10.860405 6.2022071 -2.0155528 18
-9.8234577 5.6100225 -2.0232127 3
-8.8238106 5.0391397 -1.998546 3
-8.0254698 4.5832195 -1.9814759 4
-7.3456197 4.1949682 -1.9636635 4
-6.770216 3.866364 -1.9474863 6
-4.8315916 2.7592461 -1.9140893 6
-3.5071545 2.0028808 -1.8826232 6
-2.0504725 1.1900514 0.62581509 9
-3.2880225 1.9082996 0.73463273 14
-4.7212887 2.7401373 0.76369244 0
-6.1900754 3.5925906 0.62138027 25
-7.5940604 4.407434 0.45170936 5
-10.621707 6.1646171 0.41448423 18
-5.1693764 3.5263104 0.17402495 26
-12.525782 6.1011133 0.30547127 9
-10.5918 6.1472592 0.19623055 17
-5.1711097 3.527493 0.063368328 27
-18.429817 8.9768772 0.086585529 48
-10.579306 6.1400084 -0.020281414 19
-5.151402 3.5140491 -0.047017891 29
-18.424721 8.9743948 -0.27543819 35
-10.667274 6.1910634 -0.23854177 29
-5.1300874 3.4995096 -0.15675847 26
-18.421059 8.9726105 -0.63784105 35
-10.648117 6.1799445 -0.45639268 32
-5.1633077 3.5221708 -0.26851946 29
-18.343407 8.9347878 -0.99612254 45
-10.622212 6.1649103 -0.67267191 29
-5.1421037 3.5077062 -0.37743959 26
-18.349846 8.9379234 -1.3581924 46
-10.606856 6.1559982 -0.88876492 27
-5.1325145 3.5011652 -0.48678839 27
-8.5894175 4.1837716 -0.80480444 5
-7.0841098 4.1114697 -0.73850065 0
-5.141109 3.5070279 -0.59770703 30
-18.374302 8.9498367 -2.0835917 34
-10.645581 6.178473 -1.3275801 35
-10.617009 6.1618905 -1.5416247 29
-10.605927 6.155458 -1.7570426 23
-10.68364 6.2005615 -1.9907322 17
-9.7772446 5.6745086 -2.0218041 3
-8.7918119 5.1025844 -1.9993179 3
-7.9898958 4.6371689 -1.9806374 4
-7.3161564 4.2461443 -1.9636635 5
-6.7598424 3.9232714 -1.9523332 6
-4.8187547 2.7967048 -1.9166917 6
-3.496223 2.0291348 -1.8843131 6
-2.0487771 1.2082669 0.62785685 8
-3.2881515 1.9391881 0.7376684 15
-4.661097 2.7488832 0.75704199 1
-6.1785741 3.6438155 0.62276417 24
-7.5459008 4.4501972 0.45068181 4
-10.447557 6.1614499 0.40935713 20
-5.0854602 3.5213411 0.17202339 28
-12.547375 6.2203827 0.30704948 10
-10.42805 6.1499448 0.19398755 18
-5.0871658 3.522522 0.06263949 28
-18.424038 9.133749 0.086855844 45
-10.412147 6.1405659 -0.020042654 19
-5.0807052 3.5180483 -0.046595663 27
-18.426123 9.1347818 -0.27640575 34
-10.499779 6.1922474 -0.23575723 29
-5.0595059 3.5033696 -0.15534532 26
-18.411699 9.1276321 -0.63970792 34
-10.484205 6.1830626 -0.45120639 30
-5.0925946 3.5262814 -0.26611584 29
-18.345013 9.0945721 -0.99963349 41
-10.455064 6.1658764 -0.66479671 28
-5.0715342 3.5116982 -0.37405014 26
-18.362093 9.1030388 -1.3637697 48
-10.443345 6.1589656 -0.8786456 29
-5.0587687 3.5028589 -0.48210174 26
-8.4064417 4.1675081 -0.79036695 3
-10.510789 6.1987405 -1.1002079 27
-5.0641236 3.506567 -0.5915885 32
-18.379114 9.1114779 -2.0912998 44
-10.482292 6.1819348 -1.3125671 31
-10.4575 6.1673131 -1.5246782 28
-10.450144 6.1629748 -1.7383205 22
-10.541447 6.2168207 -1.972276 23
-9.7068663 5.7246265 -2.0154662 4
-8.7390718 5.1538696 -1.9954582 3
-7.9404836 4.6829023 -1.9764447 4
-7.2863345 4.2971177 -1.9636635 4
-6.7289453 3.9683971 -1.9513638 6
-4.7925963 2.8264351 -1.9140893 6
-3.4819717 2.0534937 -1.8843131 6
-2.0402918 1.2225405 0.62785685 7
-3.2846396 1.9681523 0.73994517 14
-4.6485887 2.785429 0.7581504 2
-6.200841 3.7155368 0.62760794 17
-7.5009422 4.494556 0.44985977 2
-10.297982 6.1705389 0.40517452 21
-5.0084133 3.5199699 0.17024422 27
-12.546488 6.329443 0.30810162 8
-10.268215 6.1527028 0.19180863 19
-5.0166378 3.5257504 0.062072616 29
-18.438391 9.3017864 0.087227531 50
-10.252363 6.1432042 -0.019817157 21
-5.0102077 3.5212309 -0.046173438 28
-18.419035 9.2920218 -0.27726582 36
-10.343085 6.1975646 -0.23320474 33
-4.9825816 3.5018151 -0.1537303 27
-18.429628 9.2973652 -0.64257044 28
-10.320774 6.184196 -0.44602013 32
-5.0220804 3.5295753 -0.2637122 12
-18.355982 9.2602119 -1.0037296 46
-10.298703 6.1709709 -0.65757781 28
-4.9946303 3.5102832 -0.37017649 5
-18.355108 9.2597713 -1.368019 52
-10.270049 6.1538014 -0.86765891 29
-4.9852533 3.5036931 -0.47741508 25
-8.24547 4.1596689 -0.77794403 0
-10.347651 6.2003002 -1.0876362 28
-4.9939156 3.5097806 -0.58623475 29
-18.403877 9.2843752 -2.1014419 36
-10.312657 6.1793323 -1.2966962 32
-10.288225 6.1646924 -1.5062366 28
-10.271004 6.1543732 -1.7156271 24
-10.358901 6.2070417 -1.9461826 21
-9.676796 5.7983251 -2.0175788 3
-8.6826773 5.2026505 -1.9908266 2
-7.8975325 4.7321925 -1.973929 4
-7.2427874 4.33987 -1.9600455 4
-6.7044053 4.017272 -1.9523332 6
-4.7630138 2.8539922 -1.9101856 6
-3.4613309 2.0740254 -1.8809332 7
-2.0515285 1.2488204 0.6339823 6
-3.294302 2.0053298 0.74525756 14
-4.6425648 2.8260536 0.76036721 4
-5.735642 3.4914391 0.58297646 20
-5.7632637 3.5082533 0.34710515 2
-5.7710161 3.5129724 0.2280203 15
-4.9479098 3.5293086 0.16902104 28
-12.043042 6.1813145 0.29679111 22
-5.7530632 3.502044 0.10792039 13
-4.9430566 3.525847 0.061465252 29
-12.010242 6.1644793 0.057019737 27
-5.7469602 3.4983289 -0.011155441 21
-4.9268875 3.5143137 -0.045630574 28
-11.984358 6.1511931 -0.18104523 19
-10.180002 6.1968403 -0.23049755 26
-4.9189477 3.5086503 -0.15251903 25
-11.936954 6.1268625 -0.41767699 22
-5.7430234 3.4959326 -0.24923782 1
-4.9517684 3.5320611 -0.26130858 4
-12.042271 6.1809182 -0.66083086 17
-5.7486024 3.4993286 -0.36860234 12
-4.9244952 3.5126073 -0.36678705 5
-12.015805 6.1673346 -0.8987335 29
-5.7353439 3.4912577 -0.48659447 28
-4.918467 3.5083075 -0.4733533 31
-11.982149 6.1500597 -1.1345158 20
-10.188412 6.2019596 -1.0754236 31
-4.9174256 3.5075648 -0.58011615 30
-11.951961 6.1345649 -1.3695884 25
-10.163958 6.1870732 -1.2833989 26
-10.139842 6.1723938 -1.4907855 15
-5.7328372 3.4897318 -0.96163619 13
-10.197252 6.2073407 -1.9239078 27
-9.6999846 5.9046407 -2.0309589 8
-8.6360874 5.2570181 -1.9885108 2
-5.7328563 3.4897435 -1.438939 5
-7.2056565 4.3862767 -1.9582365 4
-6.6596217 4.0538902 -1.9474863 5
-4.7429729 2.8871748 -1.9101856 6
-3.4591546 2.1056802 -1.887693 8
-2.0657864 1.2773504 0.64112866 6
-3.3002641 2.0406725 0.74981111 13
-4.6395683 2.8688128 0.76313823 5
-5.6501184 3.4936724 0.57674885 22
-5.7012577 3.5252936 0.34484455 21
-5.671546 3.5069218 0.22505198 24
-4.8680887 3.5239077 0.16713068 27
-11.850708 6.1875029 0.29310861 20
-5.6502352 3.4937446 0.10644642 13
-4.8664813 3.5227439 0.060817398 28
-11.828629 6.1759753 0.056360845 27
-5.6543546 3.4962916 -0.011022796 22
-4.8503919 3.5110972 -0.045148034 17
-11.774486 6.1477056 -0.17851877 19
-5.6975245 3.5229855 -0.12955819 32
-4.8392677 3.5030446 -0.15080306 28
-11.741494 6.1304803 -0.41232535 23
-5.6742802 3.5086124 -0.24731149 33
-4.8590083 3.5173347 -0.25770313 4
-11.842997 6.1834769 -0.65224862 25
-5.6764736 3.5099688 -0.36553976 30
-4.8481054 3.5094423 -0.36291337 6
-11.820324 6.171639 -0.88731343 28
-5.6531458 3.4955442 -0.48167935 27
-4.8454008 3.5074842 -0.46866661 32
-11.769324 6.1450109 -1.1183995 22
-5.6925101 3.5198846 -0.60344416 27
-4.8476644 3.5091226 -0.57476246 28
-11.757159 6.1386595 -1.352144 22
-5.6724954 3.5075088 -0.71933824 34
-5.6643043 3.502444 -0.83635509 28
-5.6611862 3.5005159 -0.95369345 27
-5.699893 3.5244496 -1.0800104 28
-5.6799102 3.5120935 -1.1943504 30
-5.6715837 3.5069451 -1.3115216 26
-5.655129 3.4967704 -1.4255223 26
-5.6868629 3.5163927 -1.5521172 24
-5.6772485 3.5104477 -1.6673352 28
-4.7227011 2.9202168 -1.9101856 6
-3.428952 2.1202447 -1.8792433 8
-2.046993 1.2855706 0.63806593 5
-3.2693079 2.0532193 0.7460165 13
-4.6294913 2.9074538 0.76480085 5
-5.5614715 3.492764 0.57017523 20
-5.6054664 3.5203941 0.34052885 17
-5.5995288 3.516665 0.22316305 20
-4.8046989 3.5294018 0.16579629 27
-11.648285 6.1856842 0.28916311 25
-5.5715151 3.4990718 0.10542105 15
-4.8095336 3.5329533 0.060412489 30
-11.622719 6.1721072 0.055583686 24
-5.5722227 3.4995162 -0.010910048 21
-4.7870779 3.516458 -0.044786125 17
-11.579384 6.1490946 -0.17620733 20
-5.6016693 3.5180094 -0.12793387 24
-4.7760215 3.5083361 -0.14959179 28
-11.539512 6.1279211 -0.40672481 22
-5.6022563 3.5183783 -0.24523698 33
-4.7989058 3.5251465 -0.25581458 4
-11.64781 6.185432 -0.64386147 24
-5.5808029 3.5049047 -0.36094591 24
-4.7880907 3.5172019 -0.36025023 4
-11.611276 6.1660309 -0.87483102 24
-5.5711694 3.4988546 -0.47676426 27
-4.7725873 3.5058136 -0.46397996 27
-11.581805 6.1503806 -1.1046336 22
-5.6138186 3.5256398 -0.59769702 30
-4.7781224 3.5098794 -0.56940871 31
-11.566404 6.1422024 -1.3351053 23
-5.597352 3.5152981 -0.7129041 33
-5.5892997 3.510241 -0.8288787 29
-5.5796065 3.5041535 -0.9440487 29
-5.608264 3.5221512 -1.067282 29
-5.5852289 3.5076845 -1.1795619 28
-5.5904593 3.5109694 -1.2983987 29
-5.570961 3.4987237 -1.4104285 24
-5.6093812 3.5228527 -1.5376452 23
-5.5868745 3.508718 -1.6479475 27
-4.6957932 2.9490931 -1.9075832 6
-3.4171364 2.14606 -1.8809332 8
-4.6693926 2.9781704 1.4619367 4
-3.2846947 2.0950005 0.75284678 12
-4.6224403 2.9482238 0.76701766 5
-5.4865551 3.499362 0.56498551 19
-5.5133934 3.5164795 0.33641866 19
-5.5175424 3.5191259 0.22086936 20
-4.7382655 3.5317943 0.16435072 29
-11.442955 6.1794443 0.2851299 23
-5.5064874 3.5120749 0.10465202 15
-4.7398543 3.5329788 0.059845615 30
-11.424486 6.1694708 0.054840319 25
-5.500442 3.508219 -0.010817196 22
-4.7271347 3.5234978 -0.044454373 16
-11.384844 6.1480632 -0.17389588 18
-5.5331392 3.5290735 -0.12692834 28
-4.7097335 3.5105271 -0.14827959 25
-11.352217 6.130444 -0.40162206 23
-5.5000439 3.5079653 -0.24182884 25
-4.7261167 3.5227389 -0.25323924 4
-11.453182 6.1849675 -0.63547432 24
-5.4922175 3.5029736 -0.35678956 33
-4.7250047 3.52191 -0.35734499 4
-11.427473 6.1710839 -0.86420768 26
-5.4826984 3.4969022 -0.47127092 25
-4.7128258 3.5128322 -0.46054307 31
-11.391284 6.1515408 -1.0905318 22
-5.5218921 3.5219002 -0.59051317 32
-4.705616 3.5074582 -0.56367254 34
-11.376183 6.1433859 -1.3180665 22
-5.5089679 3.5136569 -0.70475417 37
-5.4910421 3.502224 -0.81791335 29
-5.4982557 3.5068247 -0.93440402 29
-5.5302668 3.5272415 -1.0570992 29
-5.5008488 3.5084786 -1.166886 27
-5.5095587 3.5140338 -1.2852758 28
-5.4936395 3.5038805 -1.3970119 25
-5.5288038 3.5263083 -1.5222688 22
-5.5098925 3.5142467 -1.6324375 27
-4.6719007 2.9797702 -1.9062819 6
-3.4081841 2.1737628 -1.8843131 9
-4.6679645 3.0233109 1.468062 7
-3.2897668 2.1306906 0.75740027 10
-4.6183701 2.9911902 0.76978868 6
-5.3950958 3.4942536 0.55806589 22
-5.4317098 3.5179675 0.33292499 18
-5.4257312 3.5140953 0.2181709 20
-4.665657 3.5286093 0.16268276 30
-11.269838 6.1879611 0.2818858 22
-5.4113393 3.5047743 0.10330622 16
-4.6736021 3.5346181 0.059319232 32
-11.22336 6.1624408 0.054080054 20
-5.4120264 3.5052195 -0.010691184 22
-4.6577573 3.5226347 -0.044032149 30
-11.183882 6.1407642 -0.17147693 16
-5.4311624 3.5176129 -0.12514934 27
-4.6372705 3.5071409 -0.1467655 28
-11.158449 6.1267996 -0.39627042 16
-5.4284492 3.5158558 -0.23975433 33
-4.6631598 3.5267205 -0.25117901 6
-11.266142 6.1859312 -0.62747723 22
-5.4106388 3.5043206 -0.35307074 26
-4.6620884 3.5259104 -0.35443974 5
-11.223184 6.1623435 -0.85199088 24
-5.3978777 3.4960556 -0.46606672 23
-4.6468391 3.5143774 -0.45648131 29
-11.194333 6.146503 -1.0757586 18
-5.450357 3.530045 -0.5854845 32
-4.6429062 3.5114031 -0.55908364 33
-11.165587 6.1307192 -1.2985938 16
-5.4342337 3.5196021 -0.69831997 35
-5.4231529 3.5124254 -0.81143385 31
-5.4171414 3.508532 -0.92475927 31
-5.4425302 3.5249758 -1.0450071 30
-5.4266477 3.514689 -1.1563227 28
-5.4190068 3.5097404 -1.269837 29
-5.4165201 3.5081298 -1.3835951 25
-5.4484544 3.5288126 -1.5068923 25
-5.4135642 3.5062153 -1.611111 26
-4.6509843 3.0123134 -1.9062819 6
-3.3898823 2.1955326 -1.8826232 9
-4.6758265 3.0749509 1.4772502 7
-3.2944999 2.166553 0.76195377 9
-4.6205444 3.0385959 0.77366811 4
-5.3206267 3.4989893 0.55287623 20
-5.3436017 3.5140982 0.32902032 18
-5.3476233 3.5167429 0.21601212 21
-4.6028428 3.5318866 0.16134837 28
-11.090181 6.1904721 0.27846634 26
-5.3366146 3.5095036 0.10234493 15
-4.6075592 3.5355058 0.058792852 31
-11.057821 6.1724086 0.053488739 24
-5.3372927 3.5099492 -0.0105917 23
-4.5886245 3.5209765 -0.043609921 31
-11.011519 6.1465635 -0.16948801 15
-5.3596916 3.5246794 -0.12406647 28
-4.5714316 3.5077839 -0.14545329 28
-10.972272 6.1246562 -0.3911677 16
-5.3636942 3.5273116 -0.23797618 30
-4.594038 3.5251303 -0.24877538 4
-11.069185 6.1787519 -0.61889505 20
-5.3159637 3.4959228 -0.34847686 29
-4.5930128 3.5243435 -0.35105029 5
-11.030033 6.156898 -0.84057081 22
-5.3066721 3.4898124 -0.46028423 26
-4.5747352 3.5103188 -0.45179462 29
-11.015415 6.1487379 -1.0626642 17
-5.3523517 3.5198524 -0.57758224 34
-4.5772133 3.5122204 -0.55411232 31
-7.3316169 4.092464 -0.85599273 2
-5.3430734 3.5137508 -0.68974113 37
-5.335495 3.5087669 -0.80196381 31
-5.3329663 3.5071042 -0.9145472 29
-5.3715954 3.5325077 -1.0360972 32
-5.3460503 3.5157084 -1.144351 28
-5.3484626 3.5172949 -1.25903 29
-5.333076 3.5071764 -1.3685014 25
-5.3650866 3.5282273 -1.4906114 23
-5.3532872 3.5204678 -1.6004479 27
-4.6203604 3.038475 -1.9023783 7
-3.377501 2.2211368 -1.8843131 8
-4.6478138 3.1032221 1.4752084 4
-3.2988927 2.2025833 0.76650727 8
-4.6189871 3.0839756 0.77699333 3
-5.2364159 3.4962163 0.54664856 22
-5.272428 3.5202608 0.32614321 19
-5.2730718 3.5206904 0.21398827 21
-4.5370564 3.5320036 0.1599028 27
-10.897132 6.1828861 0.27469617 20
-5.2521133 3.5066969 0.10119139 17
-4.5354223 3.5307312 0.058185488 30
-10.868342 6.1665516 0.05277916 20
-5.2527804 3.5071423 -0.010472319 23
-4.5260568 3.5234406 -0.043248013 29
-10.825713 6.142364 -0.16728407 13
-5.2750874 3.5220363 -0.1226742 28
-4.5152779 3.5150495 -0.1444439 26
-10.793631 6.1241608 -0.38631389 16
-5.2724524 3.520277 -0.23501259 32
-4.5283213 3.5252035 -0.24654344 5
-10.897209 6.18293 -0.61167818 18
-5.2416043 3.4996808 -0.34519553 28
-4.527339 3.5244386 -0.34790295 5
-10.861814 6.162847 -0.83100981 22
-5.2324119 3.4935429 -0.4559474 25
-4.5123563 3.5127749 -0.44804528 30
-10.840485 6.1507449 -1.0499055 13
-5.2812643 3.5261602 -0.57255352 32
-4.5117373 3.5122931 -0.54914093 31
-7.2024965 4.0865998 -0.84422791 6
-5.2721095 3.5200481 -0.68373591 35
-5.258059 3.5106668 -0.79398906 29
-5.2523723 3.50687 -0.90490246 30
-5.2811189 3.5260634 -1.0233687 30
-5.2624326 3.513587 -1.1316751 29
-5.2617607 3.5131383 -1.2443632 30
-5.2531667 3.5074003 -1.3542461 24
-5.2884779 3.530977 -1.4761394 24
-5.2640314 3.5146544 -1.5810603 28
-4.6021824 3.0727556 -1.9036795 6
-3.3528681 2.2386212 -1.8792433 9
-4.6548486 3.1551239 1.4843966 1
-3.2964392 2.2343743 0.76954293 7
-4.6104608 3.1250374 0.77921015 1
-5.1656985 3.5013857 0.54180485 20
-5.1848965 3.5143983 0.32223853 20
-5.1921082 3.5192862 0.21169458 20
-4.4683576 3.528898 0.15834603 30
-10.735915 6.1908898 0.2717151 20
-5.1778445 3.509618 0.10023011 17
-4.4729953 3.5325606 0.057699595 32
-10.693352 6.1663461 0.052137159 27
-5.1751904 3.5078194 -0.010366203 24
-4.4668193 3.527683 -0.042916264 30
-10.675159 6.1558547 -0.16561769 20
-5.2040243 3.5273633 -0.12159133 31
-4.4466949 3.5117898 -0.14303075 30
-10.646709 6.1394491 -0.38258019 25
-5.2080421 3.5300868 -0.23323444 30
-4.4722381 3.5319629 -0.24482657 5
-10.704955 6.1730366 -0.60329098 22
-5.1740651 3.5070567 -0.34235173 26
-4.4712901 3.5312138 -0.3454819 6
-10.70097 6.1707382 -0.82197994 31
-5.1385441 3.48298 -0.4498758 28
-4.4439096 3.5095901 -0.44367108 31
-10.686787 6.16256 -1.0391613 26
-5.2037554 3.5271811 -0.56680644 33
-4.4496102 3.5140924 -0.54455203 32
-7.0738201 4.0791345 -0.83246309 9
-5.1947351 3.5210669 -0.67687279 35
-5.1808581 3.5116608 -0.78601426 31
-5.1785979 3.5101287 -0.89639241 30
-5.2138782 3.5340424 -1.0150952 30
-5.1921444 3.5193107 -1.121816 29
-5.1883736 3.5167551 -1.232784 27
-5.1799898 3.5110724 -1.341668 25
-5.199192 3.5240879 -1.4580495 24
-5.1976056 3.5230124 -1.5684583 28
-4.5680943 3.0963209 -1.8984747 7
-3.3251536 2.2538373 -1.8724834 9
-4.6199632 3.1787753 1.4803129 0
-3.345469 2.301857 0.78472131 5
-4.6146393 3.1751122 0.78364378 0
-5.078752 3.4944458 0.53523123 24
-5.1240339 3.5256023 0.31997791 19
-5.114717 3.5191915 0.20953581 21
-4.4061685 3.530005 0.15701166 28
-10.55442 6.1848159 0.268208 22
-5.0972028 3.5071409 0.099140644 17
-4.401403 3.5261872 0.057092231 29
-10.529254 6.1700687 0.051545843 26
-5.1044407 3.512121 -0.010273352 25
-4.4077468 3.5312696 -0.042584516 29
-10.511144 6.1594558 -0.16373628 20
-5.1232615 3.5250707 -0.12027641 31
-4.3846231 3.5127439 -0.14181948 28
-10.479407 6.1408591 -0.37809974 25
-5.1239958 3.5255756 -0.23056722 30
-4.4069285 3.5306141 -0.24259463 5
-10.55474 6.1850033 -0.59724444 23
-5.1099701 3.5159256 -0.33972666 28
-4.4029064 3.5273919 -0.34209245 6
-10.533662 6.1726518 -0.812419 27
-5.0779495 3.4938936 -0.44669545 27
-4.3788433 3.5081136 -0.43960929 29
-10.502506 6.1543946 -1.0253954 22
-5.12321 3.5250351 -0.56070018 33
-4.3845744 3.5127051 -0.5395807 31
-6.9524703 4.0740986 -0.8215096 11
-5.1143293 3.5189247 -0.66958076 36
-5.1071706 3.5139992 -0.77853793 31
-5.0952501 3.5057974 -0.88618034 28
-5.1337719 3.5323024 -1.004276 29
-5.1155467 3.5197623 -1.1105486 28
-5.1087279 3.5150709 -1.2196611 30
-5.0973539 3.5072448 -1.3265743 26
-5.1423631 3.5382135 -1.4490045 25
-5.1089416 3.5152178 -1.5490707 28
-4.5494828 3.130281 -1.8997759 6
-3.3212848 2.2852168 -1.8792433 8
-1.7597935 1.2290193 0.56660253 4
-3.5579267 2.4848144 0.83860451 3
-4.5956087 3.2095194 0.78419799 0
-5.015027 3.5024364 0.53107947 26
-5.0370698 3.5178306 0.31607324 20
-5.0441384 3.5227671 0.20764688 21
-4.3565931 3.5405061 0.15612207 30
-10.397594 6.190835 0.26531461 21
-5.0201306 3.5060008 0.098115273 16
-4.3456378 3.5316031 0.056687322 30
-10.365632 6.171804 0.050954528 27
-5.0273271 3.5110264 -0.010167236 23
-4.3333206 3.5215933 -0.042101972 29
-10.347606 6.1610708 -0.16185486 21
-5.0460668 3.5241139 -0.11903884 28
-4.3258572 3.5155277 -0.14070915 28
-10.312613 6.1402354 -0.37361929 25
-5.0501003 3.526931 -0.22834451 32
-4.3449569 3.5310497 -0.24053438 31
-10.384289 6.1829123 -0.59002757 26
-5.0296335 3.5126374 -0.33600783 8
-4.3471885 3.5328634 -0.33967143 31
-10.359998 6.1684494 -0.8023268 26
-5.0076423 3.4972789 -0.44264773 31
-4.3232985 3.5134482 -0.43648484 29
-10.349692 6.162313 -1.0146512 23
-5.0560155 3.5310621 -0.55603069 33
-4.3166847 3.5080736 -0.53422695 34
-6.8383784 4.071641 -0.81136751 13
-5.0309491 3.513556 -0.66185981 37
-5.0271988 3.5109367 -0.77006471 34
-5.0219569 3.5072761 -0.87767029 30
-5.0507097 3.5273564 -0.99282044 31
-5.0359702 3.5170629 -1.098577 30
-5.0357976 3.5169423 -1.2080821 27
-5.0118203 3.5001967 -1.310642 27
-5.0600362 3.53387 -1.4327235 26
-5.036552 3.5174689 -1.53453 27
-4.5213165 3.1576345 -1.8971734 6
-3.2993057 2.3041964 -1.8758633 8
-1.7322389 1.2278557 0.56047714 5
-3.569329 2.5300326 0.84543478 3
-4.5860176 3.2506876 0.7864148 0
-4.9319329 3.4958818 0.5248518 30
-4.9667616 3.5205688 0.31319612 20
-4.9607148 3.516283 0.20521826 22
-4.2731485 3.5225112 0.1540093 28
-10.234362 6.1908288 0.26224586 22
-4.9498506 3.5085821 0.097218074 15
-4.2869267 3.533869 0.056241922 31
-10.205928 6.1736288 0.050380107 26
-4.9602695 3.5159671 -0.010081016 23
-4.2777653 3.5263171 -0.041800383 27
-10.19483 6.1669159 -0.16013472 14
-4.9756622 3.5268781 -0.11795596 28
-4.2703533 3.5202074 -0.13969976 28
-5.7607689 3.484725 -0.20958523 7
-4.976438 3.5274279 -0.22612183 33
-4.2862792 3.5333357 -0.23864581 30
-10.224644 6.1849508 -0.58339584 27
-4.9495945 3.5084004 -0.33228898 3
-4.2792864 3.527571 -0.33628199 30
-10.203988 6.1724558 -0.79356259 28
-4.9407921 3.502161 -0.43888912 30
-4.2617397 3.5131066 -0.43273553 29
-10.187053 6.1622114 -1.0028998 20
-4.9727383 3.5248055 -0.5495652 34
-4.2613649 3.5127976 -0.53040284 33
-6.7246642 4.0677915 -0.80122542 11
-4.9608741 3.5163958 -0.65585458 38
-4.9507585 3.5092258 -0.76208991 32
-4.9553547 3.5124834 -0.87029493 29
-4.9840775 3.5328429 -0.9845469 30
-4.9631081 3.5179794 -1.0880138 31
-4.9662938 3.5202374 -1.1972749 31
-4.9457817 3.5056977 -1.2997409 26
-4.9939165 3.5398171 -1.4209651 26
-4.9643812 3.5188818 -1.5199893 27
-4.5022473 3.1913092 -1.8984747 6
-3.2742651 2.3208838 -1.8707933 9
-1.7267642 1.2421776 0.56149805 6
-3.5165095 2.5296617 0.83708668 4
-4.5599957 3.2803116 0.7858606 0
-4.8621182 3.4976485 0.52000809 37
-4.8999057 3.5248315 0.31052449 22
-4.8841219 3.5134771 0.20305949 22
-4.2239127 3.531739 0.15311971 28
-5.727479 3.5194373 0.14738725 23
-4.8797822 3.5103552 0.096320875 18
-4.222261 3.5303578 0.055715539 30
-5.7151723 3.5118752 0.028332474 25
-4.8771544 3.5084653 -0.0099616367 24
-4.2192883 3.5278726 -0.041468631 28
-5.7010765 3.5032134 -0.089931317 24
-4.8989749 3.5241621 -0.11671839 29
-4.2057939 3.5165894 -0.13838755 32
-5.6749859 3.4871814 -0.20734502 24
-4.8965278 3.5224016 -0.22360277 31
-4.2216516 3.5298486 -0.23641387 31
-5.7186365 3.5140038 -0.32768473 23
-4.8698621 3.5032194 -0.32857016 5
-4.2147355 3.5240657 -0.33313462 33
-5.7060122 3.5062466 -0.44564858 26
-4.8773584 3.5086119 -0.43541965 33
-4.1973391 3.5095201 -0.42867374 31
-5.688262 3.4953392 -0.56238943 29
-4.9059672 3.5291922 -0.54489571 34
-4.2000818 3.5118134 -0.52581394 34
-5.6925344 3.4979644 -0.68114305 21
-4.9006915 3.5253971 -0.65113622 37
-4.8842554 3.5135734 -0.75561041 30
-4.8857121 3.5146213 -0.86235219 28
-4.9080005 3.5306547 -0.97436416 31
-4.890481 3.5180519 -1.0774505 32
-4.8906198 3.5181515 -1.184924 30
-4.8862619 3.5150168 -1.290517 26
-4.9121485 3.5336385 -1.4046842 28
-4.8924394 3.5194607 -1.5054486 29
-4.4706469 3.2160368 -1.8945711 7
-3.2726982 2.3542719 -1.8792433 9
-1.7180501 1.2542025 0.56149805 7
-3.4765594 2.5379407 0.83177423 4
-4.5529819 3.3237455 0.78863162 1
-4.802177 3.5056615 0.51620233 27
-4.8203282 3.5189123 0.30703083 20
-4.8271852 3.5239182 0.20171025 22
-4.1656094 3.5326936 0.15189654 30
-5.6450968 3.5233412 0.14589673 23
-4.8131623 3.5136809 0.095487759 17
-4.1700563 3.5364652 0.055351119 33
-5.6362228 3.5178025 0.028062159 25
-4.8105426 3.5117686 -0.0098754168 22
-4.1640506 3.5313718 -0.041167043 27
-5.6187992 3.5069277 -0.089017488 18
-4.8387208 3.5323391 -0.11586756 33
-4.1445446 3.5148296 -0.13717628 32
-5.6030197 3.4970791 -0.20560262 22
-4.8363037 3.5305746 -0.22197281 31
-4.1633797 3.5308027 -0.23452531 36
-5.6295686 3.5136495 -0.32397878 24
-4.8162537 3.5159378 -0.32660136 3
-4.1534896 3.5224154 -0.33022937 27
-5.6102934 3.5016189 -0.44007134 27
-4.8011885 3.50494 -0.43079367 32
-4.1392808 3.5103655 -0.42523685 31
-5.6096201 3.5011988 -0.55701733 25
-4.8297267 3.5257733 -0.53914863 33
-4.1450953 3.5152967 -0.52198982 34
-5.6038346 3.4975877 -0.67343503 30
-4.8213549 3.5196617 -0.64384419 37
-4.8083186 3.5101449 -0.7476356 33
-4.8098874 3.5112903 -0.85327482 29
-4.8385782 3.5322351 -0.96545422 33
-4.8244581 3.5219271 -1.0682957 31
-4.8278995 3.5244393 -1.1756607 31
-4.8079019 3.5098407 -1.2762617 27
-4.8433008 3.5356827 -1.3920212 26
-4.8144646 3.514632 -1.4889691 29
-4.4480858 3.2471695 -1.8945711 6
-3.2444694 2.3685117 -1.8724834 8
-1.7243448 1.2782787 0.56660253 8
-3.4326222 2.5446463 0.82570291 4
-4.5253129 3.3546717 0.78807741 1
-4.7283301 3.5051711 0.51101261 27
-4.7623134 3.5303631 0.30497575 21
-4.7498393 3.5211163 0.19955149 23
-4.1062665 3.5344412 0.15067336 29
-5.5515819 3.5217803 0.14414316 24
-4.7455082 3.5179055 0.094654642 16
-4.1046119 3.5330172 0.05482474 31
-5.5427337 3.5161672 0.027724264 26
-4.7300439 3.5064416 -0.009762669 20
-4.1077371 3.5357075 -0.040865455 31
-5.5220184 3.5030258 -0.087888643 19
-4.7612939 3.5296075 -0.11462999 31
-4.0944228 3.5242472 -0.13636877 28
-5.4995866 3.4887958 -0.20274012 25
-4.7589154 3.5278442 -0.21960193 33
-4.1131549 3.5403707 -0.23315181 36
-5.5361896 3.5120156 -0.32007775 26
-4.7518487 3.5226057 -0.32397631 4
-4.0972962 3.5267205 -0.32780835 24
-5.5339227 3.5105774 -0.43608761 25
-4.736908 3.5115297 -0.42732418 38
-4.0892582 3.5198016 -0.4227373 31
-5.5232224 3.5037897 -0.55097377 22
-4.7557464 3.5254951 -0.53376073 33
-4.0920558 3.5222096 -0.51854813 36
-5.5242829 3.5044625 -0.66694409 28
-4.7538924 3.5241206 -0.63826793 42
-4.7410107 3.5145714 -0.7411561 32
-4.7394872 3.513442 -0.84533209 31
-4.7713141 3.5370357 -0.95718074 32
-4.7542276 3.524369 -1.0584366 33
-4.7483344 3.5200005 -1.1625378 31
-4.7443409 3.5170398 -1.2661992 29
-4.7734313 3.538605 -1.3793583 26
-4.7480435 3.5197849 -1.4763671 31
-4.4241633 3.2796884 -1.8945711 6
-3.2270203 2.392231 -1.8724834 8
-1.712288 1.287961 0.56558162 8
-3.3739719 2.5378582 0.81583697 4
-4.539772 3.414758 0.79472786 3
-4.6623435 3.5069547 0.50651491 24
-4.6992412 3.5347085 0.30250964 23
-4.6931934 3.5301597 0.19820225 22
-4.0483575 3.5340974 0.14945018 28
-5.4764323 3.527966 0.14282799 24
-4.6760859 3.5172913 0.093757443 17
-4.0527282 3.5379128 0.054460321 33
-5.4608865 3.5179513 0.027437054 26
-4.6702857 3.5129287 -0.0096897138 24
-4.0437808 3.5301025 -0.040473387 28
-5.4436307 3.5068347 -0.08702857 20
-4.6917915 3.5291052 -0.11354712 29
-4.0335708 3.5211895 -0.1351575 29
-5.4314032 3.4989576 -0.20112218 23
-4.6926422 3.5297451 -0.2176756 32
-4.0582328 3.5427184 -0.23143493 35
-5.4577975 3.5159614 -0.31695697 25
-4.6792622 3.5196807 -0.32069498 4
-4.0304661 3.5184791 -0.3244189 28
-5.4354644 3.5015738 -0.43024477 22
-4.6708298 3.5133379 -0.4235656 30
-4.0255322 3.5141718 -0.41867551 34
-5.4416633 3.5055673 -0.54526591 23
-4.6928129 3.5298734 -0.52945042 33
-4.0343714 3.5218883 -0.51434165 38
-5.4327765 3.4998424 -0.6588304 30
-4.6910348 3.5285358 -0.6331206 40
-4.6814694 3.5213411 -0.73567349 33
-4.6737065 3.515502 -0.83795673 31
-4.6960101 3.5322781 -0.94699794 31
-4.6854529 3.5243373 -1.0485777 32
-4.6860056 3.5247531 -1.1532745 32
-4.6727872 3.5148103 -1.2536211 29
-4.6987891 3.5343685 -1.3648863 26
-4.6923413 3.5295186 -1.4666734 31
-4.4011588 3.3104949 -1.8945711 7
-3.2189329 2.4212396 -1.8775532 8
-1.7124785 1.3069217 0.56864434 10
-3.3343191 2.5446708 0.81052452 5
-4.5032272 3.436753 0.79251105 4
-4.5965667 3.507987 0.50201714 22
-4.6236424 3.5286508 0.29922149 22
-4.6303 3.5337317 0.19658318 21
-3.9936485 3.535769 0.1483382 27
-5.388083 3.5245192 0.1411621 25
-4.6164451 3.5231581 0.093052499 18
-3.9949877 3.5369544 0.054014917 31
-5.3792877 3.5187659 0.027149843 28
-4.6170311 3.5236053 -0.0096300244 25
-3.9830997 3.5264294 -0.040111478 27
-5.3520727 3.5009637 -0.085953481 19
-4.628891 3.5326564 -0.11261894 29
-3.9789507 3.5227563 -0.13414811 29
-5.3432732 3.4952075 -0.1987575 24
-4.6329336 3.5357418 -0.21604563 32
-3.994503 3.5365252 -0.22920299 31
-5.3662496 3.5102372 -0.31305593 28
-4.6196532 3.5256062 -0.31828865 4
-3.9759104 3.5200644 -0.32199785 34
-5.3574452 3.504478 -0.42599544 24
-4.5922747 3.5047119 -0.41865048 33
-3.9770148 3.5210421 -0.41617596 33
-5.3670225 3.5107429 -0.54022956 24
-4.6268868 3.531127 -0.52478087 36
-3.9709308 3.5156558 -0.50937033 38
-5.3582582 3.5050097 -0.65274519 30
-4.6093826 3.5177679 -0.62539959 39
-4.5999837 3.5105951 -0.72670186 33
-4.6081328 3.5168142 -0.83058131 31
-4.6304269 3.5338285 -0.93872446 30
-4.6200442 3.5259049 -1.0394229 34
-4.6082458 3.5169003 -1.1401516 29
-4.6015 3.5117526 -1.241043 27
-4.6399302 3.5410812 -1.3549368 26
-4.6213131 3.5268734 -1.4521326 30
-4.3749347 3.3388433 -1.8932698 7
-3.1904237 2.4348533 -1.8707933 9
-1.7063708 1.3212131 0.56966525 11
-3.2854192 2.5438428 0.80293536 6
-4.4478021 3.4438553 0.78696901 4
-4.5247002 3.5033965 0.49682742 24
-4.5609922 3.5314965 0.29675537 21
-4.5549417 3.5268118 0.19442441 24
-3.9450655 3.5421929 0.14744861 31
-5.3100452 3.5266497 0.13975924 25
-4.5379763 3.5136757 0.091963045 17
-3.9344838 3.532692 0.053529028 30
-5.3046103 3.5230401 0.026896421 27
-4.5512033 3.5239172 -0.0095438045 23
-3.9286213 3.5274282 -0.039809886 28
-5.2808561 3.5072639 -0.085200921 20
-4.559845 3.5306084 -0.11153606 30
-3.9304571 3.5290763 -0.1333406 29
-5.2721152 3.5014584 -0.19701511 24
-4.5575676 3.5288448 -0.21367475 32
-3.928086 3.5269475 -0.22679937 32
-5.2950191 3.5166702 -0.31032524 26
-4.5601888 3.5308745 -0.31588235 4
-3.9304426 3.5290635 -0.32030314 37
-5.2696791 3.4998407 -0.42094934 23
-4.5361505 3.5122623 -0.41575927 30
-3.9226639 3.522079 -0.41305152 32
-5.2826166 3.5084329 -0.53418601 25
-4.5611725 3.5316362 -0.52011138 35
-3.9225883 3.522011 -0.506311 35
-5.2673597 3.4983003 -0.64463151 31
-4.546977 3.5206449 -0.62025225 39
-4.5345674 3.5110364 -0.72022235 31
-4.5396376 3.514962 -0.82263863 31
-4.5650506 3.5346391 -0.93045092 32
-4.5579557 3.5291457 -1.0309722 32
-4.5525479 3.5249581 -1.1324322 32
-4.539762 3.5150583 -1.2309804 25
-4.5750446 3.5423772 -1.3431784 25
-4.5505514 3.5234125 -1.4375919 31
-4.3455372 3.3646734 -1.8906673 6
-3.176214 2.4592872 -1.8724834 9
-1.7127819 1.3444412 0.57476979 12
-3.2622972 2.5607269 0.80141753 3
-4.4435601 3.4879544 0.79029423 15
-4.4700184 3.508723 0.49336764 23
-4.4934773 3.527137 0.29387823 22
-4.4937148 3.5273235 0.19280532 23
-3.8889563 3.538677 0.14622544 28
-5.2334747 3.5260377 0.13835639 26
-4.4799662 3.5165312 0.091258101 18
-3.8843439 3.5344799 0.053164609 29
-5.2280512 3.5223837 0.026626106 29
-4.480535 3.5169778 -0.0094443215 25
-3.8785155 3.5291765 -0.039538458 30
-5.2077236 3.508688 -0.084394604 19
-4.5017247 3.5336106 -0.11068524 29
-3.8685179 3.5200794 -0.13202839 24
-5.1924095 3.4983702 -0.19489934 24
-4.4963317 3.5293772 -0.2118966 34
-3.8750515 3.5260243 -0.22508249 40
-5.2185655 3.5159926 -0.30720443 25
-4.4895444 3.5240498 -0.31260103 4
-3.8833272 3.5335548 -0.31836629 34
-5.1933913 3.4990318 -0.41670004 25
-4.4750981 3.5127101 -0.41228977 36
-3.8785734 3.5292292 -0.41086441 30
-5.2096477 3.509984 -0.52914965 24
-4.5000443 3.5322917 -0.51580107 34
-3.86675 3.5184705 -0.50210452 37
-5.2044401 3.5064757 -0.6397633 31
-4.4953723 3.5286245 -0.61639178 38
-4.4768405 3.5140779 -0.71473968 32
-4.4788494 3.5156548 -0.81583059 30
-4.5011253 3.5331399 -0.92217743 32
-4.4725032 3.5106733 -1.0168879 32
-4.4951086 3.5284173 -1.1239409 33
-4.470201 3.5088661 -1.2184023 28
-4.5085406 3.5389607 -1.3305154 27
-4.4873986 3.5223653 -1.4249899 30
-4.3231258 3.3934202 -1.8906673 7
-3.1569817 2.47806 -1.8707933 9
-1.7094052 1.3611842 0.57681161 11
-3.3057864 2.6323686 0.81659591 0
-4.4005079 3.5040853 0.78696901 24
-4.4048882 3.5075734 0.48886991 24
-4.4281192 3.526072 0.29120663 21
-4.4345789 3.5312161 0.19132116 23
-3.8318334 3.5359132 0.14500226 30
-5.1526165 3.5241094 0.13686585 25
-4.4208913 3.5203166 0.090553157 16
-3.8360577 3.5398116 0.052840684 31
-5.150507 3.5226665 0.02635579 28
-4.418323 3.5182717 -0.0093647344 23
-3.8273268 3.5317547 -0.039267026 28
-5.1335816 3.5110905 -0.083588287 19
-4.4394031 3.5350573 -0.10975706 30
-3.8056457 3.5117481 -0.13071617 33
-5.108459 3.4939079 -0.19265911 24
-4.4371853 3.5332916 -0.21026663 31
-3.8297822 3.5340207 -0.22388068 41
-5.1510215 3.5230184 -0.30466878 23
-4.4179659 3.5179873 -0.3093197 4
-3.8292212 3.5335028 -0.31594527 30
-5.112833 3.4968996 -0.4121851 28
-4.4067721 3.5090737 -0.40824205 30
-3.8216026 3.5264728 -0.40742752 32
-5.1225066 3.5035157 -0.52277035 24
-4.4285278 3.5263975 -0.51041317 36
-3.8157568 3.5210783 -0.49866283 35
-5.1239953 3.5045338 -0.63286668 33
-4.4239626 3.5227623 -0.60995764 38
-4.4056273 3.5081623 -0.70726329 33
-4.4170265 3.5172393 -0.80902255 34
-4.4361892 3.5324981 -0.91390395 33
-4.4232435 3.5221896 -1.0112542 33
-4.4335227 3.530375 -1.1146777 32
-4.4119401 3.5131888 -1.2091783 29
-4.4471474 3.541224 -1.3196614 28
-4.4232326 3.522181 -1.412388 32
-4.2963715 3.4211626 -1.8893661 7
-3.1396048 2.5000396 -1.8707933 9
-1.7028694 1.3755153 0.57783252 11
-3.3026042 2.6677222 0.82039046 0
-4.3297124 3.4973826 0.77865595 37
-4.3461933 3.5106952 0.48506412 24
-4.3692117 3.5292885 0.28894603 21
-4.3569508 3.5193846 0.18902747 22
-3.77494 3.532526 0.14377908 31
-5.0786128 3.5257869 0.13555068 24
-4.3619833 3.5234497 0.089848213 17
-3.7791264 3.5364435 0.05239528 43
-5.0699306 3.5197592 0.026068579 28
-4.3532023 3.5163567 -0.0092785144 24
-3.7704511 3.5283253 -0.038935278 45
-5.0596619 3.5126302 -0.082781963 18
-4.3741717 3.5332952 -0.10875153 32
-3.7635179 3.5218375 -0.13011055 30
-5.0445318 3.5021262 -0.19116564 23
-4.3750963 3.5340419 -0.20848848 36
-3.7787552 3.5360961 -0.22233549 44
-5.0639453 3.5156038 -0.30096281 25
-4.3466935 3.5110991 -0.30603838 30
-3.7694757 3.5274127 -0.31304002 33
-5.0456743 3.5029194 -0.40873253 27
-4.3511319 3.5146844 -0.40535083 36
-3.7648616 3.5230947 -0.40399063 34
-5.052084 3.507369 -0.51806974 24
-4.366612 3.5271888 -0.50610286 35
-3.7561946 3.5149844 -0.4940739 40
-5.0503707 3.5061798 -0.6267814 29
-4.3621368 3.5235736 -0.6048103 40
-4.3501544 3.513895 -0.70227909 34
-4.3523216 3.5156455 -0.80164713 32
-4.3776274 3.5360866 -0.90690327 33
-4.3648524 3.5257673 -1.0035079 33
-4.3507576 3.5143821 -1.1000109 32
-4.3599234 3.5217857 -1.2016314 28
-4.3798819 3.5379076 -1.3069985 29
-4.3653274 3.5261512 -1.4017248 33
-4.2635555 3.4439433 -1.8854625 7
-3.1248949 2.5241754 -1.8724834 9
-1.6962165 1.3898211 0.57885343 11
-3.2626345 2.6732898 0.81507802 0
-4.2714844 3.4999065 0.7725597 34
-4.2845888 3.510644 0.48091236 24
-4.3104768 3.5318556 0.28668541 21
-4.3106284 3.5319798 0.18808301 24
-3.7240827 3.5340226 0.14277831 30
-5.0015707 3.5243008 0.13414784 25
-4.3001552 3.5233982 0.089079186 19
-3.7282331 3.537961 0.052030861 40
-4.9929185 3.518204 0.025798263 30
-4.2976069 3.5213106 -0.0092121921 25
-3.7138112 3.5242751 -0.038603529 26
-4.979434 3.5087025 -0.081868142 19
-4.3060894 3.5282607 -0.10766865 32
-3.712734 3.523253 -0.12920208 36
-4.9709363 3.5027146 -0.18929878 24
-4.3163066 3.5366321 -0.2068585 34
-3.7307856 3.5403836 -0.22096199 34
-4.9968209 3.5209539 -0.29842716 4
-4.2942705 3.5185766 -0.30406958 32
-3.7244847 3.534404 -0.31134531 31
-4.972158 3.5035753 -0.40474877 25
-4.2802 3.5070474 -0.40101397 28
-3.7170327 3.5273323 -0.40149108 29
-4.972084 3.5035236 -0.51236194 23
-4.3049026 3.5272882 -0.50179255 34
-3.7084582 3.5191953 -0.49101463 31
-4.9802289 3.5092626 -0.62110186 32
-4.3035932 3.5262151 -0.60009193 38
-4.2978878 3.5215404 -0.69779325 34
-4.2878561 3.5133209 -0.79427177 31
-4.3131242 3.5340245 -0.89862978 35
-4.2792177 3.5062428 -0.98942351 32
-4.3018298 3.5247705 -1.0938354 32
-4.2989273 3.522392 -1.191569 28
-4.3189092 3.5387647 -1.2961445 29
-4.3045821 3.5270257 -1.3900923 31
-4.2364821 3.4712269 -1.8841614 7
-3.098784 2.5390363 -1.8674134 9
-1.6983697 1.411517 0.58293706 12
-3.2650347 2.7135739 0.82039046 0
-4.2164807 3.5043218 0.76701766 38
-4.2231989 3.5099053 0.4767606 21
-4.2427039 3.5261159 0.28380829 21
-4.2458968 3.5287697 0.18632901 22
-3.667628 3.5294378 0.14155512 33
-4.9345593 3.5288892 0.13300802 24
-4.2416177 3.5252132 0.088374242 18
-3.6717401 3.5333948 0.051585462 37
-4.9291935 3.5250521 0.025595527 28
-4.2329273 3.5179908 -0.0091259731 26
-3.671824 3.5334756 -0.038422573 33
-4.9125261 3.5131326 -0.08116933 19
-4.2475204 3.5301189 -0.10681783 32
-3.6621149 3.5241323 -0.12829363 33
-4.900835 3.5047719 -0.18755639 24
-4.2546206 3.53602 -0.20508035 31
-3.6829422 3.5441747 -0.21958849 44
-4.9201241 3.5185661 -0.29530635 4
-4.2358131 3.5203891 -0.30166328 32
-3.6738272 3.5354033 -0.30916637 39
-4.9021287 3.5056968 -0.4010306 26
-4.2187929 3.5062437 -0.3975445 31
-3.6607094 3.5227797 -0.39805418 36
-4.9053578 3.5080063 -0.5079971 25
-4.2434063 3.5267 -0.49748221 33
-3.6637163 3.5256734 -0.48833776 38
-4.9038205 3.506907 -0.61461091 32
-4.2360511 3.520587 -0.59408671 42
-4.2304659 3.5159452 -0.69081533 34
-4.2266817 3.5128 -0.78746372 31
-4.2549391 3.5362847 -0.8916291 33
-4.2455502 3.5284817 -0.98731083 33
-4.2469335 3.5296309 -1.086116 33
-4.2291131 3.5148206 -1.1789908 31
-4.2491503 3.5314734 -1.282577 28
-4.2440395 3.527226 -1.3784597 33
-4.2034183 3.4934657 -1.8802576 8
-3.0670414 2.5490215 -1.8589636 9
-1.6855171 1.4208468 0.58191615 12
