# .PCD v0.7 - Point Cloud Data file format
VERSION 0.7
FIELDS x y z intensity
SIZE 4 4 4 4
TYPE F F F F
COUNT 1 1 1 1
WIDTH 1427
HEIGHT 1
VIEWPOINT 0 0 0 1 0 0 0
POINTS 1427
DATA ascii
10.493485 14.374344 1.5451472 15
2.6380062 3.6136334 0.23017037 1
13.612456 18.64682 0.77918178 21
9.0075932 10.621388 0.38730282 33
2.2253788 3.5655034 0.092149913 33
13.594877 18.62274 0.36945432 18
9.0209618 10.637152 0.14119191 38
2.2195401 3.5561485 0.017705685 37
9.0522127 10.674002 -0.10552637 34
2.2363009 3.583003 -0.056764778 29
2.5938399 3.553133 -0.085082993 23
9.0573463 10.680056 -0.35348883 33
2.2438877 3.5951581 -0.1319242 35
2.6161129 3.5836434 -0.16447918 7
9.0234499 10.640086 -0.59936154 39
2.2190349 3.5553391 -0.2046079 33
9.038456 10.657781 -0.84736276 36
2.2252283 3.5652623 -0.27965909 41
9.0531836 10.675147 -1.0966799 34
2.2349415 3.5808246 -0.35556442 38
2.5979376 3.5587461 -0.3972674 39
9.0779638 10.704367 -1.3479958 18
2.2312918 3.5749772 -0.4296191 40
2.6075037 3.5718501 -0.47698516 19
2.6209078 3.5902116 -0.55823463 7
2.596113 3.5562468 -0.63087875 1
2.5892186 3.5468025 -0.70770276 3
2.6025572 3.5650742 -0.78942615 1
2.6196091 3.5884326 -0.87383318 1
2.6081662 3.5727577 -0.94839162 1
1.8585879 2.5459588 -0.73173827 5
1.7527391 2.4009635 -0.74254578 3
1.2377602 1.6955273 -0.72217506 13
1.2526603 1.715938 -0.99032062 16
2.5622592 3.4589057 1.1362678 18
5.1546884 6.958539 1.6734145 19
5.3691897 7.2481036 1.2619214 16
10.619674 14.335961 1.5489529 18
13.565518 18.312687 1.1724303 30
13.549553 18.291132 0.76825297 31
9.1414938 10.627967 0.38986036 35
2.2652035 3.5735238 0.092763662 34
13.52934 18.263847 0.36419928 27
9.162817 10.652758 0.14224468 39
2.2614446 3.5675938 0.017840842 36
9.1812849 10.674228 -0.1061597 38
2.2676847 3.5774381 -0.056926042 30
9.1890516 10.683258 -0.35570949 33
2.2732127 3.586159 -0.13217312 35
9.1522369 10.640456 -0.60296696 41
2.2566357 3.5600076 -0.20577821 36
11.34976 15.321536 -1.0443368 0
9.175127 10.667068 -0.85317326 40
2.2628849 3.5698662 -0.28125259 40
10.337271 13.954733 -1.2585536 1
9.1742964 10.666102 -1.1023039 35
2.2684216 3.5786009 -0.35690743 34
8.8759823 11.982077 -1.3444592 2
9.1732445 10.66488 -1.351055 13
2.2732394 3.586201 -0.43286458 41
7.7077484 10.405026 -1.3966399 2
6.8203006 9.2070217 -1.4389493 2
2.6397321 3.5634897 -0.6354174 0
2.637423 3.5603726 -0.71406698 13
2.6461327 3.5721302 -0.79505986 15
2.6469333 3.5732107 -0.87460512 3
4.3627996 5.8895335 -1.5714287 5
1.8508041 2.4984813 -0.72178876 2
1.2563212 1.6959629 -0.72607875 12
1.2840314 1.7333701 -1.0055304 15
2.6281719 3.496582 1.1546441 17
5.2243795 6.9506378 1.6802447 23
5.4268007 7.219944 1.263584 17
10.76499 14.321997 1.5555266 22
13.565825 18.048294 1.1615384 30
13.556818 18.03631 0.7615068 30
9.2627811 10.618125 0.39186195 34
2.2965899 3.5677106 0.093026698 34
13.538766 18.012295 0.36105907 25
9.2895508 10.648812 0.1430545 39
2.2992861 3.5718994 0.017942211 36
11.538493 15.351084 -0.031841423 0
9.3055401 10.66714 -0.10673272 23
2.3034289 3.578335 -0.057194814 28
11.35373 15.10527 -0.36547011 0
9.3054695 10.66706 -0.35732454 6
2.3090136 3.5870106 -0.13279539 34
11.408101 15.177608 -0.70385236 0
9.2867203 10.645567 -0.60691577 41
2.2944088 3.5643227 -0.2069485 38
12.495543 16.624365 -1.1390578 3
9.293993 10.653904 -0.85728902 36
2.2985537 3.5707614 -0.28258052 43
10.432044 13.879038 -1.2582644 1
9.3140726 10.676921 -1.1101151 33
2.3019793 3.5760832 -0.35825044 35
8.9043617 11.846574 -1.3361977 2
9.2370052 10.588578 -1.3495253 5
2.3089895 3.5869734 -0.43489298 43
7.7395797 10.296919 -1.3893479 2
6.8796411 9.1528368 -1.4379525 3
6.1736565 8.2135782 -1.4722395 4
5.5688219 7.4088917 -1.4936856 3
5.1077971 6.7955337 -1.5204023 4
4.7281442 6.2904348 -1.5477345 5
4.39676 5.8495531 -1.5689131 5
1.8869305 2.5104167 -0.72902477 1
1.284039 1.7083158 -0.73518723 11
1.2895663 1.7156694 -1.0004604 16
2.6642451 3.4935253 1.1597487 18
5.2751579 6.9171181 1.6810036 21
5.4962912 7.2070818 1.2680176 18
8.5206814 11.172852 1.2199259 1
13.594599 17.82609 1.1533179 50
13.616951 17.8554 0.75786388 33
13.657945 15.437498 0.57322598 33
2.3345685 3.5716748 0.093552768 31
13.591427 17.821932 0.35913652 24
13.641322 15.41871 0.2084069 35
2.3351088 3.5725014 0.018026685 36
8.5915318 11.265756 -0.023491422 0
13.628382 15.404083 -0.15507761 27
2.3371069 3.5755584 -0.05740983 28
11.524388 15.111501 -0.36755851 0
13.605882 15.378652 -0.51832247 27
2.3383739 3.5774968 -0.13304432 33
11.557414 15.154806 -0.7065196 0
13.698299 15.48311 -0.88814014 33
2.32798 3.561595 -0.20772871 37
12.502309 16.393812 -1.1292138 2
12.558763 14.195099 -1.149266 32
2.3387115 3.5780132 -0.28443959 40
8.5908442 11.264853 -1.0266768 0
10.717503 12.113933 -1.2672746 1
2.3508773 3.5966258 -0.36194375 32
9.006176 11.809464 -1.3390713 2
9.2711267 10.479102 -1.3437892 3
2.344861 3.5874212 -0.43692142 38
7.8161001 10.24896 -1.3902059 2
6.9409661 9.1014299 -1.4374541 3
6.218842 8.1545353 -1.4694028 2
5.6108303 7.3572731 -1.4911399 3
5.1503386 6.7534471 -1.518994 5
4.7743244 6.2603936 -1.5485065 4
4.4256315 5.8031654 -1.5647204 5
1.9185872 2.5157719 -0.73445171 1
1.8073435 2.3699021 -0.74448454 1
1.3096962 1.7173557 -0.74299455 8
1.3278944 1.7412186 -1.02074 14
2.6933024 3.4809577 1.1617905 18
5.3209162 6.8770165 1.6802447 22
5.5682883 7.196732 1.2730055 16
8.5692101 11.075273 1.2157741 21
8.629199 11.152805 0.72544771 18
8.6454792 11.173846 0.47681877 23
13.655903 15.219752 0.56866682 33
2.3660805 3.5652857 0.093815804 33
8.6395016 11.166121 0.22622268 21
13.647126 15.209971 0.20686823 37
2.3688397 3.5694435 0.018094264 36
8.6136732 11.132739 -0.02333888 19
13.634081 15.195433 -0.15393157 29
2.3664353 3.5658205 -0.057517339 26
8.6610203 11.193933 -0.2737352 11
13.622116 15.182097 -0.51489049 29
2.3854001 3.5943971 -0.13428888 35
8.6542482 11.18518 -0.52425885 9
13.699302 15.268122 -0.88127261 35
2.3638337 3.5619004 -0.20870396 37
8.6594524 11.191906 -0.77504933 20
12.556231 13.994148 -1.1400661 31
2.3702545 3.5715756 -0.28523633 37
8.6399813 11.16674 -1.0232072 22
8.5754023 9.5574427 -1.006071 0
2.3825412 3.5900891 -0.36295101 33
8.7739153 11.339844 -1.2927353 2
9.3148069 10.381523 -1.3395827 3
2.3808508 3.5875421 -0.43894982 40
7.8752918 10.178418 -1.3880612 2
6.9921923 9.0370569 -1.434962 3
6.2707729 8.1046581 -1.468268 3
5.6693063 7.3272929 -1.4930491 3
5.2021794 6.7235551 -1.5204023 4
4.8011007 6.2051811 -1.543103 5
4.4756103 5.7845011 -1.5680745 4
1.9599472 2.533133 -0.74349672 1
1.8285939 2.3633654 -0.7464233 1
1.330912 1.7201368 -0.7481994 2
1.3466737 1.740508 -1.0258099 15
2.7485824 3.5016198 1.1750622 19
5.3712215 6.8427916 1.6810036 25
5.6428547 7.1888452 1.2785475 19
8.5798864 10.930544 1.2064326 27
8.6427193 11.010592 0.72010446 37
8.6492233 11.018878 0.47277108 24
13.651491 15.002793 0.56410772 28
2.40432 3.5685802 0.094341874 32
8.6308126 10.995422 0.22397968 21
13.647994 14.998951 0.20528908 37
2.4071112 3.5727229 0.018195633 40
8.6244984 10.987379 -0.023159809 26
13.637538 14.987459 -0.15278552 32
2.41362 3.5823834 -0.058054887 28
8.6945086 11.07657 -0.27234292 27
13.622818 14.971282 -0.5109539 29
2.4193709 3.5909193 -0.13478671 35
8.6802931 11.05846 -0.52114707 27
2.3908749 3.5486245 -0.20889902 36
8.6535273 11.024361 -0.76761162 34
2.4085112 3.574801 -0.28682983 41
8.6462917 11.015142 -1.0148227 32
8.4996738 9.3410196 -0.98951149 1
2.4209092 3.5932024 -0.36496556 35
8.6954393 11.077756 -1.269747 24
9.3870564 10.31624 -1.3395827 2
2.4191792 3.5906346 -0.44138393 44
7.9535246 10.132576 -1.3893479 2
7.0575624 8.9911442 -1.4354604 3
6.3272004 8.0606833 -1.468268 3
5.7203221 7.2875361 -1.4930491 3
5.2465601 6.6839767 -1.5196981 5
4.8588443 6.1900368 -1.5477345 5
4.5182991 5.7561913 -1.5689131 4
1.9944246 2.5408432 -0.74982816 1
1.8714063 2.3841212 -0.75708652 5
1.3587918 1.7310641 -1.0258099 16
2.782598 3.4944479 1.1791458 22
5.4139695 6.7989826 1.6794858 26
5.712646 7.174067 1.2829812 19
8.5839977 10.779974 1.1963992 26
8.6497011 10.862486 0.71435016 30
8.6487408 10.861279 0.46858844 25
13.658279 14.801336 0.56010461 35
2.4382048 3.5649109 0.094692588 36
8.6351147 10.844168 0.22212119 22
13.641161 14.782784 0.20362896 47
2.4432852 3.5723391 0.018280106 42
8.6287365 10.836157 -0.022967475 25
13.657747 14.800759 -0.1518506 34
2.4521182 3.5852537 -0.058377411 31
8.681941 10.902973 -0.26955837 42
13.626668 14.767079 -0.50721914 29
2.4534092 3.5871415 -0.13528453 36
8.6776047 10.897528 -0.51640534 42
8.5260963 9.2396421 -0.5401293 0
2.4358895 3.5615258 -0.21065447 36
8.6581297 10.873071 -0.76126772 35
8.3748093 9.0756941 -0.74882656 4
2.4446752 3.5743711 -0.28815776 44
8.6459408 10.857763 -1.0058599 38
8.4970694 9.2081861 -0.98170036 2
2.4504356 3.5827935 -0.36563706 36
8.7080431 10.935752 -1.260408 30
9.4696493 10.262161 -1.3411124 2
2.4576664 3.5933657 -0.44381803 45
8.0092049 10.058136 -1.3867743 2
7.1152158 8.9354448 -1.4344636 3
6.3685217 7.9977303 -1.464864 3
5.7759786 7.2536011 -1.4943221 3
5.2980013 6.6533465 -1.5211066 4
4.8970504 6.1498241 -1.5461906 5
4.5510654 5.7153287 -1.5663974 4
2.0485218 2.5725789 -0.76339567 1
1.854161 2.3284962 -0.74351513 6
1.3843942 1.7385527 -1.0359497 16
2.8239372 3.495997 1.1862922 20
5.4563675 6.7549105 1.6779679 26
5.7825046 7.1586637 1.2874148 18
8.6214857 10.673285 1.1912096 39
8.6550398 10.714825 0.70859593 25
8.6414576 10.698009 0.46413597 27
13.665658 14.60344 0.55621266 33
2.4744358 3.5642273 0.09513098 37
8.6377287 10.693394 0.22026271 24
13.653843 14.590815 0.20229276 46
2.4795706 3.5716233 0.018364578 44
8.6413383 10.697863 -0.022801669 38
13.656889 14.594069 -0.15070455 30
2.4862118 3.5811894 -0.058592431 30
8.682456 10.748765 -0.26723793 38
2.4875124 3.5830629 -0.13578236 38
8.6781187 10.743396 -0.51195997 36
8.4975538 9.0806837 -0.53429192 0
2.4698079 3.5575612 -0.21143466 39
8.6635542 10.725366 -0.75514257 11
8.3806753 8.9557848 -0.74374241 2
2.4786735 3.5703313 -0.28922009 47
8.6463242 10.704034 -0.99718612 12
8.5883951 9.1777582 -0.98482484 3
2.4867537 3.5819702 -0.36731583 38
8.6990633 10.769324 -1.2481954 34
9.0377541 9.6579542 -1.2703664 2
2.4940395 3.5924649 -0.44584644 43
8.0767298 9.9988832 -1.3863454 2
7.1699414 8.8762922 -1.4329683 3
6.4092727 7.9345942 -1.46146 3
5.8165517 7.2008133 -1.4917763 3
5.3368979 6.6070085 -1.518994 5
4.9349322 6.1093807 -1.5446467 5
4.5859399 5.6773324 -1.5647204 4
2.0909154 2.5885255 -0.77244061 1
1.8386705 2.2762496 -0.73091322 3
1.3964977 1.7288456 -1.0359497 16
2.8531773 3.4821799 1.188334 21
5.4635668 6.6680474 1.6658252 25
5.8448939 7.133441 1.2901858 17
8.7361994 10.662154 1.1967452 32
8.7068453 10.626329 0.70674634 27
8.7235336 10.646696 0.46454075 28
13.659933 14.394567 0.55187595 35
2.5130792 3.5664797 0.095657051 32
8.7299147 10.654485 0.22071131 22
13.656255 14.390691 0.20083508 43
2.5228767 3.5803843 0.018499738 38
8.7436991 10.671308 -0.022874624 27
13.640046 14.37361 -0.14940771 30
2.5226712 3.5800927 -0.058861203 29
8.7040567 10.622925 -0.26561362 34
8.8549252 9.3311453 -0.32472119 0
2.5285864 3.5884871 -0.13665356 34
8.7174416 10.639262 -0.50988543 5
8.4534569 8.9080849 -0.52759612 1
2.5129943 3.5663593 -0.21299507 38
8.7356882 10.66153 -0.75492382 22
8.3935223 8.8449278 -0.73938453 1
2.5104351 3.5627275 -0.29001683 39
8.7461252 10.674269 -1.0000774 39
8.5644178 9.0250139 -0.97482657 3
2.5231791 3.5808134 -0.36899459 38
8.7083864 10.62821 -1.2388564 31
9.0391788 9.5253077 -1.2611886 2
2.5328114 3.5944831 -0.44828054 43
8.1387758 9.9330254 -1.3850585 2
7.229219 8.8229504 -1.4324698 3
6.4720378 7.8988428 -1.4631621 2
5.8616748 7.1539211 -1.4905034 3
5.3828931 6.5695887 -1.518994 5
4.9625378 6.0565634 -1.5400152 5
4.6304207 5.6512284 -1.5663974 5
2.145978 2.6190734 -0.78600806 0
1.8618956 2.2723632 -0.73382133 1
1.4108309 1.7218583 -1.0376397 15
2.8848338 3.4710994 1.1913967 21
5.509985 6.6297426 1.6658252 24
5.9097438 7.1107421 1.293511 17
8.8613634 10.662199 1.2036648 29
8.8318844 10.62673 0.71085656 26
8.8513079 10.6501 0.46737415 30
13.665826 14.200895 0.54809523 45
2.5448952 3.5586069 0.095920086 29
8.8628807 10.664024 0.22218527 26
13.648222 14.182602 0.19925593 38
2.5524645 3.5691915 0.018533526 36
8.8767891 10.68076 -0.023027165 28
13.648534 14.182926 -0.14841247 30
2.5569098 3.5754075 -0.05907622 28
8.8291292 10.623415 -0.26716059 40
8.8699436 9.2172356 -0.32290429 0
2.560554 3.5805032 -0.13702694 32
8.8553782 10.654998 -0.51358992 39
8.4461641 8.7768631 -0.52330393 1
2.5494506 3.5649772 -0.21397032 37
8.8609638 10.661718 -0.75929892 38
8.419076 8.7487144 -0.73623723 0
2.5445333 3.5581007 -0.29107916 42
8.8790827 10.683519 -1.0067272 39
8.5912676 8.9276485 -0.97076482 3
2.5597091 3.5793219 -0.37067339 37
8.8383923 10.63456 -1.2467587 47
9.1634369 9.5222197 -1.2692193 3
2.5763621 3.6026084 -0.45152602 37
8.2002974 9.8667889 -1.3837717 2
7.2906384 8.7722664 -1.4324698 3
6.5219626 7.8473778 -1.4620274 3
5.9064274 7.1067514 -1.4892306 3
5.4235926 6.5257931 -1.5175855 4
5.0122256 6.0308266 -1.542331 5
4.6572609 5.603725 -1.5622047 5
4.3508344 5.2350254 -1.5801566 5
1.8826751 2.2652786 -0.73576009 1
1.5037615 1.809361 -0.80935657 1
1.4344038 1.725908 -1.0460895 16
2.9326441 3.476465 1.2005849 20
5.5483055 6.5771666 1.6627896 25
6.0102406 7.1247616 1.3040409 16
8.9829636 10.648738 1.2095464 28
8.9559078 10.616665 0.71455568 26
8.9806929 10.646046 0.4700726 27
13.666195 13.994493 0.5439809 49
2.5920627 3.5689781 0.096709184 30
8.9846525 10.65074 0.22327474 25
13.65401 13.982015 0.19783875 38
2.5926623 3.5698037 0.018634895 22
9.014164 10.685724 -0.023179706 27
13.662706 13.990921 -0.14744738 31
2.590101 3.566277 -0.059237484 5
8.9609175 10.622603 -0.26878491 40
8.8674269 9.0804462 -0.32038081 0
8.9693279 10.632574 -0.51566446 42
8.473978 8.6775455 -0.52107197 0
2.5849059 3.559124 -0.21475053 31
8.9878101 10.654483 -0.76345527 39
8.4774017 8.6810513 -0.735753 1
2.5963459 3.5748756 -0.2940006 33
9.0111771 10.682183 -1.0127988 39
8.6035442 8.8102236 -0.96482837 4
2.595247 3.5733626 -0.3720164 16
8.9751902 10.639524 -1.2550201 33
9.2941923 9.5174637 -1.2776322 2
2.5933471 3.5707467 -0.44990328 3
8.2467594 9.7760143 -1.3794823 2
7.3470683 8.709487 -1.4309746 3
6.5767579 7.7963328 -1.46146 3
5.966002 7.0723195 -1.4911399 3
5.4611268 6.4738221 -1.5147686 4
5.0487065 5.9849238 -1.5400152 4
4.7057786 5.5784039 -1.5647204 4
4.3840671 5.1970353 -1.5783477 6
12.631504 14.973853 -4.893435 1
1.5243009 1.8069627 -0.8132602 15
1.4470166 1.7153472 -1.0460895 19
2.9669001 3.4676616 1.2046685 20
5.5787683 6.5203681 1.658236 25
6.0727105 7.0976791 1.3068119 17
9.1296263 10.670549 1.2192339 29
9.0765543 10.60852 0.71825486 29
9.119771 10.659031 0.47344568 29
13.667902 13.802147 0.54020011 41
13.66585 18.542683 0.50502712 31
9.1185913 10.657653 0.2247487 24
13.661228 13.795407 0.19654304 41
9.1431541 10.68636 -0.023318984 29
13.653096 13.787195 -0.14630134 30
9.0816574 10.614484 -0.27017716 41
8.8602619 8.9472866 -0.31785733 0
9.108305 10.64563 -0.51936895 45
8.5202913 8.6039762 -0.52021354 0
9.1242905 10.664312 -0.76870543 38
8.5377998 8.6216574 -0.735753 2
9.1399994 10.682673 -1.0188704 40
8.6031094 8.6876078 -0.95795459 6
9.2957878 12.613108 -1.3198524 1
9.1036377 10.640175 -1.2625632 31
9.4500637 9.542881 -1.2898694 2
8.0057335 10.862681 -1.3756737 2
8.3303204 9.7363348 -1.3820559 2
7.4102726 8.6609983 -1.431473 3
6.6413226 7.7622628 -1.4637294 3
5.9998264 7.0124936 -1.4873214 3
5.5113091 6.4415231 -1.5161771 5
5.0929174 5.9525137 -1.5407871 5
4.7344375 5.5335288 -1.5613662 4
4.4177089 5.163342 -1.5774431 5
1.9401305 2.267591 -0.74545389 1
1.5368787 1.7962773 -0.8132602 14
1.4707414 1.7189771 -1.0545393 16
3.0113149 3.470233 1.2128357 21
5.6318746 6.4901605 1.6605128 24
6.1506729 7.0880232 1.3129082 17
9.2456856 10.65471 1.2247696 17
9.2079926 10.611272 0.72277606 26
9.2437439 10.652472 0.47600922 32
13.684594 13.627392 0.53708661 45
13.608163 18.197025 0.49818823 33
9.2504416 10.66019 0.22615859 27
13.663677 13.606562 0.19520684 42
9.2699671 10.682692 -0.023451628 26
13.666821 13.609694 -0.14542672 29
11.392138 15.233727 -0.25565651 0
9.2132034 10.617276 -0.27187884 40
8.8686743 8.8316031 -0.31593949 0
11.35413 15.182901 -0.59017414 0
9.2321796 10.639145 -0.52218437 43
8.5405064 8.5048065 -0.51780993 0
11.374828 15.210581 -0.92726976 0
9.2561064 10.666718 -0.77351803 41
8.5355406 8.4998617 -0.73042673 1
10.973635 14.674098 -1.2192924 1
9.2666502 10.678869 -1.0246528 37
8.4487982 8.4134817 -0.93420881 1
9.2881336 12.420222 -1.3064222 2
9.2325287 10.639547 -1.2701062 34
9.8663044 9.8250628 -1.3372883 2
8.0718412 10.793779 -1.3740509 2
8.3798437 9.6569157 -1.3790534 2
7.4471464 8.5820761 -1.4269872 3
6.6901608 7.7097273 -1.4625947 3
6.0512247 6.9734187 -1.4879578 3
5.5484033 6.3939686 -1.5140644 4
5.1240602 5.9049563 -1.5376993 5
4.7703896 5.4973874 -1.5605277 4
4.4562016 5.1353173 -1.5783477 5
1.9889786 2.2920949 -0.75805587 1
1.5469024 1.7826473 -0.81195903 16
1.4922106 1.7196205 -1.0612992 16
3.0482435 3.4636424 1.2179402 20
5.6874256 6.4624782 1.6635485 24
6.2287946 7.0776224 1.3190043 15
12.62128 14.341242 1.6586286 20
9.3240747 10.594711 0.72606421 3
13.628201 15.485382 0.69620395 30
13.668135 13.422263 0.53274989 41
13.606753 17.932732 0.49354127 46
13.613072 15.468191 0.33016977 18
13.652742 13.407147 0.19370867 41
11.675647 15.387671 0.081584685 0
13.6148 15.470155 -0.034169342 20
13.664469 13.418663 -0.14440133 17
11.534475 15.201617 -0.25646284 0
9.3478699 10.621749 -0.27365783 27
8.8787584 8.7190409 -0.31412259 0
11.561349 15.237035 -0.59540129 0
9.3643265 10.640449 -0.52544433 4
8.5825644 8.428175 -0.51677978 0
11.550775 15.223098 -0.93292624 0
13.668326 15.530975 -1.1331514 20
8.5006638 8.3477478 -0.72243732 1
11.070986 14.590771 -1.2187612 2
8.4902573 8.3375282 -0.93233413 1
9.3770256 12.358253 -1.3067579 1
9.367116 10.643619 -1.2783676 26
9.8948822 9.7168856 -1.3319346 2
8.1469984 10.737164 -1.3740509 2
8.4470568 9.5981779 -1.3790534 2
7.5095 8.532856 -1.4274856 3
6.7412057 7.659862 -1.4620274 3
6.1049781 6.936933 -1.4892306 3
5.5903044 6.3521218 -1.5133601 4
5.1677523 5.8719869 -1.5384713 4
4.8215718 5.4786305 -1.5647204 4
4.4945178 5.1070075 -1.5792521 5
2.0203147 2.2956328 -0.76387215 1
1.5693054 1.7831622 -0.81716388 15
1.5089698 1.7146044 -1.0646791 17
3.0903769 3.4624751 1.2250866 20
5.7454782 6.4372649 1.6673431 25
6.3255343 7.087163 1.32898 15
11.444737 12.822746 1.4922122 1
13.648506 15.29186 1.054468 25
13.629496 15.27056 0.69080704 48
13.669591 13.237505 0.52919155 46
13.66575 17.751747 0.49117395 58
13.6142 15.253424 0.32760632 25
13.685668 13.253075 0.19285837 41
8.63274 11.21389 0.059773579 0
13.594621 15.231486 -0.033850994 27
8.6393566 11.222485 -0.19034477 5
13.698619 15.348007 -0.397879 31
8.9106865 8.6290264 -0.31311318 0
8.6213207 11.199057 -0.43995476 12
13.691775 15.34034 -0.76223505 29
8.6383238 8.3652725 -0.51660806 0
8.6542301 11.241806 -0.69262409 0
13.683335 15.330883 -1.125495 22
8.5157118 8.2465363 -0.71880573 5
8.6575909 11.246171 -0.94441384 2
9.3643723 10.491894 -1.0191596 0
8.5310688 8.2614079 -0.9304595 1
8.6363907 11.218633 -1.1926013 6
9.7489147 10.922736 -1.320034 5
8.9871101 8.7030344 -1.2015326 0
8.2290411 10.689487 -1.375268 2
8.5191555 9.5449076 -1.3799112 2
7.5609593 8.4713402 -1.4259903 3
6.7945166 7.6126137 -1.4620274 3
6.1558871 6.897089 -1.4898671 3
5.6266475 6.3041263 -1.5112475 4
5.2164602 5.8445501 -1.5407871 4
4.8544931 5.4390006 -1.5630432 4
4.5093055 5.0522504 -1.5720161 5
2.0724699 2.3220065 -0.77744347 1
1.5917906 1.7834507 -0.82236874 15
1.5305597 1.7148473 -1.071439 15
3.1340284 3.464849 1.2332538 19
5.7959499 6.4077568 1.6696198 26
6.3989735 7.0744343 1.334522 18
11.526855 12.743604 1.4918662 2
13.639757 15.079537 1.0460421 28
13.633932 15.073098 0.6859498 31
13.673251 13.066442 0.52596676 48
8.6606207 11.097062 0.30862769 44
13.615799 15.05305 0.32523516 26
13.66627 13.059771 0.19136021 45
8.6626244 11.099629 0.059469476 20
13.609477 15.046061 -0.03363876 29
9.8378572 9.4012604 -0.10260094 0
8.6397734 11.07035 -0.18873213 23
13.684751 15.129281 -0.39455304 56
8.9388103 8.5421124 -0.31210381 0
8.6289911 11.056533 -0.43659443 27
13.696685 15.142474 -0.75690061 39
8.702282 8.3160801 -0.51712316 14
8.6794357 11.121169 -0.68872309 22
8.4824877 9.3778791 -0.69257861 1
8.5500107 8.1705666 -0.71711099 15
8.6632318 11.100407 -0.93697751 32
8.4863625 9.382163 -0.91680986 1
8.5539589 8.1743402 -0.92702258 16
8.6492977 11.082553 -1.1842074 31
9.8024359 10.837158 -1.3175197 4
9.9773064 9.5345201 -1.3254335 0
8.3805485 10.738198 -1.3886555 2
8.5582628 9.4616528 -1.3760507 2
7.6276264 8.4327803 -1.427984 3
6.8475118 7.5703192 -1.4625947 3
6.204144 6.8590393 -1.4905034 3
5.6577692 6.2549901 -1.5084307 4
5.2445774 5.7981825 -1.5376993 5
4.8852119 5.4008837 -1.5613662 4
4.5610104 5.04246 -1.5783477 5
2.113857 2.3369908 -0.78713733 1
1.6111958 1.7812699 -0.82627237 15
1.5589234 1.7234797 -1.0832688 13
3.1790557 3.4656856 1.2414211 21
5.8485065 6.3758197 1.6718966 26
6.4990845 7.0850549 1.3450519 18
11.690967 12.745048 1.5015537 2
13.633986 14.863253 1.0376163 27
13.630733 14.859708 0.6805529 32
13.66811 12.880175 0.52229726 52
8.6783056 10.961082 0.30652341 31
13.623227 14.851524 0.32292807 21
13.666872 12.879008 0.19010498 45
8.6629333 10.941666 0.058945738 29
13.614141 14.841619 -0.033393368 25
9.6965685 9.1375828 -0.10045965 0
8.6448498 10.918825 -0.18717325 30
13.687309 14.921384 -0.39161381 66
8.9807663 8.4630451 -0.31149817 0
8.6339989 10.90512 -0.43298519 30
8.771759 8.2660875 -0.51780993 28
8.675025 10.956938 -0.68228644 30
8.4775543 9.2419081 -0.68689102 1
8.6097488 8.1134167 -0.71735311 37
8.673625 10.955169 -0.92980671 35
8.5112019 9.2785892 -0.91247302 1
8.616622 8.1198931 -0.92764747 10
8.6646032 10.943774 -1.1758136 29
9.8967047 10.789011 -1.320034 3
8.8468523 8.3368511 -1.1674981 0
8.4676619 10.695029 -1.3906839 3
8.6267958 9.4046049 -1.3764796 2
7.6702147 8.3617764 -1.4249935 3
6.8948426 7.5164952 -1.46146 6
6.2465391 6.8097396 -1.4892306 4
5.7092843 6.2240448 -1.5105433 5
5.2796216 5.7556429 -1.5361555 5
4.9201541 5.3637648 -1.5605277 4
4.5882006 5.0018816 -1.5756341 5
2.1747169 2.3707936 -0.80361676 1
1.6338192 1.7811277 -0.83147728 15
1.5807204 1.7232413 -1.0900286 13
3.2216122 3.4632294 1.2485675 21
5.8821754 6.3233318 1.6688609 25
6.5942569 7.0888186 1.3544734 16
11.855658 12.744818 1.5112411 4
13.64763 14.671186 1.0308344 27
13.630673 14.652957 0.67542577 36
13.672755 12.705507 0.51907253 53
8.6744823 10.800456 0.3037177 30
13.623063 14.644776 0.3204928 25
13.671481 12.704324 0.18893075 10
8.6589565 10.781124 0.058405105 33
13.613895 14.634921 -0.033141345 27
9.6839428 8.9988747 -0.099675514 0
8.6507378 10.770892 -0.18566813 26
13.693086 14.720051 -0.38882926 47
8.9927626 8.3565903 -0.30988315 0
8.6448269 10.763533 -0.42974931 20
8.6168623 9.2631168 -0.46898794 0
8.6787548 10.805775 -0.67662996 41
8.5418682 9.182498 -0.68689102 2
8.6603317 8.0476761 -0.71686894 49
8.6699171 10.794772 -0.9213081 35
8.4888172 9.1254692 -0.90322107 1
8.716918 8.1002588 -0.93233413 1
8.6684103 10.792895 -1.1660767 31
8.9162683 9.5849771 -1.180308 0
8.8406706 8.2152576 -1.1590852 0
8.4922829 10.573603 -1.3825703 3
8.7003679 9.3528852 -1.3777665 3
7.7284036 8.3080244 -1.4249935 3
6.9471493 7.4681773 -1.46146 2
6.2993064 6.7717471 -1.4905034 4
5.7552786 6.1869173 -1.5112475 5
5.3250213 5.7243915 -1.5376993 5
4.9628077 5.3350124 -1.5622047 4
4.6177001 4.9640222 -1.5738251 6
2.2202902 2.3868093 -0.81427997 0
1.6565189 1.780756 -0.83668214 15
1.590243 1.7095093 -1.0883387 16
3.2601864 3.4535828 1.253672 21
5.9175854 6.2686205 1.6658252 25
6.700429 7.0979028 1.3655574 17
12.02809 12.741605 1.5212746 5
13.653346 14.463271 1.0232306 24
13.652644 14.462527 0.67124319 32
13.680004 12.526633 0.51584774 51
8.6826649 10.649794 0.30126271 39
13.628466 14.436914 0.31812164 24
10.188959 9.3299198 0.13985573 0
8.6872015 10.655358 0.058067214 53
13.627449 14.435838 -0.032915846 27
9.6699972 8.8547125 -0.098861225 0
8.6814404 10.648292 -0.18464679 34
13.693552 14.505862 -0.3858127 45
9.039032 8.2769442 -0.30937845 0
8.6957054 10.665789 -0.42838028 8
8.5830059 9.0921555 -0.4635053 0
8.7918968 8.0506458 -0.51214421 1
8.671896 10.636584 -0.66999823 11
8.5678225 9.0760717 -0.68360966 4
8.7161455 7.9812813 -0.71662682 3
8.6756763 10.641221 -0.91360617 32
8.3884249 8.8860312 -0.88558459 3
8.7348862 7.9984412 -0.92795992 4
8.6717329 10.636385 -1.1560041 14
9.0245743 9.5599184 -1.1853367 2
8.8419218 8.0964527 -1.1514369 1
8.5796204 10.523404 -1.3841929 3
8.7468538 9.2657223 -1.3743349 4
7.7918205 8.2540359 -1.4254919 3
6.9908338 7.4055343 -1.4591907 3
6.346065 6.7225175 -1.4898671 4
5.8004756 6.1445632 -1.5112475 5
5.3722277 5.6909113 -1.5392432 5
5.0017815 5.29849 -1.5622047 4
4.6486144 4.9243731 -1.5720161 4
4.3635669 4.622416 -1.5878459 6
1.6954925 1.7960702 -0.84969431 13
1.615175 1.7109882 -1.0967885 17
3.3029387 3.4502947 1.2608182 20
5.9747839 6.2413406 1.6696198 20
6.779952 7.0824304 1.3716537 18
12.19391 12.737924 1.530962 5
13.651777 14.260833 1.0156268 27
13.645465 14.254238 0.66598117 32
13.689961 12.361153 0.51295662 41
8.7797403 10.616653 0.30205181 34
13.634888 14.24319 0.3159427 23
10.244939 9.2505188 0.13973425 0
8.7996149 10.640687 0.058320634 38
13.628321 14.236329 -0.032677084 22
9.6840782 8.7440977 -0.098378681 0
8.8116436 10.655233 -0.18582939 28
13.692163 14.30302 -0.38295081 36
9.0283327 8.1520014 -0.30705684 0
8.8234606 10.669521 -0.43099388 34
8.5329418 8.9136276 -0.45742995 0
8.8567839 7.9971046 -0.51265925 0
8.7841339 10.621966 -0.67292398 35
8.5674534 8.9496784 -0.67857832 3
8.822031 7.9657245 -0.72074258 1
8.8082552 10.651135 -0.91971457 42
8.3592157 8.732151 -0.8760435 8
8.8319483 7.9746799 -0.93233413 0
8.8270626 10.673878 -1.1667482 32
9.0552816 9.4592705 -1.1806672 1
8.9514236 8.0825577 -1.1583203 2
8.6528788 10.46325 -1.3841929 3
8.7838259 9.175704 -1.3700455 3
7.824554 8.1736355 -1.4210061 3
7.0314112 7.3451076 -1.4569213 3
6.3819194 6.6666398 -1.4873214 3
5.8323398 6.0925417 -1.5084307 5
5.4145408 5.6561027 -1.5400152 5
5.0359454 5.2606173 -1.5613662 4
4.6963515 4.9058728 -1.5765387 4
4.395731 4.5918403 -1.5878459 6
1.7079902 1.7841897 -0.84969431 13
1.6346017 1.7075272 -1.1018584 16
3.3458028 3.4465768 1.2679646 22
6.0100036 6.1910224 1.6673431 22
6.8816576 7.0889301 1.3821836 16
12.363036 12.735405 1.5409954 7
13.639704 14.050526 1.0074064 27
13.636045 14.046758 0.66071916 30
13.677377 12.177536 0.50928706 47
8.9024725 10.613316 0.3037177 34
13.633702 14.044344 0.31363565 25
10.109118 9.0005684 0.13702135 0
8.9276686 10.643353 0.058675423 38
13.618716 14.028906 -0.032418426 26
9.7239752 8.6576586 -0.098167561 0
8.9372234 10.654744 -0.18690448 25
9.082037 8.0861149 -0.3069559 0
8.9465494 10.665862 -0.43335855 34
8.517004 8.7735319 -0.45328093 0
8.9422455 7.9616528 -0.51437616 0
8.9042902 10.615481 -0.67643487 39
8.5351372 8.7922115 -0.67114061 1
8.916193 7.9384565 -0.72388989 0
8.9260025 10.641367 -0.9242295 41
8.3616171 8.6134653 -0.86997193 14
8.9737787 7.9897285 -0.94139504 2
8.9525948 10.67307 -1.1734632 31
8.5744429 8.8327017 -1.1099062 0
8.9630251 7.9801536 -1.1525842 2
8.7205992 10.39649 -1.3833816 2
8.8476706 9.1141586 -1.3700455 2
7.889719 8.1273537 -1.4225014 3
7.0825181 7.2958403 -1.4569213 2
6.4283056 6.6219234 -1.4873214 3
5.8335919 6.0092969 -1.4978675 4
5.4292912 5.5928192 -1.5330677 4
5.0562029 5.2084937 -1.556335 4
4.7304864 4.8729668 -1.5765387 4
4.4357901 4.5693941 -1.590754 6
1.730943 1.7830782 -0.85489917 12
1.6565837 1.7064793 -1.1086183 15
3.3942013 3.4479403 1.2771528 22
6.0806293 6.1769018 1.6749322 22
6.9726653 7.0830607 1.3904966 16
12.52992 12.728302 1.5506829 2
13.653389 13.869558 1.0012411 28
13.641229 13.857205 0.65626669 31
13.671914 12.002616 0.50595117 58
9.0333595 10.617915 0.30564663 30
13.636021 13.851914 0.31145671 19
10.114596 8.8796368 0.13625203 0
9.0535927 10.641698 0.059013318 36
13.632139 13.847972 -0.032219462 22
10.782136 9.4656715 -0.10818035 0
9.0684061 10.65911 -0.18808708 26
9.2220097 9.3680191 -0.25424343 0
9.1713228 8.0515337 -0.30806622 0
9.0777874 10.670137 -0.43609661 32
8.5443954 8.6796761 -0.45150277 0
9.0246391 7.9227591 -0.51592135 0
9.0351372 10.620006 -0.68072599 34
8.5598841 8.6954098 -0.66829681 4
9.121419 8.0077229 -0.73599511 2
9.0595579 10.64871 -0.93033791 37
9.0832815 7.9742413 -0.94701904 4
9.0733786 10.664955 -1.1795069 29
8.4737997 8.6079617 -1.0890729 1
9.0723782 7.9646697 -1.1594676 2
8.7929668 10.335356 -1.3833816 2
8.8887634 9.0294952 -1.366614 2
7.9351287 8.0607624 -1.4205077 3
7.1332793 7.2462177 -1.4569213 2
6.4660664 6.5684414 -1.4854121 3
5.8864517 5.9796495 -1.5006843 4
5.4764643 5.5631709 -1.5353836 5
5.0924416 5.173068 -1.556335 4
4.7589235 4.83427 -1.5747297 4
4.4675817 4.5383153 -1.590754 7
1.7513093 1.7790371 -0.8588028 12
1.6837169 1.7103746 -1.1187581 8
3.4400487 3.4460578 1.28532 22
6.1236038 6.1343007 1.6749322 23
7.0639248 7.0762644 1.3988097 15
13.567254 13.590954 1.6672782 24
13.645461 13.669297 0.99363726 27
13.641609 13.665439 0.65167928 29
13.679793 11.841455 0.50317121 54
9.1595163 10.615148 0.3074002 31
13.633496 13.657312 0.30921373 25
10.079568 8.7250395 0.13495632 0
9.1825409 10.64183 0.059368107 36
13.618273 13.642061 -0.031960804 30
9.7320099 8.4241877 -0.09705168 0
9.2079229 10.671247 -0.18943094 28
9.2448053 9.2609539 -0.25308323 0
9.2817297 8.0344172 -0.30988315 0
9.2095194 10.673097 -0.43883467 36
8.5624228 8.5773802 -0.44928005 0
9.1280737 7.9014111 -0.51866835 0
9.1612597 10.617167 -0.684627 35
8.5865202 8.6015196 -0.66567177 4
9.1831379 7.9490752 -0.73647928 2
9.1884346 10.648661 -0.93591517 39
8.4500608 8.4648209 -0.86679155 0
9.2533035 8.0098114 -0.95889193 5
9.2022953 10.664724 -1.1865578 31
8.4408083 8.4555531 -1.0772196 1
9.2511892 8.0079813 -1.1751463 7
8.9656324 8.9812937 -1.3687587 2
7.9884057 8.0023603 -1.4200093 3
7.1808963 7.1934404 -1.456354 3
6.508975 6.5203452 -1.4847757 3
5.9503078 5.9607024 -1.506318 4
5.5207143 5.5303583 -1.5369275 5
5.1422477 5.1512303 -1.5605277 4
4.7870517 4.7954135 -1.5729207 4
4.4854474 4.4932828 -1.5859072 7
1.7743756 1.7774751 -0.86400765 13
1.7750186 1.7781192 -1.1711471 2
3.487582 3.4476378 1.2945082 21
6.1669464 6.0963154 1.6756911 15
7.1585932 7.0766044 1.4082311 17
13.572072 13.416628 1.6568987 25
13.644909 13.488631 0.98706096 31
13.643805 13.487539 0.6474967 37
13.688098 11.69074 0.50061363 41
9.2928982 10.626413 0.30950448 36
13.644134 13.487864 0.30741933 28
10.100716 8.6268253 0.13447042 0
9.3082132 10.643927 0.059722897 38
13.637332 13.481141 -0.031794995 25
9.7420444 8.3204918 -0.096599296 0
9.3179874 10.655104 -0.19023725 13
9.2292299 9.1235256 -0.25099483 0
9.404747 8.0324125 -0.31220475 0
13.609589 15.562542 -0.64356607 29
8.604907 8.5063534 -0.44853917 0
9.2623253 7.9107733 -0.52330393 0
9.2919636 10.625345 -0.6891132 34
8.495676 8.3983736 -0.65429652 1
9.2903051 7.9346704 -0.74083716 2
9.316658 10.653584 -0.94175798 40
8.460619 8.363718 -0.86216557 0
9.3638372 7.9974723 -0.96482837 6
9.3226776 10.660466 -1.192937 18
8.4768686 8.3797817 -1.0747052 2
9.3555679 7.9904099 -1.1816473 2
8.7730532 10.031972 -1.3586349 2
9.022172 8.9188385 -1.3683298 2
8.0525932 7.9603653 -1.422003 3
7.2143664 7.1317391 -1.4535173 3
6.538034 6.4631524 -1.4815936 3
5.9897094 5.9211082 -1.506318 5
5.5433149 5.4798265 -1.5330677 5
5.1623912 5.1032653 -1.556335 5
4.8104372 4.755342 -1.5702071 4
4.5206685 4.4688926 -1.5878459 6
1.8049548 1.7842822 -0.8731162 13
1.7738806 1.753564 -1.1626972 2
3.5392599 3.4502027 1.3047172 18
6.2177935 6.061337 1.6779679 20
7.258882 7.0762291 1.4182068 18
13.568389 13.226972 1.6451354 25
13.672956 13.328907 0.98233426 30
13.651757 13.308242 0.64344895 34
13.683743 11.522781 0.49750009 34
13.673489 15.417073 0.4518064 31
13.634865 13.291776 0.30511224 22
10.093386 8.4994202 0.13357963 0
13.666036 15.408669 0.086991005 38
13.645189 13.30184 -0.031596031 23
9.7784767 8.2342415 -0.096388184 0
13.630424 15.368516 -0.27608323 27
9.2125158 8.9807043 -0.24882907 0
9.5492964 8.041254 -0.31513196 0
13.617096 15.353489 -0.63883674 27
8.6297359 8.4125891 -0.44676101 1
9.3937483 7.9102707 -0.52759612 0
13.705572 15.453247 -1.0084107 28
8.5083418 8.2942495 -0.65079641 3
9.4584732 7.9647737 -0.74979502 3
12.502538 14.096807 -1.2538183 5
8.4759521 8.2626743 -0.85782874 6
9.5201015 8.0166702 -0.97513902 4
8.4809637 8.26756 -1.0678806 34
9.4842186 7.986454 -1.1908252 3
8.8455162 9.9734573 -1.3590406 2
9.0870657 8.8584108 -1.3687587 2
8.0937614 7.890101 -1.4195108 3
7.2696509 7.0867271 -1.454652 3
6.585824 6.4201074 -1.4822299 3
6.030901 5.8791475 -1.506318 4
5.5870576 5.4464722 -1.5346116 4
5.2006936 5.0698304 -1.5571735 5
4.8351488 4.7134833 -1.5674937 5
4.5517578 4.4372234 -1.5878459 6
1.8254929 1.7795585 -0.87701982 12
1.7886757 1.7436678 -1.1643872 2
3.5772009 3.4388118 1.3098217 18
6.2712817 6.0286684 1.6810036 22
7.376646 7.0912695 1.4315077 17
13.568466 13.04355 1.6340641 27
13.664878 13.136232 0.97514147 30
13.652106 13.123955 0.63913143 32
11.195051 9.2943106 0.4046497 2
13.673813 15.202309 0.44829926 33
13.640827 13.113111 0.30318967 26
10.134011 8.4134188 0.13333668 0
13.663603 15.190957 0.086298317 40
9.7987938 8.1351156 -0.096026272 0
13.633068 15.157009 -0.27398682 27
9.228858 8.8718262 -0.2475915 0
9.6759634 8.0331402 -0.31745356 0
13.619678 15.142121 -0.6339829 29
8.6940193 8.3576784 -0.44705737 9
9.5286875 7.9108691 -0.53205997 0
13.700906 15.23243 -1.0002186 29
8.5458832 8.2152729 -0.64926511 7
9.698164 8.0515718 -0.76432121 2
8.4742746 9.4215527 -0.84322661 0
8.5276766 8.1977711 -0.85725051 15
9.5973139 7.9678445 -0.97732615 2
8.4337225 9.3764668 -1.0623285 0
8.5356026 8.2053909 -1.0675215 2
10.645667 8.8382044 -1.3288752 3
8.909605 9.9055452 -1.3582292 2
9.1200161 8.7671947 -1.3644692 2
8.1457853 7.8306537 -1.4190124 3
7.3189473 7.0358033 -1.454652 2
6.6361775 6.3794475 -1.4835029 3
6.0689588 5.8341722 -1.5056138 5
5.6136265 5.3964548 -1.5315238 4
5.2359605 5.0333996 -1.5571735 5
4.8735547 4.6850142 -1.5693027 5
4.5742307 4.3972697 -1.5849378 7
1.8515058 1.7798775 -0.88352591 12
1.8060323 1.7361634 -1.1677672 2
3.6291893 3.4403622 1.3200308 18
6.3417196 6.0117598 1.6885928 22
7.4662218 7.077754 1.4392666 18
13.569543 12.863519 1.6233387 27
13.657683 12.947073 0.96815413 29
13.653456 12.943066 0.63494879 32
11.343207 9.2843075 0.40765205 1
13.67181 14.988297 0.44479212 35
13.639159 12.929513 0.30113891 20
10.18631 8.3373985 0.13325569 0
13.674973 14.991765 0.085707001 38
9.9077168 9.3922176 -0.022635862 0
9.8801107 8.0867777 -0.096267544 0
13.646907 14.960996 -0.27215916 25
9.22962 8.749402 -0.24596719 0
9.7967911 8.0185804 -0.31957328 0
13.630754 14.943287 -0.62962693 10
8.7521544 8.2967796 -0.44705737 22
9.6764584 7.9200897 -0.53721058 0
8.5943327 8.1471691 -0.64860886 20
9.683075 7.9255056 -0.75875282 0
8.46453 9.2795973 -0.83579028 0
8.5904903 8.143527 -0.85782874 1
9.7298536 7.9637933 -0.98513722 2
8.3942165 9.2025127 -1.0492339 1
8.6071348 8.1593056 -1.0693173 2
10.719435 8.773756 -1.3304049 3
8.9544058 9.8166437 -1.354578 3
9.1694555 8.6923685 -1.3627535 1
8.185853 7.759943 -1.4165204 3
7.367888 6.9845366 -1.454652 2
6.6748204 6.3275294 -1.4822299 3
6.1152563 5.7970791 -1.5070223 5
5.6540122 5.3598337 -1.5322958 3
5.2567801 4.9832697 -1.5529808 5
4.9117985 4.6562376 -1.5711117 4
4.6048179 4.3652287 -1.5849378 7
1.8831018 1.7851239 -0.89263445 11
1.8233713 1.7285012 -1.1711471 2
3.6757212 3.4360707 1.3281981 17
6.3864036 5.9700217 1.6893517 21
7.5791168 7.0849719 1.4514591 17
13.574594 12.689554 1.6133052 24
13.651437 12.761388 0.96137232 37
13.664631 12.773722 0.63130587 35
11.504211 9.2827291 0.4110992 1
13.672922 14.78093 0.44146034 35
13.644361 12.754774 0.29928043 24
10.200688 8.2309179 0.13268882 0
13.659788 14.766731 0.084963635 38
9.8064861 9.1671209 -0.022257823 0
9.9394388 8.0201159 -0.096297704 0
13.639665 14.744978 -0.26995522 28
9.2729473 8.6683683 -0.2455031 0
9.9178839 8.0027237 -0.321693 0
8.6605721 9.3623962 -0.39701718 0
8.8040228 8.2300167 -0.44676101 9
9.8217077 7.9251194 -0.54218954 0
8.4428463 9.1270266 -0.60699695 0
8.6422472 8.0787888 -0.64795262 37
9.8500309 7.9479733 -0.76746857 0
8.3664932 9.0444851 -0.81985527 21
8.682106 8.1160488 -0.8612982 12
9.8907309 7.980814 -0.99576038 0
8.3851776 9.0646839 -1.0401686 2
8.6493359 8.0854149 -1.0675215 1
10.780425 8.6987066 -1.3304049 2
9.0308266 9.7626543 -1.3557951 3
9.2270107 8.6254263 -1.3623245 1
8.2398281 7.7026062 -1.4165204 2
7.4106841 6.9275212 -1.4535173 2
6.7217169 6.283473 -1.4828664 3
6.1325665 5.7327342 -1.5013885 5
5.6970272 5.3255911 -1.5338397 4
5.2857275 4.9411077 -1.5513036 5
4.9384928 4.6165118 -1.5693027 5
4.6408505 4.3382754 -1.5868765 5
1.9065709 1.782266 -0.89783931 11
1.8380424 1.7182053 -1.172837 2
3.7434785 3.448339 1.3435116 18
6.4675455 5.9576373 1.6992177 22
7.6891208 7.0829029 1.462543 19
13.585179 12.51411 1.6036178 26
13.659409 12.582487 0.95541257 69
13.663808 12.58654 0.62698835 35
13.640938 10.842719 0.48460111 45
13.682371 14.575342 0.43830392 43
13.643359 12.567702 0.29722968 22
10.245093 8.1434774 0.13248637 0
13.682799 14.575798 0.084439896 38
9.7704496 9.0001373 -0.022025695 0
10.066849 8.0017967 -0.0969612 0
13.643363 14.533788 -0.26791254 26
9.2950583 8.5622272 -0.24442023 0
10.054538 7.9920111 -0.32421649 0
8.6195154 9.1820621 -0.39203891 0
8.8317757 8.1354694 -0.44513103 8
9.9483624 7.9076161 -0.54596668 0
8.424757 8.9745922 -0.60095036 0
8.7041731 8.0179272 -0.64817137 5
9.9892921 7.9401498 -0.77376324 0
8.3697395 8.9159851 -0.81374687 26
8.7266941 8.0386724 -0.85985261 5
10.02389 7.9676499 -1.0032591 0
8.3859272 8.9332294 -1.0321105 2
8.7113018 8.0244942 -1.0678806 2
10.840783 8.616971 -1.3300225 3
9.093977 9.6874886 -1.354578 2
9.3016891 8.5683346 -1.3640403 2
8.2902308 7.636621 -1.4155234 2
7.4729152 6.8837433 -1.4557867 3
6.7617869 6.2286806 -1.4815936 3
6.2062812 5.7169714 -1.5091349 5
5.7416859 5.2890053 -1.5353836 4
5.3246818 4.9048786 -1.5521423 5
4.9750662 4.5828266 -1.5702071 5
4.6639638 4.2962518 -1.5839684 5
1.9334942 1.7810556 -0.90434539 11
1.8665873 1.7194237 -1.1829768 2
3.7846377 3.4377229 1.349637 17
6.526422 5.9281845 1.7037711 21
7.7970271 7.0823212 1.4736271 18
13.580769 12.335902 1.5928924 27
13.652293 12.40087 0.94883627 51
13.665528 12.412892 0.62307554 37
13.637618 10.685574 0.48182115 61
13.670743 14.360711 0.4347091 55
10.411891 8.1580982 0.13390355 0
13.671149 14.361138 0.083747216 41
9.7738266 8.8779192 -0.021893051 0
10.311377 8.0793409 -0.098770745 0
13.642459 14.331 -0.26592362 29
9.3486862 8.4917488 -0.24426553 0
10.18563 7.9808135 -0.32663903 0
8.6089783 9.0434771 -0.38867855 0
8.8587666 8.0467377 -0.44364926 2
10.094551 7.9094505 -0.55094564 0
8.4321117 8.8576841 -0.59704936 0
8.7983694 7.9918761 -0.65101516 0
10.148194 7.9514818 -0.78175271 0
8.3629847 8.7850676 -0.80710733 39
8.7589769 7.9560947 -0.85753959 1
10.189134 7.9835596 -1.0141946 0
8.3903761 8.8138418 -1.0250596 1
8.7789068 7.9741974 -1.0693173 1
10.903811 8.5435352 -1.3304049 3
9.1339483 9.594943 -1.3505212 2
9.3701124 8.5112104 -1.3653271 2
8.3462791 7.5812263 -1.4160219 2
7.5032043 6.8154311 -1.4523827 3
6.8021827 6.1786675 -1.4809572 3
6.2343831 5.6629148 -1.506318 5
5.7639432 5.2355976 -1.5315238 3
5.3587942 4.8675861 -1.5521423 5
4.9982862 4.5401235 -1.5674937 5
4.6967154 4.2661963 -1.5849378 7
1.9654799 1.7853162 -0.91345388 4
1.8865964 1.7136636 -1.1880467 2
3.8488777 3.4473426 1.3639297 17
6.5822768 5.8955793 1.7075658 20
7.8934941 7.070004 1.4824944 16
13.589378 12.171664 1.5838969 28
13.646291 12.222638 0.94246548 52
13.662516 12.237171 0.61902785 36
13.680239 10.565664 0.4807092 49
13.673454 14.164223 0.43164039 48
10.275239 9.2032728 0.22103173 0
10.550897 8.148778 0.13495632 0
13.67384 14.164622 0.0831559 39
9.8057718 8.7827826 -0.021826727 0
10.592291 8.180748 -0.10091203 0
13.653281 14.143326 -0.26420349 28
9.371994 8.3942585 -0.24333735 0
10.32338 7.9730606 -0.32926345 0
8.5969296 8.9054918 -0.38531822 0
8.9593906 8.0247002 -0.44587195 0
10.241245 7.9096251 -0.55592453 0
8.4410219 8.743988 -0.59334344 0
8.8807249 7.9542413 -0.65298396 2
10.282457 7.9414544 -0.78780526 0
8.3742151 8.6747828 -0.8023268 31
8.9183187 7.9879136 -0.86765891 0
10.329835 7.978045 -1.0226306 0
8.4018726 8.703433 -1.019016 1
8.8521681 7.9286637 -1.0714725 0
10.928526 8.4404325 -1.3261983 2
9.1896553 9.5194902 -1.3488985 2
9.3700542 8.3925219 -1.3567482 2
8.4049149 7.5280704 -1.4170188 2
7.5565004 6.768167 -1.4535173 3
6.8451519 6.1310296 -1.4809572 3
6.2884307 5.6323886 -1.5098391 5
5.8091245 5.2030864 -1.5338397 3
5.3926454 4.8300567 -1.5521423 5
5.0269575 4.5025191 -1.5665891 5
4.7263846 4.2333035 -1.5849378 7
2.0060709 1.7967871 -0.92646605 0
1.9255198 1.7246395 -1.2049464 2
3.8989406 3.4434302 1.3731179 20
6.6350493 5.8598814 1.7106014 22
7.9990745 7.064549 1.4930242 17
13.584414 11.997357 1.5735176 27
13.665415 12.068894 0.93794429 48
13.654724 12.059453 0.61484528 33
13.686855 10.419041 0.47837403 41
13.685284 13.979832 0.42892236 55
10.243312 9.0465937 0.21898098 0
10.734832 8.1718292 0.13657595 0
13.680055 13.97449 0.082598373 39
10.784276 9.5243568 -0.023856197 0
10.604589 8.0726824 -0.10048981 0
13.648166 13.941915 -0.26221457 25
9.3704166 8.2756777 -0.24179038 0
10.474243 7.9734578 -0.33229163 0
8.6085501 8.7938309 -0.38307801 0
9.0541439 7.9963546 -0.44779828 0
10.385249 7.9057121 -0.56073183 0
8.4403744 8.622036 -0.58905232 0
8.9899244 7.9396381 -0.65692157 0
10.44884 7.9541197 -0.79627889 0
8.373148 8.5533628 -0.79648399 8
9.0306835 7.9756355 -0.87315226 2
8.675025 6.6038132 -0.85422301 1
8.4540644 8.6360207 -1.0180088 1
9.0028563 7.9510598 -1.0829667 2
8.763135 6.6708865 -1.0577464 4
9.2892942 9.4892273 -1.3537667 2
9.1035042 8.0399485 -1.3099934 2
8.4483423 7.4613285 -1.4155234 2
7.5857601 6.6995215 -1.4501133 3
6.8907471 6.0857062 -1.4815936 3
6.3335004 5.5935626 -1.5112475 5
5.851191 5.1676006 -1.5353836 3
5.432097 4.7974691 -1.5538193 5
5.0582685 4.4673147 -1.5665891 5
4.7500057 4.195066 -1.582999 8
2.0497515 1.8102807 -0.94077945 0
1.9809916 1.7495539 -1.2319859 2
3.9520512 3.4415255 1.3833269 16
6.6787586 5.8159971 1.7113603 23
8.1258726 7.0761733 1.5074335 17
13.592709 11.836803 1.564868 26
13.658961 11.894498 0.93177897 43
13.666225 11.900824 0.61160707 34
13.70169 10.280043 0.47637245 31
13.69239 13.793132 0.42611665 49
10.251927 8.9275846 0.21782744 0
10.830012 8.125493 0.13706185 0
13.675833 13.776452 0.08199016 40
9.8188467 8.5504494 -0.021587968 0
10.766271 8.0776691 -0.10148505 0
13.601458 13.70153 -0.25947309 2
9.3887548 8.1759167 -0.24078487 0
10.606419 7.957736 -0.33471417 0
8.619031 8.6824455 -0.3808378 0
9.1459208 7.9644518 -0.44957644 0
10.536087 7.9049678 -0.56588244 0
8.4609547 8.5232058 -0.58632159 0
9.3162174 8.1127491 -0.67660952 3
8.9104538 6.6852951 -0.67546916 1
8.4214096 8.4833698 -0.79542166 1
9.2546272 8.0591154 -0.88934314 2
8.6379814 6.480866 -0.8460995 2
8.477643 8.5400171 -1.013644 1
9.1242418 7.9455729 -1.0908689 2
8.6884661 6.518743 -1.0432149 1
9.3497066 9.4184971 -1.3529553 1
9.1444159 7.963141 -1.3078487 2
8.4912462 7.3943477 -1.4140282 3
7.6383181 6.6516004 -1.4512479 3
6.9390216 6.0426393 -1.4828664 3
6.3664579 5.5440392 -1.5098391 5
5.8841648 5.1240487 -1.5346116 3
5.4566083 4.7517242 -1.5513036 4
5.0805173 4.4242167 -1.5638757 5
4.7703972 4.1541576 -1.5800909 7
2.065192 1.7984107 -0.94208068 0
2.12166 1.8475841 -1.3114144 1
3.9965215 3.4314873 1.3904732 16
6.7191992 5.7692289 1.7113603 20
8.2351866 7.0708838 1.5185176 18
13.596404 11.674125 1.5558726 30
13.662867 11.731191 0.92643577 48
13.667084 11.734812 0.60796416 34
13.705608 10.134214 0.47403729 17
13.68054 13.590107 0.42278486 53
10.247247 8.7984762 0.21641757 0
11.024767 8.1519442 0.13880296 0
13.67803 13.587613 0.081432633 40
9.8570576 8.4634523 -0.021541541 0
10.925318 8.0784092 -0.10245014 0
9.5937042 9.5302868 -0.18174404 1
9.3909883 8.0632772 -0.23939259 0
10.751741 7.9500632 -0.33754045 1
8.6709261 8.6136084 -0.3804644 0
9.2437592 7.9368629 -0.45165095 0
10.693842 7.9072514 -0.57137644 0
8.4805698 8.424511 -0.58359092 0
9.5514135 8.2010202 -0.68951607 2
8.8124418 6.5161042 -0.6645745 1
8.4407883 8.3849916 -0.79170346 0
9.3379068 8.0177002 -0.8919453 5
8.6028547 6.3611312 -0.83828837 3
8.4691896 8.4132051 -1.0055858 1
9.2641211 7.9543462 -1.1009264 2
8.5992985 6.3585024 -1.0271536 37
9.3813543 9.3193407 -1.3480871 1
9.2510805 7.9431491 -1.3151407 2
8.5426617 7.3348875 -1.4140282 3
7.687573 6.6006927 -1.4518154 3
6.9750457 5.9889035 -1.4815936 4
6.3960457 5.4917631 -1.5077264 5
5.9257493 5.0879583 -1.5361555 3
5.4896488 4.7135143 -1.5513036 5
5.1201491 4.396255 -1.5665891 5
4.7963376 4.1182246 -1.5791215 6
2.1063945 1.8085893 -0.95509279 0
2.1235042 1.8232801 -1.3046545 2
4.0646577 3.4409864 1.4057869 16
6.7473226 5.7120299 1.7083247 12
8.3599367 7.077209 1.5323727 18
13.595452 11.509399 1.5465311 29
13.665161 11.568412 0.92109251 47
13.669343 11.571953 0.60445619 35
11.342679 8.2651606 0.39030516 0
13.695095 13.415911 0.42032987 48
10.259581 8.6853762 0.21539219 0
11.162224 8.133667 0.13981523 0
13.686834 13.407819 0.080925792 44
9.8578968 8.3453255 -0.021415528 0
9.5971479 9.4015026 -0.18056144 0
9.4836798 8.0285273 -0.24032077 0
10.933019 7.9666505 -0.3414771 0
8.6937218 8.5164938 -0.37884647 0
9.3508072 7.9160423 -0.45416999 0
10.848907 7.9053602 -0.57669878 1
8.516345 8.3427334 -0.58203048 0
9.6480627 8.1676874 -0.69235986 5
8.7221889 6.3556671 -0.65440619 2
8.4620562 8.2895517 -0.78825092 6
9.4271479 7.980669 -0.89512563 2
8.5987101 6.2656908 -0.83360171 3
8.5106344 8.3371391 -1.0035713 1
9.3984823 7.9564023 -1.1102654 7
8.6338253 6.2912788 -1.0260065 2
9.4376593 9.245266 -1.3468701 1
9.3973675 7.9554582 -1.328009 2
8.5724554 7.2571192 -1.4105393 3
7.724401 6.5391879 -1.4501133 3
7.0227141 5.9451661 -1.4828664 3
6.4492545 5.4596968 -1.5112475 5
5.9671164 5.0515366 -1.5376993 4
5.5224214 4.6750746 -1.5513036 4
5.1477418 4.3578849 -1.5656847 5
4.8279333 4.0871468 -1.5800909 7
2.2777479 1.9282558 -1.0266597 0
2.1334143 1.8060684 -1.3029644 1
4.1212416 3.4397867 1.4170169 16
3.8925197 3.2488842 0.97976327 4
8.4699669 7.0694418 1.5434568 17
13.574512 11.329941 1.5351137 29
13.659719 11.401058 0.91533822 47
13.676138 11.414762 0.60121799 29
11.53002 8.2790594 0.3947531 0
13.69926 13.233843 0.41761184 47
10.258555 8.5622835 0.21411048 0
11.345446 8.1465263 0.14139438 0
13.690922 13.225788 0.080402054 40
9.8575706 8.227603 -0.021289516 0
11.274225 8.0953875 -0.10465175 0
9.553237 9.2286768 -0.17851877 0
9.5855532 8.0005636 -0.24148099 0
11.098805 7.9694281 -0.34490901 0
8.7155838 8.4194813 -0.37722853 0
9.5040445 7.9325328 -0.45891172 0
9.2580318 6.6476722 -0.48965314 0
8.5628862 8.2719727 -0.58125031 1
9.6649866 8.0668621 -0.68951607 2
8.6917534 6.2410598 -0.6488378 2
8.5111103 8.2219543 -0.78745413 11
9.5500164 7.9709029 -0.90148634 2
8.5806971 6.1613164 -0.82766527 2
8.537097 8.2470589 -0.99987799 1
9.5180273 7.9442034 -1.1178085 2
8.5384626 6.13099 -1.0095627 6
9.5134211 9.1902132 -1.3484929 1
9.6786137 8.0782366 -1.3597509 1
8.6137705 7.189467 -1.4090439 3
7.7729034 6.4876394 -1.4506806 2
7.0549521 5.8884025 -1.4809572 3
6.4751215 5.4044476 -1.5084307 5
6.0022373 5.0097561 -1.5376993 4
5.5339055 4.6188641 -1.5454339 4
5.1750484 4.3193445 -1.5647801 6
4.8682666 4.0632892 -1.5839684 7
2.337616 1.9510868 -1.0474792 0
2.1181374 1.7678993 -1.2860649 1
4.1869655 3.4453354 1.4313095 16
3.8999431 3.2091529 0.97596866 3
8.6078224 7.0831337 1.5595287 12
13.551733 11.151338 1.5236964 28
13.615594 11.203888 0.9071179 47
13.632014 11.2174 0.59582108 29
13.699407 9.692543 0.46669823 27
13.687077 13.038584 0.41445541 52
10.268667 8.4497967 0.2130851 0
11.513059 8.145668 0.14277107 0
13.681554 13.033322 0.079810739 34
9.9116802 8.1560421 -0.021282883 0
11.4872 8.1273718 -0.10609938 1
9.5566158 9.1038246 -0.17738993 0
9.7276411 8.0046005 -0.24364674 0
11.268422 7.9725838 -0.3484419 0
8.7365179 8.3225822 -0.37561059 0
9.6517897 7.9421854 -0.46335712 0
9.2324448 6.5320978 -0.48587599 1
8.5972843 8.1899462 -0.57968986 0
9.6439648 7.9357462 -0.68404716 0
8.6797037 6.1410251 -0.64472204 3
8.5711918 8.1650896 -0.78771973 3
9.7224951 8.0003662 -0.91247302 1
