# .PCD v0.7 - Point Cloud Data file format
VERSION 0.7
FIELDS x y z intensity
SIZE 4 4 4 4
TYPE F F F F
COUNT 1 1 1 1
WIDTH 1366
HEIGHT 1
VIEWPOINT 0 0 0 1 0 0 0
POINTS 1366
DATA ascii
-8.382062 -0.23852602 -0.55799025 2
-18.322025 0.8095727 -1.3290997 44
-18.337322 2.1541424 -1.4466176 43
-7.6896429 -0.21882203 -0.64800692 37
-18.311779 0.80912 -1.6526467 27
-18.317179 2.1517761 -1.7713238 37
-7.5776405 -0.21563482 -0.77282757 0
-7.6878672 0.33969429 -0.83000565 16
-7.5889268 0.33532253 -0.95398307 20
-7.5316563 0.33279198 -1.0802096 5
-7.5589967 0.33400005 -1.2193872 60
-7.426795 0.32815862 -1.3295598 35
-7.4459438 0.3290047 -1.4659091 74
-7.4043446 0.32716662 -1.5890381 32
-7.4426432 0.32885888 -1.7293986 18
-7.5368443 0.33302122 -1.8844765 6
-5.671905 0.25061744 -1.9531257 6
-1.5864066 0.07009659 -0.74020553 11
-2.0625587 0.10556703 0.54516351 16
-3.6005902 0.18428743 0.6966868 35
-3.5962245 0.18406397 0.50377101 20
-6.4034982 0.3277474 0.55668199 5
-14.801027 0.75755447 0.76243937 5
-14.744294 0.75465071 0.49827155 33
-13.462724 1.6768732 0.37729499 2
-13.361709 -0.28688887 0.29302093 3
-14.738813 0.75437021 0.23647639 13
-15.229529 1.8969407 0.15536375 28
-18.363604 -0.39428443 0.077580631 36
-18.375921 0.94052666 -0.030508341 22
-18.365557 2.287554 -0.13954572 35
-18.346115 -0.39390892 -0.24662575 43
-18.344553 0.93892115 -0.35526016 44
-18.388006 2.2903504 -0.46775195 39
-18.322899 -0.39341044 -0.57050991 37
-18.351357 0.93926936 -0.68118089 47
-18.357084 2.2864988 -0.79474205 44
-18.313961 -0.39321855 -0.89430624 49
-18.328503 0.93809962 -1.0051796 42
-18.352219 2.2858927 -1.1214241 51
-8.3915043 -0.18017375 -0.55852145 2
-18.343819 0.9388836 -1.3311235 40
-18.345581 2.2850659 -1.4484923 38
-7.679028 -0.16487619 -0.64699966 27
-18.301708 0.93672824 -1.6522875 47
-10.028009 1.2490563 -0.97055691 10
-7.5590692 -0.16230056 -0.77079916 0
-9.6592607 0.49438569 -1.0431906 3
-7.7013469 0.39417464 -0.96843737 7
-7.4896059 0.3833372 -1.0745362 9
-7.497323 0.38373217 -1.2098408 3
-7.432188 0.38039839 -1.3309683 36
-7.4513054 0.38137686 -1.467453 145
-7.4253163 0.3800467 -1.5940694 255
-7.4674048 0.3822009 -1.7357302 11
-7.5265841 0.38522983 -1.8825377 6
-5.6700172 0.29020599 -1.9531257 4
-1.5967408 0.081725284 -0.74527544 11
-2.0540495 0.11951454 0.5431217 15
-3.6109779 0.21010417 0.69896358 5
-3.6106708 0.2100863 0.50598782 2
-6.4129882 0.3731387 0.55771995 5
-9.2959642 0.5408842 0.47904208 1
-18.394398 1.0702751 0.62186128 41
-13.454653 1.7713417 0.37740618 2
-13.387378 -0.19394715 0.293547 5
-16.685635 0.970851 0.26781434 6
-15.231777 2.0053051 0.15552571 19
-18.35791 -0.26595682 0.077546842 42
-18.34894 1.0676302 -0.030475179 33
-18.372932 2.4188466 -0.13972667 35
-18.348419 -0.26581931 -0.24662575 35
-18.345535 1.067432 -0.35541487 48
-18.379498 2.4197109 -0.46795383 38
-18.325199 -0.2654829 -0.57050991 37
-18.356325 1.0680598 -0.68162543 51
-18.348598 2.415643 -0.79508543 48
-18.320255 -0.26541129 -0.89450127 42
-18.361378 1.0683539 -1.0073673 43
-18.343729 2.4150016 -1.1219083 53
-8.4005394 -0.12170125 -0.55905259 2
-18.332832 1.0666929 -1.3308344 38
-18.337088 2.4141273 -1.4491172 36
-7.6760068 -0.11120472 -0.6466639 32
-18.322561 1.0660952 -1.6548018 44
-7.595829 -0.11004316 -0.7744503 0
-9.6158714 0.55949795 -1.0389011 0
-18.289164 1.0641521 -2.300724 46
-7.692297 0.44757506 -1.1040378 3
-7.5417695 0.43881667 -1.2174779 26
-7.4568672 0.4338766 -1.3358978 33
-7.4484606 0.43338749 -1.467453 32
-7.4341955 0.43255749 -1.5965849 24
-7.5306816 0.43817151 -1.7511066 5
-7.5237107 0.43776593 -1.8825377 6
-5.671629 0.33000281 -1.954427 4
-1.5780346 0.091817692 -0.73682559 12
-2.0493057 0.13359998 0.54210085 14
-5.3259568 0.34721404 1.0313697 22
-5.7397995 0.37419361 0.80470347 0
-6.3903441 0.41660446 0.55599004 6
-9.3437834 0.60914743 0.48171371 1
-13.50363 0.8803395 0.4567152 4
-13.469684 1.8690703 0.37818459 2
-10.94906 -0.082173452 0.24006324 4
-13.872767 0.90440458 0.22276205 5
-15.229294 2.113236 0.15564719 22
-15.079441 -0.11317224 0.063693158 4
-18.337049 1.1954436 -0.030468548 10
-18.379374 2.5503449 -0.13990763 39
-18.349827 -0.13771671 -0.24662575 28
-18.341627 1.195742 -0.3554922 46
-18.374041 2.5496051 -0.46825662 39
-18.334604 -0.13760246 -0.57075888 38
-18.360388 1.1969651 -0.68206996 49
-18.339205 2.5447712 -0.79542881 41
-18.309677 -0.13741538 -0.89391613 53
-18.325575 1.1946956 -1.0058359 43
-18.354107 2.5468388 -1.123603 53
-8.4171486 -0.063171275 -0.56011492 2
-18.348827 1.1962115 -1.3325691 39
-18.323738 2.542625 -1.4494296 40
-7.6726103 -0.05758347 -0.64632815 42
-18.310698 1.1937257 -1.6544427 48
-9.9662104 1.3829238 -0.96635044 0
-7.7277279 -0.05799713 -0.78783786 2
-9.5879202 0.62506342 -1.0363275 0
-18.273371 1.1912923 -2.2997272 69
-15.942987 1.039368 -2.2892046 1
-7.629158 0.49736622 -1.2321156 11
-7.5440273 0.49181631 -1.3520948 18
-7.4961686 0.48869625 -1.4774883 18
-7.5480795 0.49208048 -1.6217413 2
-7.5313272 0.49098834 -1.7520111 3
-7.5320897 0.49103805 -1.8854458 6
-5.6578636 0.36885202 -1.9505234 3
-1.580973 0.10306807 -0.73851556 12
-2.0637531 0.14901774 0.54618442 16
-5.2998996 0.3826907 1.0268162 26
-5.6817307 0.41026166 0.79694462 3
-6.4190774 0.46350336 0.5587579 6
-9.3592234 0.67580295 0.48274127 1
-12.436522 0.8980059 0.4208256 18
-13.464219 1.9642152 0.37840697 3
-10.513473 -0.0055043846 0.2305063 4
-13.786332 0.99547189 0.22148034 12
-15.222084 2.2206597 0.15572818 28
-18.359835 -0.0096123889 0.077546842 37
-18.364162 1.3260239 -0.030528238 35
-18.369036 2.6797497 -0.13996795 39
-18.338343 -0.0096011367 -0.24646449 38
-18.348787 1.3249137 -0.35580158 43
-18.379534 2.6812813 -0.46886227 39
-18.343113 -0.0096036345 -0.57100779 36
-18.339622 1.324252 -0.68162543 47
-18.348675 2.6767795 -0.79663062 41
-18.314186 -0.0095884893 -0.89411116 50
-18.328737 1.3234661 -1.0064923 45
-18.355633 2.6777945 -1.1248136 49
-8.4493132 -0.004423683 -0.56223959 2
-18.328091 1.3234193 -1.3317018 37
-10.034703 1.4639034 -0.79454613 0
-7.6688395 -0.004015062 -0.6459924 39
-18.309864 1.3221033 -1.655161 49
-9.8184137 1.4323502 -0.95296609 0
-7.7557998 -0.0040605902 -0.79067767 1
-9.5952225 0.69284374 -1.0376143 0
-18.276482 1.3196929 -2.3012226 61
-15.943241 1.1512161 -2.2903395 1
-11.94291 0.86236358 -2.141521 2
-10.620352 0.76686543 -2.0942662 1
-9.627574 0.69517982 -2.0695229 2
-7.5471473 0.54495806 -1.7565336 0
-7.5129952 0.54249203 -1.8815683 7
-5.6664686 0.4091596 -1.954427 4
-1.583831 0.11436393 -0.74020553 12
-2.0588069 0.16311635 0.54516351 16
-5.3049293 0.420302 1.028334 35
-5.5997477 0.44366005 0.7858606 18
-6.4117126 0.5079909 0.5584119 7
-9.3542776 0.74112612 0.48274127 2
-12.433934 0.98512298 0.42096055 27
-13.477846 2.0623989 0.37918535 3
-13.428493 0.08671996 0.29442379 10
-13.787021 1.092326 0.2216085 10
-15.218073 2.328691 0.15584965 20
-18.359453 0.11856365 0.077546842 42
-18.378382 1.4560931 -0.030568032 33
-18.377556 2.8121595 -0.14017905 37
-18.345961 0.11847652 -0.246572 28
-18.343077 1.4532959 -0.35587895 42
-18.384085 2.8131585 -0.46946791 40
-18.362722 0.11858476 -0.57163006 38
-18.357822 1.4544642 -0.68266267 48
-18.349291 2.8078344 -0.79748905 44
-18.313807 0.11826886 -0.89411116 44
-18.327015 1.4520233 -1.0069298 43
-18.352278 2.8082914 -1.125782 50
-8.4970312 0.054873042 -0.56542659 2
-18.338289 1.4529166 -1.3331474 38
-9.6300497 1.4736038 -0.76330173 0
-7.6726661 0.049549367 -0.64632815 40
-18.288273 1.448954 -1.6540835 85
-9.2414112 1.4141337 -0.89789903 0
-7.7516599 0.050059501 -0.79027194 3
-18.304146 1.4502115 -1.980432 50
-18.294519 1.4494488 -2.3047113 37
-15.91508 1.2609292 -2.2875028 1
-13.621017 1.0791738 -2.2020247 2
-11.920897 0.94447577 -2.1387041 2
-10.622564 0.84161073 -2.0958102 2
-9.6146879 0.76175809 -2.0678458 3
-8.7550364 0.69364911 -2.0387368 2
-7.5167618 0.59554237 -1.8835071 8
-5.6785569 0.44990399 -1.9596318 4
-1.5685375 0.12427299 -0.73344564 12
-2.0460582 0.17648844 0.54210085 13
-5.2940402 0.45665213 1.0268162 37
-5.5807266 0.48138109 0.78364378 19
-6.4159508 0.55342567 0.55910385 6
-9.3807163 0.8091597 0.48438534 2
-12.438704 1.0729349 0.42136532 28
-13.471015 2.1577065 0.37940776 4
-11.896066 0.15988311 0.26084301 23
-13.794998 1.1899259 0.22186485 13
-15.225141 2.4386718 0.15609258 21
-15.494462 0.20824555 0.065450214 10
-18.379726 1.5853943 -0.030587928 31
-18.393021 2.946084 -0.14045049 39
-18.352684 0.24666005 -0.24667951 32
-18.33647 1.5816631 -0.35595629 43
-18.391636 2.9458621 -0.47017449 41
-18.349453 0.24661663 -0.5712567 40
-18.343241 1.5822471 -0.68251449 50
-18.337133 2.9371321 -0.79783243 81
-18.308538 0.24606675 -0.89391613 46
-18.348265 1.5826806 -1.0086797 46
-9.710166 1.5553162 -0.59630132 2
-8.6281376 0.11596216 -0.57419086 2
-18.347574 1.582621 -1.3345931 40
-9.2769566 1.4859273 -0.73611903 0
-7.6840901 0.10327416 -0.64733541 31
-18.297558 1.5783067 -1.6558795 52
-8.9993505 1.441462 -0.87533683 0
-7.584003 0.10192899 -0.77323323 0
-18.313389 1.5796722 -1.9825768 51
-18.291862 1.5778154 -2.3057084 38
-15.901944 1.3716663 -2.2869353 1
-13.601347 1.1732219 -2.2001154 1
-11.91009 1.0273379 -2.1379998 3
-10.628161 0.91676152 -2.0981259 2
-9.5974464 0.82785439 -2.0653303 3
-8.7344522 0.75341445 -2.0351188 2
-7.5162878 0.64833826 -1.8844765 10
-5.6526666 0.48758644 -1.9518245 5
-1.5784678 0.13615513 -0.73851556 12
-2.0447762 0.19076832 0.54210085 11
-4.676796 0.43632379 0.90766603 12
-5.6166725 0.52401 0.78918582 10
-6.4158983 0.5985741 0.55944985 3
-9.3947248 0.87648505 0.48541287 2
-12.44285 1.1608613 0.42177007 29
-13.487173 2.256979 0.38029733 4
-13.437968 0.27444902 0.29468682 6
-13.818212 1.2891763 0.22237754 12
-15.235359 2.5495253 0.15637602 27
-15.304671 0.31257346 0.064656161 2
-18.388123 1.7155282 -0.030621089 32
-18.383841 3.0764003 -0.14054097 39
-18.354513 0.3748616 -0.24673326 33
-18.348873 1.7118664 -0.35642037 48
-18.390341 3.0774879 -0.47067916 42
-18.351282 0.37479559 -0.57138115 38
-18.347666 1.7117538 -0.6831072 52
-18.351656 3.0710142 -0.79937762 67
-18.318357 0.37412319 -0.89450127 44
-18.364605 1.7133341 -1.010211 42
-9.4273558 1.5775986 -0.57959616 2
-8.6590414 0.17684707 -0.57631552 2
-18.34005 1.7110432 -1.3348821 40
-9.0421705 1.5131407 -0.7183097 0
-7.6871667 0.1569981 -0.64767116 42
-18.305925 1.7078596 -1.6576754 77
-8.7259541 1.4602242 -0.84971535 0
-7.6348271 0.15592913 -0.77850711 1
-18.313791 1.7085935 -1.9838636 52
-18.288305 1.7062156 -2.3067052 36
-15.86044 1.479707 -2.2823966 1
-13.600688 1.2688824 -2.2013884 1
-11.902628 1.110461 -2.1379998 3
-10.605869 0.98947942 -2.0950382 4
-9.5914326 0.89483702 -2.0653303 2
-8.7173405 0.81328821 -2.0324051 3
-7.4999862 0.6997146 -1.8815683 7
-5.6528907 0.52738899 -1.9531257 6
-1.5774788 0.14717159 -0.73851556 12
-2.0203054 0.20272209 0.5359754 1
-4.4704342 0.44857362 0.86820233 4
-5.7271852 0.5746789 0.80525768 2
-6.4155278 0.64374882 0.5597958 5
-9.4122257 0.9444443 0.48664594 2
-12.442398 1.2484988 0.42203993 33
-13.490782 2.3545194 0.38085333 4
-13.42773 0.3680315 0.29451147 3
-13.832752 1.3880101 0.22276205 12
-15.23689 2.6592643 0.15657848 22
-15.230145 0.41743267 0.064352058 2
-18.387638 1.8450577 -0.030640986 32
-18.385557 3.2087951 -0.14072192 40
-18.355448 0.50309199 -0.24678701 40
-18.348412 1.8411217 -0.35665244 43
-18.388103 3.2092392 -0.47118387 42
-18.340225 0.50267476 -0.57113224 43
-18.343224 1.8406011 -0.68340361 45
-18.345516 3.2018065 -0.80006438 73
-18.307314 0.5017727 -0.89411116 66
-18.364119 1.8426977 -1.0108674 42
-9.1329203 1.5939505 -0.56216466 2
-8.7134504 0.23882103 -0.58003366 1
-18.343536 1.8406326 -1.3360386 38
-8.7681837 1.5302938 -0.69737595 0
-7.733696 0.21196762 -0.6517002 16
-18.317341 1.838004 -1.6598306 58
-8.4723587 1.478664 -0.82600588 0
-7.6494646 0.20965897 -0.78012985 1
-18.317245 1.8379945 -1.9855794 52
-18.303591 1.8366243 -2.310194 36
-15.837905 1.5892117 -2.2806947 1
-13.563993 1.3610421 -2.1969335 1
-11.90634 1.1947094 -2.1401124 3
-10.594799 1.0631064 -2.0942662 4
-9.5888433 0.96216655 -2.0661688 4
-8.7114506 0.87412691 -2.0324051 3
-7.5026412 0.75283223 -1.8835071 5
-5.6415443 0.56608546 -1.9505234 6
-1.5800202 0.15854284 -0.74020553 13
-2.0496044 0.2201255 0.5441426 2
-5.2833152 0.56742287 1.0268162 13
-5.746666 0.61718631 0.8085829 9
-6.4188018 0.68937302 0.56048775 4
-9.520587 1.0225017 0.49260569 16
-12.441328 1.3361865 0.42230976 26
-13.477949 2.4493606 0.38096452 4
-13.41684 0.46149084 0.29433611 2
-13.834655 1.4858283 0.2229543 14
-15.23763 2.7691491 0.15678093 27
-14.627218 0.50312352 0.061817843 3
-18.382263 1.974237 -0.03065425 31
-18.378448 3.3399329 -0.14084256 38
-18.355486 0.63136238 -0.24684078 35
-18.351017 1.9708812 -0.35696182 44
-18.38492 3.3411093 -0.47168857 40
-18.336269 0.63070142 -0.57113224 37
-18.349798 1.9707505 -0.6841445 47
-18.326649 3.3305192 -0.80023605 83
-18.315342 0.62998164 -0.89469635 61
-18.354776 1.9712851 -1.0110861 42
-8.842659 1.6069849 -0.54497534 6
-18.312647 0.62988889 -1.2192924 42
-18.338171 1.9695016 -1.3366169 40
-8.4983349 1.5444105 -0.67675459 0
-7.8674679 0.27061248 -0.66311586 2
-18.304062 1.9658383 -1.6598306 61
-8.2463655 1.4986199 -0.80497336 0
-7.6796303 0.26415154 -0.78337532 0
-18.319784 1.9675268 -1.9872952 48
-18.30216 1.9656341 -2.3116894 35
-11.204478 1.2033499 -1.6146411 1
-13.55416 1.4557035 -2.1969335 1
-11.878134 1.2756999 -2.1365914 3
-10.583216 1.136627 -2.0934944 2
-9.5741148 1.0282506 -2.0644917 4
-8.7090101 0.93533909 -2.0333097 3
-7.5087786 0.80643541 -1.8864152 5
-5.6374545 0.60545707 -1.9505234 6
-1.5860844 0.17034391 -0.74358547 12
-2.0364904 0.23310861 0.54107994 5
-5.3026371 0.60697085 1.0313697 26
-5.7461534 0.65773833 0.80913711 2
-6.4138331 0.73416483 0.56048775 4
-10.088694 1.1548109 0.52240455 7
-12.451557 1.4252781 0.42298439 25
-13.503739 2.5515606 0.38218769 4
-13.433269 0.55597359 0.2947745 1
-13.966992 1.5987437 0.22526139 15
-15.241508 2.8799157 0.15702388 23
-14.663316 0.60688257 0.061986793 3
-18.391876 2.1052418 -0.030694043 33
-18.378267 3.4726131 -0.14102352 39
-18.354626 0.75965786 -0.24689452 41
-18.352705 2.1007578 -0.35727122 46
-18.369007 3.4708633 -0.47189045 38
-18.339407 0.75902796 -0.57138115 38
-18.371336 2.1028905 -0.68547809 51
-18.334364 3.4643176 -0.80160958 72
-18.314487 0.75799662 -0.89489138 45
-18.344536 2.099823 -1.0113049 44
-8.6154461 1.6279072 -0.5316596 6
-18.303816 0.75755495 -1.2190268 49
-18.347757 2.1001918 -1.3383516 37
-8.2718315 1.5629803 -0.65957016 0
-18.303452 0.75753987 -1.5431294 40
-18.305725 2.0953805 -1.6612673 72
-7.9853063 1.5088408 -0.7804991 5
-7.7849503 0.32220206 -0.79432881 3
-18.317457 2.0967233 -1.988582 49
-10.786681 1.2347066 -1.555638 5
-11.06014 1.2660083 -1.7940774 1
-10.949624 1.253358 -1.9711006 1
-10.563326 1.2091401 -2.0911784 2
-9.5472746 1.0928369 -2.0602989 4
-8.6983967 0.99566936 -2.0324051 3
-7.5183883 0.86059868 -1.8902928 4
-5.629333 0.64436638 -1.9492221 6
-1.6064682 0.18388574 -0.75372523 11
-2.0540097 0.24965352 0.54618442 7
-5.3021688 0.64444923 1.0321286 40
-8.8402166 1.0744793 1.2458495 19
-6.4085512 0.77892393 0.56048775 4
-10.07642 1.224733 0.52219903 7
-12.453208 1.5136185 0.42338917 24
-13.485598 2.645766 0.38218769 14
-13.42906 0.64974195 0.2947745 0
-13.971373 1.698143 0.22551773 21
-15.240658 2.9900947 0.15722634 23
-15.597614 0.75466371 0.065957054 2
-18.376732 2.2335899 -0.030694043 34
-18.392828 3.608525 -0.1413251 41
-18.352871 0.88797206 -0.24694829 32
-18.34553 2.2297976 -0.3574259 44
-18.38357 3.6067085 -0.47289982 41
-18.35363 0.88800877 -0.57200342 37
-18.360176 2.2315776 -0.68562627 46
-18.341106 3.5983777 -0.80298305 70
-18.316732 0.88622355 -0.89528149 43
-18.341326 2.2292864 -1.0119611 42
-8.4471531 1.6572635 -0.52197546 4
-18.31004 0.88589978 -1.2198236 50
-18.352453 2.230639 -1.3397973 36
-8.0728865 1.5838356 -0.64457285 8
-18.329567 0.88684458 -1.5458155 39
-18.322289 2.2269728 -1.6641408 55
-7.8456411 1.5392518 -0.76787955 13
-9.6625566 0.46750614 -0.9862172 1
-10.706651 1.3013341 -1.1632947 4
-10.349935 1.2579772 -1.3093592 5
-10.231441 1.243575 -1.4767781 6
-10.553167 1.2826791 -1.7132517 2
-10.549731 1.2822615 -1.900679 2
-10.554627 1.2828565 -2.0911784 2
-9.5394125 1.1594628 -2.0602989 2
-8.6951017 1.0568415 -2.0333097 4
-7.5083442 0.91259766 -1.8893234 5
-5.6209421 0.6831944 -1.9479209 6
-1.5583586 0.18940985 -0.73175567 13
-2.040709 0.26250681 0.5431217 16
-5.2975407 0.68144971 1.0321286 42
-8.8560734 1.139202 1.2491747 20
-6.3871479 0.82161146 0.55910385 5
-10.071587 1.2955596 0.52240455 7
-17.164717 2.2079852 0.58408272 27
-13.552999 2.7573862 0.38463408 5
-14.729881 0.81579196 0.32344532 6
-13.979011 1.7981915 0.22583817 20
-15.235089 3.099611 0.1573883 24
-15.528064 0.85999811 0.06568674 3
-18.384495 2.3648915 -0.030733837 32
-18.398544 3.7432227 -0.14156638 36
-18.362198 1.0169623 -0.2471633 35
-18.345383 2.3598602 -0.35773531 42
-18.404963 3.7445285 -0.47411111 40
-18.366943 1.017225 -0.5726257 38
-18.363972 2.3622515 -0.68636715 46
-18.346867 3.7327089 -0.80435658 42
-18.334034 1.0154024 -0.89645177 46
-18.345123 2.359827 -1.0130548 46
-8.3101768 1.6907232 -0.51422817 1
-18.315365 1.0143685 -1.2206203 51
-18.336433 2.3587091 -1.3397973 38
-18.30303 1.0136853 -1.5441366 36
-10.040211 1.2915236 -0.91270924 9
-7.760571 1.5789045 -0.76061374 0
-9.6312437 0.53341174 -0.9833774 0
-10.314695 1.3268319 -1.1216872 5
-9.9393883 1.2785543 -1.25852 4
-9.8572798 1.2679923 -1.4240158 4
-10.199278 1.3119853 -1.6572464 5
-10.438983 1.3428198 -1.8823694 1
-10.549306 1.3570112 -2.0919504 2
-9.5272064 1.2255332 -2.0594604 2
-8.6643248 1.1145364 -2.0278828 5
-7.5171862 0.96697408 -1.8932009 4
-5.6160355 0.72241938 -1.9479209 6
-1.5713817 0.20213485 -0.73851556 11
-2.0541561 0.27882805 0.54720533 16
-5.2887626 0.71788871 1.0313697 41
-8.8400536 1.1999357 1.2480663 17
-6.4167953 0.87100613 0.56221765 4
-10.082088 1.3685275 0.52343208 8
-16.903276 2.2944255 0.57571751 33
-13.486467 2.8420429 0.38329968 5
-13.462583 0.8399182 0.29573897 0
-13.974042 1.8968155 0.22596633 18
-15.252216 3.2141442 0.15779321 26
-15.561604 0.97087425 0.065855689 11
-18.387356 2.495872 -0.030766997 33
-18.387619 3.8748767 -0.14168701 40
-18.354652 1.1451299 -0.2471633 43
-18.348276 2.4905674 -0.35812205 45
-18.382284 3.8737526 -0.47421205 37
-18.339441 1.1441809 -0.57200342 41
-18.362875 2.4925492 -0.68695986 47
-18.359465 3.8689437 -0.80607343 50
-18.318521 1.1428758 -0.89606172 62
-18.34799 2.4905286 -1.0141486 43
-8.3098917 1.7511679 -0.51495445 3
-18.323771 1.1432033 -1.2216827 51
-18.351145 2.4909568 -1.3421102 39
-7.8860979 1.6618606 -0.63145018 0
-18.303463 1.1419363 -1.5448081 37
-10.204645 1.3851633 -0.92851377 24
-7.7649436 1.6363293 -0.76214343 0
-9.5915403 0.59840745 -0.97972625 1
-9.8756342 1.3405038 -1.0749323 3
-9.5290785 1.2934628 -1.2076807 4
-9.4322882 1.2803247 -1.3638781 5
-9.68116 1.3141061 -1.5745114 4
-9.7660589 1.3256302 -1.7626526 1
-10.535686 1.4300983 -2.0911784 2
-9.5029163 1.2899116 -2.0561063 2
-8.6524715 1.1744735 -2.0269783 2
-7.9601755 1.0805023 -2.0066185 7
-5.6071072 0.76110035 -1.9466196 6
-1.5878948 0.21553846 -0.74696535 12
-2.0330162 0.29042724 0.54210085 14
-5.2952857 0.75645989 1.0336465 34
-5.933393 0.84761691 0.83850992 4
-6.1778054 0.8825326 0.54180485 4
-10.143471 1.4490491 0.52713126 8
-16.692926 2.3846738 0.56910628 31
-13.505364 2.9446449 0.38441166 6
-13.743631 0.95381898 0.30205181 7
-13.988174 1.9982855 0.22641493 17
-15.248945 3.3248067 0.15799566 25
-15.702091 1.0897377 0.066480793 5
-18.401161 2.6287043 -0.030820057 35
-18.391384 4.0099688 -0.14192829 38
-18.358181 1.2740724 -0.24732456 35
-18.350237 2.6214294 -0.35850877 43
-18.39777 4.0113616 -0.47532237 41
-18.338984 1.2727401 -0.57225233 40
-18.356897 2.6223812 -0.68740445 48
-18.347626 4.0004282 -0.80676019 68
-18.314083 1.2710121 -0.89625674 76
-18.373648 2.624774 -1.016555 43
-8.2818594 1.8057368 -0.51398605 4
-18.319326 1.2713759 -1.2219483 54
-18.341206 2.6201394 -1.3426884 32
-7.9132667 1.7253705 -0.63457459 0
-18.299021 1.2699667 -1.545144 33
-10.088243 1.4411596 -0.91881555 0
-7.7533307 1.6904989 -0.76214343 0
-18.288986 1.2692703 -1.8689851 43
-9.4920225 1.3559862 -1.0341828 4
-9.1819267 1.3116875 -1.1648163 6
-9.0860195 1.2979865 -1.3150871 5
-9.3003616 1.3286064 -1.5140512 9
-9.2966089 1.3280703 -1.6795552 7
-10.490478 1.4986209 -2.0842311 2
-9.4820642 1.3545636 -2.0535905 2
-8.6286335 1.2326463 -2.0233603 3
-7.9370713 1.1338531 -2.0027409 9
-5.6091461 0.80129659 -1.9492221 6
-1.5648172 0.2235425 -0.73682559 13
-2.0385888 0.30576065 0.5441426 16
-5.301527 0.79515713 1.0359232 35
-5.6139231 0.84201229 0.79417366 0
-6.3843036 0.95755899 0.56048775 7
-10.15286 1.5227911 0.52815878 5
-16.438663 2.4655764 0.5610109 27
-13.507882 3.0441327 0.38507885 6
-13.640939 1.0424311 0.29994753 14
-13.997615 2.0994523 0.22679944 18
-15.256578 3.4382184 0.15831959 23
-15.666182 1.1971987 0.06636253 12
-18.390272 2.7582912 -0.030833321 32
-18.394156 4.1453018 -0.14216955 37
-18.356815 1.4028151 -0.24743207 32
-18.347309 2.7518475 -0.35881817 45
-18.400524 4.1467371 -0.47612989 39
-18.345598 1.4019579 -0.57275015 42
-18.353956 2.7528443 -0.68799716 46
-18.338743 4.1328139 -0.80761862 60
-18.324682 1.4003595 -0.897232 42
-18.354876 2.7529824 -1.016555 44
-8.2106266 1.8503447 -0.51035452 4
-18.333881 1.4010625 -1.2235417 54
-7.889358 1.7779436 -0.63363731 0
-18.31753 1.3998129 -1.5474942 37
-9.7509365 1.4625082 -0.8890025 0
-7.7141495 1.7384586 -0.75946653 0
-18.311422 1.3993462 -1.8722305 46
-9.2070189 1.380928 -1.0041567 5
-8.893877 1.3339609 -1.1294283 9
-8.7556438 1.3132279 -1.2685655 5
-9.0018625 1.3501573 -1.4669558 6
-8.9483347 1.3421289 -1.6182884 5
-10.487523 1.5729861 -2.0857749 1
-9.4801121 1.4218882 -2.0552678 2
-8.6198168 1.2928556 -2.0233603 2
-7.7562594 1.1633337 -1.9591188 3
-5.5959339 0.83931422 -1.9466196 6
-1.5703892 0.23553707 -0.74020553 13
-2.0402248 0.32058555 0.54516351 15
-5.2919664 0.83153975 1.0351644 36
-8.7855911 1.3805015 1.2441869 17
-6.408957 1.0070552 0.56325561 4
-9.4908419 1.4913194 0.49424976 1
-16.19594 2.5449078 0.55332023 27
-13.49409 3.1401739 0.38530126 7
-13.64927 1.1389676 0.30029824 15
-13.990519 2.1983647 0.22692762 15
-15.239994 3.5464585 0.15840057 24
-15.529885 1.2958962 0.065821894 4
-18.386374 2.889096 -0.03085985 31
-18.384247 4.2781496 -0.14232035 38
-18.35853 1.5319334 -0.24759333 32
-18.355305 2.8842142 -0.35935962 46
-18.382811 4.2778149 -0.47643271 38
-18.359268 1.5319949 -0.57349688 38
-18.354034 2.8840146 -0.68873805 50
-18.344475 4.2688937 -0.80916381 50
-18.334366 1.529917 -0.89820725 44
-18.362827 2.8853962 -1.0180862 44
-8.1819534 1.9040005 -0.50938606 4
-18.31172 1.5280272 -1.2227449 49
-9.5297699 1.4974363 -0.69910008 0
-7.9039412 1.839305 -0.63582438 0
-18.323198 1.528985 -1.5488372 37
-9.3980942 1.4767457 -0.85775274 0
-7.6979465 1.7913687 -0.75908411 0
-18.328964 1.5294663 -1.8750703 38
-8.9064283 1.399489 -0.97241485 11
-8.6138172 1.3535103 -1.095037 8
-8.3863983 1.3177754 -1.2163705 5
-8.57479 1.3473779 -1.3988585 5
-8.5497675 1.343446 -1.5478668 1
-8.5725632 1.3470279 -1.7067536 1
-8.3881149 1.3180451 -1.8204758 1
-8.6144295 1.3536066 -2.0242648 2
-7.7709513 1.2210687 -1.9649351 4
-5.5899382 0.87836075 -1.9466196 8
-1.5579619 0.24480639 -0.73513561 12
-2.0379372 0.33482119 0.54516351 17
-5.3015342 0.87101114 1.0382 35
-8.7249222 1.4334539 1.2369822 20
-6.4135671 1.0537117 0.56429356 4
-9.4920254 1.5594845 0.49486631 1
-15.956869 2.6216207 0.54576457 26
-13.502942 3.241771 0.38619083 9
-13.652935 1.2353044 0.30056128 18
-13.998509 2.2998736 0.22731213 15
-15.234311 3.6574361 0.15860303 22
-18.401279 3.0232229 -0.030919541 34
-18.385048 4.4138618 -0.14256161 38
-18.367308 1.6618562 -0.2478621 38
-18.346561 3.0142331 -0.35959166 70
-18.395267 4.4163151 -0.47754303 40
-18.356091 1.6608413 -0.57374579 38
-18.353174 3.0153196 -0.68947893 51
-18.341425 4.4033885 -0.81036562 54
-18.32324 1.6578691 -0.89820725 46
-18.361942 3.0167601 -1.0191799 33
-8.1412849 1.9545505 -0.50769138 5
-18.324455 1.6579791 -1.2243385 52
-9.2041435 1.5121872 -0.6759702 0
-7.8637648 1.8879237 -0.63363731 0
-18.327957 1.6582959 -1.5501802 34
-9.1320324 1.5003397 -0.83440518 0
-7.6968684 1.8478554 -0.76023138 0
-18.305952 1.6563048 -1.8738533 37
-8.6727543 1.424883 -0.94796509 10
-8.3339319 1.3692166 -1.0606457 8
-8.126935 1.3352082 -1.1800609 7
-8.4638577 1.3905625 -1.3823115 3
-8.2798567 1.3603321 -1.5006843 1
-8.2569923 1.3565757 -1.6457705 1
-8.1587238 1.3404309 -1.7726789 2
-8.4932699 1.3953947 -1.9980344 2
-7.769896 1.2765486 -1.9668739 5
-5.5762048 0.91613799 -1.9440173 6
-1.5669473 0.25744033 -0.74020553 13
-2.0355501 0.34903955 0.54516351 17
-5.3224206 0.91264534 1.0435123 41
-8.6795626 1.4883007 1.2319944 8
-6.4060545 1.0984582 0.56429356 3
-11.733017 2.0118821 0.61241758 19
-15.764809 2.7032211 0.53982794 26
-13.503269 3.3417237 0.38685802 7
-13.675819 1.3336949 0.30126271 17
-14.009706 2.4022703 0.22776073 13
-15.243349 3.7723503 0.15896745 22
-15.900425 1.5506431 0.067477584 6
-18.387611 3.1529579 -0.030932805 35
-18.396496 4.5526757 -0.14289337 38
-18.367199 1.7912083 -0.24802338 33
-18.348722 3.1462893 -0.36005574 92
-18.395041 4.5523157 -0.47835055 37
-18.348026 1.7893385 -0.5738703 38
-18.363195 3.1487713 -0.69066435 48
-18.34515 4.539969 -0.81191081 65
-18.3311 1.7876878 -0.8991825 44
-9.4044437 1.6125973 -0.5226059 1
-8.1080627 2.0065441 -0.50648081 7
-18.324352 1.7870296 -1.2251352 50
-8.9652977 1.5372963 -0.65920103 0
-7.8542633 1.9437351 -0.6339497 0
-18.323868 1.7869824 -1.5508517 35
-8.8504047 1.5175954 -0.80962086 0
-7.6915102 1.9034578 -0.76099616 0
-18.333549 1.7879267 -1.8779101 39
-8.4156532 1.4430476 -0.92094165 9
-8.105113 1.3897989 -1.032734 10
-7.9417987 1.3617949 -1.1545308 15
-8.1075354 1.3902142 -1.3256699 0
-7.9713302 1.3668588 -1.4464597 2
-7.9455895 1.362445 -1.5855595 2
-7.8561993 1.3471171 -1.7089497 3
-8.0301609 1.3769467 -1.8913037 1
-7.7837448 1.3346932 -1.9726901 5
-5.5771298 0.95632082 -1.9466196 6
-1.565112 0.26837265 -0.74020553 12
-2.0559072 0.36732325 0.55128896 17
-5.3159194 0.94978058 1.0435123 34
-5.4400363 0.97195619 0.77311391 4
-6.3864617 1.1410514 0.56325561 3
-11.734415 2.0965555 0.61323965 19
-15.631426 2.7928236 0.53591514 26
-13.495109 3.4398632 0.38730282 7
-13.67413 1.4299695 0.30143806 17
-14.016217 2.5042386 0.22814526 13
-15.239897 3.8846047 0.1592104 24
-15.84943 1.657451 0.067308635 11
-18.400589 3.2875824 -0.030992495 33
-18.395269 4.6888995 -0.14313464 39
-18.358225 1.9198079 -0.24807712 31
-18.361742 3.2806416 -0.36075187 60
-18.39381 4.6885276 -0.47915807 38
-18.354971 1.9194674 -0.57449257 36
-18.368309 3.2818151 -0.69170165 50
-18.34786 4.676815 -0.813456 63
-18.322147 1.9160351 -0.89937752 44
-9.09021 1.6241227 -0.5057618 2
-8.0822496 2.0601416 -0.50575453 8
-18.327309 1.9165747 -1.2261976 46
-8.6833601 1.5514319 -0.63925153 0
-7.8598237 2.0034459 -0.63551193 0
-18.314911 1.9152783 -1.5511875 39
-8.58076 1.5331006 -0.78591412 0
-7.6510258 1.9502238 -0.75831932 0
-18.324579 1.9162892 -1.8783158 37
-8.2096262 1.4667913 -0.89949447 11
-7.9115863 1.4135412 -1.0093081 11
-7.8034697 1.3942243 -1.1358086 15
-7.8255081 1.3981619 -1.2811202 14
-7.7445297 1.3836936 -1.4070235 17
-7.7002039 1.375774 -1.5384713 4
-7.8350525 1.3998672 -1.706434 3
-7.86309 1.4048765 -1.8542193 1
-7.7818775 1.3903664 -1.9746289 6
-5.5628705 0.99390262 -1.9440173 6
-1.5453556 0.27610439 -0.73175567 14
-2.0456877 0.38025361 0.54924715 17
-5.2898526 0.98328084 1.0397178 41
-5.2189093 0.97009379 0.74263269 5
-6.4018474 1.1899791 0.56533152 3
-11.746984 2.1835361 0.6146782 17
-15.470053 2.8755822 0.53105789 21
-13.517178 3.5461621 0.38863719 9
-13.679711 1.5271728 0.30178878 16
-14.002325 2.6027601 0.22820933 10
-15.251097 4.0010471 0.15961531 21
-15.936853 1.7791553 0.067731 6
-18.400785 3.4203486 -0.031032288 32
-18.40078 4.8273501 -0.14343624 39
-18.348349 2.0483692 -0.24813087 34
-18.338392 3.4087508 -0.36075187 78
-18.391575 4.8249354 -0.47996557 36
-18.368937 2.0506675 -0.57536376 37
-18.364601 3.4136226 -0.69244254 52
-18.34569 4.8128977 -0.81482953 65
-18.33215 2.0465608 -0.90054786 43
-8.8980198 1.653969 -0.49569905 1
-8.0831194 2.1205649 -0.50672293 10
-18.329348 2.046248 -1.2272599 47
-8.4291325 1.5668119 -0.62132591 0
-7.8340745 2.0552292 -0.63457459 0
-18.32486 2.045747 -1.553202 38
-8.3426771 1.5507416 -0.76508093 0
-7.6603336 2.0096493 -0.76061374 0
-18.338436 2.0472627 -1.8811556 39
-8.0193291 1.4906374 -0.87976307 13
-7.718132 1.4346508 -0.98588216 2
-7.7001166 1.4313021 -1.1221925 28
-7.7068453 1.4325528 -1.2633003 24
-7.6456428 1.4211764 -1.3908266 24
-7.6248131 1.4173046 -1.5253483 22
-7.6828146 1.428086 -1.675408 0
-7.864583 1.4618732 -1.8569328 2
-7.7719812 1.4446603 -1.9746289 5
-5.5557961 1.0327146 -1.9440173 7
-1.5754701 0.29284927 -0.74696535 12
-2.0581729 0.39745927 0.55333078 17
-5.2982836 1.0231657 1.0427535 35
-4.9319615 0.95242423 0.70273006 22
-6.3933835 1.2346435 0.56533152 3
-11.790288 2.276854 0.61776084 18
-15.402497 2.9744174 0.52943885 13
-13.515254 3.6466932 0.38930437 11
-13.970524 1.6584661 0.30845234 22
-14.038791 2.7110684 0.22910653 13
-15.249825 4.1147161 0.15989874 14
-15.904185 1.8880146 0.067646526 10
-18.411804 3.555553 -0.031091979 32
-18.397524 4.9640298 -0.1436775 37
-18.37332 2.1811299 -0.24866843 34
-18.349487 3.5435185 -0.36144802 72
-18.40377 4.9657154 -0.48117685 39
-18.358143 2.1793282 -0.57548821 37
-18.363871 3.5462961 -0.6933316 49
-18.350225 4.9512677 -0.81654638 59
-18.329315 2.1759062 -0.901133 44
-8.6391973 1.6683385 -0.48191747 1
-8.0989571 2.1852651 -0.50865978 13
-18.330469 2.176043 -1.2283223 50
-8.1947098 1.5825024 -0.60484588 8
-7.8310862 2.112988 -0.63551193 0
-18.314091 2.1740987 -1.5535378 38
-8.0617485 1.5568259 -0.74029666 1
-7.6538053 2.0651538 -0.76137859 0
-10.839315 1.2867547 -1.1127906 0
-7.8642497 1.5186863 -0.8638922 12
-7.6611662 1.4794682 -0.97990108 27
-7.6393962 1.4752642 -1.1148171 46
-7.626863 1.4728439 -1.2518448 34
-7.5582132 1.4595867 -1.3767422 23
-7.5453672 1.4571061 -1.5114535 35
-7.572813 1.4624062 -1.6536058 1
-7.8503599 1.516004 -1.8560283 3
-7.7655168 1.4996197 -1.9755983 4
-5.5484509 1.0714762 -1.9440173 6
-1.5555887 0.30040389 -0.73851556 13
-2.036387 0.40801927 0.54822624 17
-5.3141165 1.0647593 1.047307 34
-4.9523816 0.99228042 0.70660949 25
-6.3885155 1.2800304 0.56567746 3
-11.766271 2.3575406 0.6173498 16
-15.263762 3.0583131 0.52539116 11
-13.527996 3.7516441 0.39041635 10
-13.982411 1.7589532 0.30897841 27
-13.976384 2.8003683 0.22840159 10
-15.255416 4.2306995 0.16026315 17
-16.025551 2.015975 0.068220951 5
-18.413988 3.6895058 -0.031138403 32
-18.39711 5.1019683 -0.14394894 40
-18.369549 2.3108444 -0.24882969 28
-18.351751 3.6770356 -0.36198944 44
-18.418747 5.1079688 -0.48248905 37
-18.362312 2.3099339 -0.57611048 41
-18.350422 3.6767695 -0.69377613 47
-18.349871 5.0888677 -0.81809157 59
-18.317642 2.3043146 -0.90132803 44
-8.4863586 1.7003632 -0.4740423 1
-8.0950451 2.2449539 -0.50938606 13
-18.32671 2.3054552 -1.2291189 49
-8.0387259 1.6106735 -0.59414834 17
-7.8238297 2.1697392 -0.63613683 0
-18.322193 2.3048871 -1.5555524 37
-7.9256845 1.5880241 -0.72880244 11
-7.6583858 2.1238575 -0.76329064 0
-10.261518 1.2908739 -1.0543721 6
-7.6311874 1.5290176 -0.83944237 0
-7.709023 1.544613 -0.98737746 5
-7.6172638 1.5262277 -1.1131152 45
-7.5854177 1.5198469 -1.2467533 53
-7.5555606 1.5138645 -1.3781507 1
-7.5427074 1.5112892 -1.5129974 158
-7.4933906 1.5014079 -1.6385121 2
-7.8739696 1.5776623 -1.8641688 2
-7.7624683 1.5553216 -1.977537 6
-5.5408354 1.1101856 -1.9440173 7
-1.564118 0.31339341 -0.74358547 14
-2.0562096 0.42694354 0.55435169 17
-5.3142443 1.1034296 1.0488248 34
-4.9530907 1.0284411 0.7077179 26
-6.3638167 1.3213588 0.56429356 4
-11.745615 2.4388151 0.61714429 11
-15.230297 3.1623614 0.52498639 4
-13.536084 3.8558545 0.39141715 13
-13.981683 1.8581064 0.30924144 30
-14.066141 2.9206402 0.230196 7
-15.244742 4.3425784 0.16046561 22
-15.95161 2.1199012 0.067967527 10
-18.407366 3.8220356 -0.031171566 34
-12.021424 3.4243925 -0.094246894 1
-18.368828 2.4411392 -0.2490447 35
-18.356958 3.8115695 -0.36260822 46
-12.017939 3.4233994 -0.31543478 8
-18.345737 2.4380708 -0.57611048 43
-18.359531 3.8121035 -0.69510978 50
-18.348488 5.2267036 -0.81963676 60
-18.31695 2.4342449 -0.90210825 59
-8.6893635 1.8042266 -0.48607382 3
-8.0599756 2.2959442 -0.50817555 11
-18.329948 2.4359725 -1.2304469 49
-7.8353372 2.2319543 -0.63832396 0
-18.321459 2.4348443 -1.5568954 36
-7.658689 2.1816347 -0.76482028 0
-10.074745 1.3388908 -1.0361164 1
-7.6904173 1.5968091 -0.84716338 2
-7.7097096 1.6008149 -0.98887271 8
-7.5986695 1.5777589 -1.1119804 45
-7.5746226 1.5727659 -1.2467533 47
-7.5255313 1.5625728 -1.3746296 68
-7.4781733 1.5527396 -1.5021902 255
-7.4597497 1.5489142 -1.6334808 3
-8.4769821 1.7601285 -2.0097928 2
-7.7628202 1.6118426 -1.9804453 6
-5.5144329 1.144996 -1.9375112 6
-1.5441433 0.32062006 -0.73513561 14
-2.0456164 0.43966284 0.55230987 17
-5.3102512 1.1413285 1.0495838 37
-4.9496632 1.0638275 0.7082721 24
-6.3622289 1.3674293 0.56498551 4
-11.685341 2.5115221 0.61488372 5
-12.894035 2.7713058 0.44511181 7
-11.889311 3.4766781 0.34449157 16
-13.96837 1.9556717 0.30924144 29
-14.049317 3.0196097 0.23026007 7
-11.854908 3.4666178 0.12503603 17
-16.063183 2.2489605 0.068508163 6
-18.411518 3.9571743 -0.031224623 35
-11.789913 3.447612 -0.092618309 12
-18.367182 2.5715368 -0.24925973 33
-18.365091 3.9471958 -0.36330438 44
-11.717409 3.4264107 -0.30816716 17
-18.359947 2.570524 -0.57710618 41
-18.37155 3.9485838 -0.69659156 44
-11.909796 3.4826684 -0.53309011 26
-18.339075 2.5676014 -0.90405875 47
-8.6179838 1.852257 -0.4827925 2
-8.0667439 2.3588812 -0.50962818 11
-18.31645 2.5644338 -1.2307125 53
-7.8399324 1.6850311 -0.58113778 1
-7.8425293 2.2933164 -0.64019859 0
-10.180302 1.4253149 -0.86591184 6
-7.8170524 1.6801134 -0.72090024 0
-7.6470933 2.2361667 -0.7652027 0
-9.7144098 1.3600867 -1.0000105 2
-7.6829696 1.6512951 -0.84759235 3
-7.5780587 1.6287467 -0.97342157 20
-7.5913401 1.6316013 -1.1125478 39
-7.5557361 1.6239489 -1.2454805 40
-7.4990406 1.6117634 -1.3718128 13
-7.4863367 1.609033 -1.5060499 38
-7.4564023 1.6025991 -1.6351579 4
-8.4530592 1.8168099 -2.0070794 2
-7.7627606 1.6684445 -1.9833534 6
-5.5247946 1.1874402 -1.9440173 6
-1.5631343 0.33596334 -0.74527544 13
-2.0311708 0.45141602 0.54924715 16
-5.3174891 1.1817813 1.0526195 42
-4.9459825 1.0992161 0.7088263 27
-6.3641977 1.4144062 0.56602347 4
-11.390654 2.531507 0.60029256 3
-12.854861 2.8569188 0.44443718 5
-11.623471 3.4872096 0.33748609 18
-13.475648 1.9826984 0.29863235 25
-14.07865 3.1288986 0.2310932 7
-11.55841 3.4676902 0.12216118 20
-16.02335 2.3575468 0.06840679 10
-18.399063 4.0890856 -0.031251151 31
-11.512699 3.4539762 -0.090627812 16
-18.376482 2.7037675 -0.24963601 31
-18.356607 4.0796504 -0.36369112 42
-11.463399 3.4391856 -0.30211082 15
-18.369242 2.7027025 -0.57797736 38
-18.366949 4.0819488 -0.69748062 46
-11.621078 3.4864912 -0.52124363 23
-18.316753 2.6949797 -0.90386373 45
-8.5658531 1.9037116 -0.48060495 2
-8.0653763 2.4197295 -0.51059657 14
-18.325743 2.6963024 -1.2325716 48
-7.8162942 1.7371264 -0.58027041 0
-7.8263278 2.3480115 -0.64019859 0
-18.455248 2.7153566 -1.5713328 1
-7.8206882 1.7381029 -0.72233701 0
-7.6579919 2.2975082 -0.76787955 0
-9.358223 1.3768936 -0.96431029 1
-7.6401968 1.6979897 -0.8441608 2
-7.5974984 1.6885002 -0.97740901 27
-7.5681686 1.6819819 -1.1108458 45
-7.5596352 1.6800853 -1.2480261 40
-7.4722304 1.6606601 -1.3689959 41
-7.4710903 1.6604067 -1.505278 40
-7.4946656 1.6656463 -1.6460589 2
-8.4059372 1.8681712 -1.9989388 3
-7.762289 1.725124 -1.9862615 7
-5.5052934 1.2235197 -1.9401135 6
-1.5607508 0.34686786 -0.74527544 13
-2.0505867 0.47077769 0.5553726 9
-5.3014536 1.217118 1.0511016 25
-4.9459105 1.1354917 0.70993471 26
-6.3619356 1.4605856 0.56671542 4
-10.987253 2.522475 0.57994711 6
-12.803432 2.9394369 0.4433578 5
-11.354254 3.493026 0.33036941 18
-13.48124 2.0797765 0.29907075 18
-14.111036 3.239639 0.2319904 6
-11.281602 3.4706755 0.11948878 18
-16.069752 2.4791112 0.068677105 6
-18.401257 4.224596 -0.03130421 38
-11.228337 3.454289 -0.088577002 23
-18.365063 2.8332133 -0.24974352 32
-18.362761 4.2157583 -0.36438724 60
-11.198326 3.4450564 -0.29575166 34
-18.361782 2.8327072 -0.57835072 38
-18.36138 4.2154412 -0.69836968 46
-11.348177 3.4911566 -0.51008397 22
-18.340925 2.8294897 -0.90600926 42
-8.5173197 1.9554228 -0.47863615 2
-8.0788155 2.4853694 -0.51253343 12
-9.8415537 1.5182753 -0.66263008 7
-7.8078656 1.792545 -0.58055949 0
-7.8402367 2.4119728 -0.64269817 0
-9.4424591 1.4567062 -0.80480444 0
-7.7811837 1.7864193 -0.71982265 0
-7.6645994 2.3579397 -0.77017403 0
-9.065217 1.3985083 -0.93510103 1
-7.6165285 1.7486174 -0.84287393 2
-7.5623159 1.7361712 -0.97441846 90
-7.5485239 1.7330048 -1.1097112 43
-7.5438728 1.7319369 -1.2473898 51
-7.4527798 1.7110236 -1.3675874 37
-7.4554911 1.7116461 -1.504506 41
-7.5552816 1.7345563 -1.6619912 2
-8.0471087 1.8474709 -1.9166296 3
-7.7651854 1.7827463 -1.990139 7
-5.5039907 1.2636168 -1.942716 6
-1.5653584 0.35937801 -0.74865532 12
-2.0623035 0.48864779 0.55945623 12
-4.1501884 0.98335689 0.82418507 7
-4.9609909 1.1754707 0.71325994 27
-6.3477073 1.5040429 0.56636941 4
-10.666183 2.5272744 0.5639174 3
-12.708691 3.0112317 0.44079426 3
-11.169429 3.5217097 0.32569909 39
-13.494027 2.1783037 0.29968449 15
-14.130885 3.3482103 0.23269534 7
-11.16936 3.521688 0.11855748 46
-16.032307 2.5880513 0.06859263 8
-18.39467 4.3584828 -0.031344004 30
-11.184874 3.5265794 -0.088426203 49
-18.372477 2.9658184 -0.25011981 46
-18.352341 4.3484535 -0.36477399 74
-11.174002 3.5231516 -0.29575166 47
-18.373135 2.9659245 -0.57934636 38
-18.36651 4.3518105 -0.69970334 47
-11.152016 3.5162194 -0.50235802 79
-18.328613 2.9587376 -0.90639937 48
-8.487916 2.0111499 -0.47776112 2
-8.0993471 2.5537159 -0.51495445 13
-9.5549021 1.5424216 -0.64403921 0
-7.7757511 1.8424076 -0.5791139 0
-7.8574352 2.4774415 -0.6455102 0
-9.1762886 1.4813031 -0.78298038 0
-7.7413878 1.8342655 -0.71730828 0
-7.6669378 2.4173777 -0.77208608 0
-8.7998791 1.4205403 -0.90873164 1
-7.6312242 1.8081629 -0.84587657 1
-7.5229783 1.7825149 -0.9709295 3
-7.5516534 1.7893093 -1.1119804 43
-7.5354414 1.7854679 -1.2480261 47
-7.4559798 1.7666401 -1.3704044 51
-7.4433603 1.7636501 -1.504506 36
-7.5506005 1.7890598 -1.6636684 1
-7.8406534 1.8577856 -1.8705002 4
-7.7449989 1.835121 -1.9882003 7
-5.4839935 1.2993923 -1.9388124 6
-1.5451725 0.36611733 -0.74020553 13
-2.0362999 0.49752581 0.55333078 15
-4.0249534 0.9834103 0.80065858 4
-4.9372706 1.2063153 0.71104312 30
-6.321568 1.5445383 0.56498551 6
-10.500817 2.5656476 0.55610806 6
-12.718426 3.1074722 0.44187364 1
-11.178817 3.6106565 0.32669988 44
-13.521868 2.2797701 0.30064896 20
-14.114937 3.4486792 0.23282351 5
-11.178759 3.6106377 0.11892191 45
-16.104567 2.71521 0.068981215 5
-18.410421 4.4981885 -0.031423591 31
-11.18282 3.6119497 -0.088607162 45
-18.363155 3.0960052 -0.25028107 34
-18.34873 4.4831152 -0.36531541 71
-11.179577 3.6109021 -0.29655918 45
-18.371693 3.0974445 -0.57996863 37
-18.35898 4.4856195 -0.7005924 45
-11.146213 3.6001256 -0.50321645 71
-18.331148 3.0906088 -0.90756965 46
-8.4503889 2.0646698 -0.4764486 2
-8.1003199 2.6163299 -0.51616496 11
-9.2015009 1.5513617 -0.62093347 0
-7.8130808 1.9089572 -0.58287251 0
-7.8589234 2.5383611 -0.64707237 0
-8.8552208 1.4929792 -0.75645572 0
-7.7477431 1.8929935 -0.71910429 0
-7.6688209 2.4769597 -0.77399814 0
-8.5700035 1.4448919 -0.88601333 0
-7.6029615 1.8576192 -0.8441608 0
-7.541194 1.8425276 -0.97491688 3
-7.5389776 1.8419861 -1.1119804 42
-7.5189562 1.8370943 -1.2473898 42
-7.4511142 1.8205185 -1.3718128 50
-7.4537425 1.8211607 -1.5091376 12
-7.5645218 1.8482273 -1.6695381 1
-8.3914652 2.0502729 -2.0052702 6
-7.7433076 1.8919097 -1.9911084 7
-5.4747882 1.3376461 -1.9388124 6
-1.535535 0.37517476 -0.73682559 14
-2.0440283 0.51456219 0.5563935 17
-3.9113512 0.98464066 0.77940887 6
-4.9440951 1.2446229 0.71325994 23
-6.2990375 1.5857151 0.56394756 4
-10.517514 2.6476715 0.55795765 7
-13.297321 3.3474579 0.46278673 3
-11.176114 3.6961443 0.32736707 38
-13.517439 2.3761923 0.30091199 15
-14.102151 3.5500653 0.23301576 4
-11.176064 3.6961279 0.11916485 49
-16.120676 2.8338077 0.069133267 4
-18.394085 4.6305137 -0.031450119 36
-11.17632 3.6962123 -0.088757955 45
-18.36867 3.2289762 -0.25065735 40
-18.344131 4.6179385 -0.36585686 83
-11.180671 3.6976511 -0.29726574 45
-18.361433 3.2277043 -0.58034205 38
-18.36598 4.6234384 -0.70207417 49
-11.147367 3.6866369 -0.50441825 74
-18.3288 3.2219677 -0.9085449 50
-8.4318962 2.1226394 -0.47622985 2
-8.1462994 2.6941292 -0.52028072 8
-8.9585238 1.5747935 -0.60526407 0
-7.8343825 1.9722217 -0.58547461 0
-7.8675132 2.6019297 -0.64925951 0
-8.593338 1.5105985 -0.73496741 0
-7.7382021 1.9480094 -0.71946347 0
-7.6740227 2.5379391 -0.77629256 0
-8.3245516 1.4633492 -0.86167228 0
-7.578238 1.9077401 -0.84287393 0
-7.5358443 1.8970679 -0.9759137 50
-7.5336142 1.8965065 -1.1131152 42
-7.5097771 1.8905058 -1.2480261 46
-7.4229493 1.8686478 -1.3689959 45
-7.4408464 1.8731533 -1.5091376 4
-7.6462541 1.9248624 -1.6905017 4
-8.3807259 2.1097579 -2.0061748 7
-7.7110944 1.9411852 -1.9862615 6
-5.4763203 1.3786049 -1.942716 6
-1.5293627 0.38500065 -0.73513561 15
-2.0366423 0.52784932 0.5553726 16
-3.8739676 1.0040405 0.77333754 6
-4.9467897 1.2820904 0.71492255 24
-6.3225317 1.6386501 0.56706142 4
-10.525844 2.7280486 0.55939621 7
-13.134312 3.4041018 0.45792952 4
-11.184124 3.7856157 0.32836786 42
-13.551659 2.479862 0.30205181 14
-14.131226 3.662478 0.23391296 3
-11.195452 3.7894499 0.11965074 44
-16.159517 2.9570823 0.069386683 4
-18.415518 4.7728648 -0.031542972 30
-11.184341 3.7856891 -0.089029387 49
-18.388954 3.3650544 -0.25124863 45
-18.361773 4.7589355 -0.36686239 80
-11.169734 3.780745 -0.2976695 43
-18.377779 3.3630092 -0.5815866 37
-18.36034 4.758564 -0.70311147 49
-11.14407 3.772058 -0.5054484 66
-18.333368 3.3548825 -0.90991026 33
-8.4323368 2.1854615 -0.47710487 2
-8.221839 2.782938 -0.52633333 6
-8.6921215 1.5905995 -0.58800119 0
-7.7663565 2.0128551 -0.58142692 2
-7.879375 2.6670203 -0.65175903 0
-8.3865433 1.5346807 -0.71817964 0
-7.7167015 1.9999857 -0.71874505 0
-7.6825185 2.6003881 -0.77896947 0
-8.1418991 1.4899125 -0.84382224 0
-7.5916824 1.9675838 -0.84587657 0
-7.5301003 1.9516232 -0.97691053 50
-7.5316887 1.9520348 -1.1148171 38
-7.5040412 1.9448693 -1.249299 47
-7.4211574 1.9233878 -1.3711085 42
-7.4351869 1.9270239 -1.5106815 3
-7.6326294 1.9781963 -1.6905017 4
-8.3544769 2.165282 -2.0034614 5
-7.7048678 1.9969187 -1.9882003 6
-5.4555779 1.4139563 -1.9388124 5
-1.5266376 0.39566821 -0.73513561 16
-2.0515926 0.54703707 0.56047714 16
-3.8516848 1.027014 0.77030188 6
-4.9492016 1.3196561 0.71658516 25
-6.3263392 1.6868564 0.56844532 3
-10.514261 2.8035247 0.55980724 7
-13.353581 3.5606017 0.46642968 6
-11.183871 3.8727622 0.32914624 45
-13.600802 2.5871139 0.30354235 12
-14.155551 3.7744391 0.23474608 3
-11.187621 3.8740606 0.11985319 46
-16.228859 3.0870166 0.069775268 6
-18.416534 4.9105887 -0.031602662 34
-11.191657 3.875458 -0.089300819 46
-18.372873 3.4948463 -0.25135615 32
-18.362881 4.8962822 -0.36755851 72
-11.173296 3.8691001 -0.29847702 46
-18.357782 3.4919758 -0.58171105 37
-18.361431 4.895896 -0.70444506 52
-11.140121 3.8576121 -0.50647849 62
-18.336977 3.488018 -0.91127563 45
-8.2625065 2.2031167 -0.46835467 4
-11.163911 3.86585 -0.71638471 51
-8.4298706 1.6035109 -0.57100385 3
-7.7868085 2.0762763 -0.58402902 7
-7.9057827 2.7376223 -0.6555084 0
-8.1211061 1.5447783 -0.69635558 4
-7.6948519 2.0517569 -0.7180267 0
-7.7018018 2.6669877 -0.78279358 0
-7.9241076 1.5073057 -0.822321 10
-7.5700765 2.0184867 -0.84501868 0
-7.5239615 2.0061908 -0.97790742 51
-7.5331812 2.0086491 -1.1170865 42
-7.5055437 2.0012798 -1.2518448 41
-7.418963 1.9781938 -1.3732212 44
-7.4443064 1.9849514 -1.5153131 2
-7.6261916 2.0334494 -1.6921788 4
-8.3466864 2.2255623 -2.0052702 6
-7.6907392 2.0506601 -1.9882003 5
-5.4565382 1.4549325 -1.942716 5
-1.5413535 0.41098681 -0.74358547 15
-2.0365338 0.55827904 0.55741441 17
-3.8482089 1.0549171 0.77106082 6
-4.9513292 1.3573178 0.71824777 24
-6.3220954 1.7330886 0.56913728 3
-10.540664 2.889533 0.56227332 6
-13.366954 3.6643095 0.46777889 7
-11.179176 3.9587538 0.32981342 45
-13.672644 2.69982 0.30555895 11
-14.298572 3.9196959 0.23756586 11
-11.179155 3.9587462 0.12005565 44
-16.159822 3.1909418 0.069572531 4
-18.401091 5.0443277 -0.031635821 34
-11.190722 3.962842 -0.089511931 49
-18.379419 3.6292267 -0.2517862 34
-18.359106 5.0328183 -0.36817729 53
-11.179937 3.9590232 -0.29938546 44
-18.364334 3.6262481 -0.58270669 38
-18.369211 5.0355883 -0.70607501 46
-11.143056 3.9459629 -0.50785202 67
-18.327856 3.6190448 -0.91205585 46
-8.1775904 2.241739 -0.46441707 36
-11.144177 3.9463599 -0.71686894 52
-8.2305222 1.6252109 -0.55825585 9
-7.8067522 2.1400805 -0.58663112 2
-7.9165502 2.8033974 -0.65800792 0
-7.9693499 1.5736394 -0.68426841 12
-7.7033935 2.1117465 -0.72018182 0
-7.7242813 2.7353115 -0.78700006 0
-7.8118877 1.5425466 -0.81177318 2
-7.5711422 2.0754921 -0.84673446 0
-7.5250831 2.062866 -0.97990108 54
-7.5266123 2.0632851 -1.1182212 40
-7.5066237 2.0578055 -1.2543905 44
-7.4163642 2.0330627 -1.3753339 40
-7.4189119 2.033761 -1.5129974 235
-7.6231256 2.0897424 -1.6946944 3
-8.3159161 2.2796586 -2.0016522 6
-7.6724925 2.1032755 -1.9872309 5
-5.4462481 1.4929907 -1.942716 5
-1.5279573 0.41886199 -0.73851556 18
-2.0437546 0.5756287 0.56047714 17
-3.8407502 1.0817571 0.77106082 8
-4.9493589 1.3939995 0.71935618 24
-6.3021703 1.7750221 0.56844532 3
-10.558685 2.9738803 0.56432843 7
-13.35259 3.7607906 0.46818367 8
-11.173825 4.0448689 0.33048061 42
-13.770996 2.8192694 0.3081893 9
-14.186165 3.995569 0.23615597 8
-11.181334 4.0475869 0.12037957 46
-15.933379 3.2619636 0.068694003 10
-18.43088 5.1911039 -0.031748571 31
-11.189111 4.0504022 -0.089723043 43
-18.381063 3.7630661 -0.25216246 36
-18.365866 5.1727929 -0.36902812 44
-11.182106 4.0478663 -0.30019298 43
-18.369905 3.7607818 -0.58370239 35
-18.375931 5.1756272 -0.70770502 48
-11.149055 4.0359025 -0.50939721 63
-18.33737 3.7541208 -0.91381127 44
-8.3924074 2.3637426 -0.47754237 2
-11.150143 4.0362959 -0.71904784 47
-8.0821238 1.6546141 -0.54896045 9
-7.8031416 2.1977746 -0.58749849 2
-7.9680295 2.8843868 -0.66394436 1
-7.8878818 1.6148479 -0.67822486 1
-7.692297 2.1665549 -0.72054106 0
-7.7648997 2.8108549 -0.79311866 0
-7.7580447 1.588267 -0.8073107 0
-7.5756073 2.1336889 -0.84887916 0
-7.5257788 2.1196547 -0.98189479 52
-7.5310802 2.1211479 -1.1210579 40
-7.5034776 2.1133733 -1.2562997 43
-7.4209399 2.0901265 -1.378855 38
-7.4347553 2.0940177 -1.5191729 255
-7.6459966 2.1535141 -1.7030798 3
-8.3072987 2.3397715 -2.0034614 6
-7.6725631 2.1609969 -1.9911084 5
-5.4284101 1.5289254 -1.9401135 6
-1.5319752 0.43148467 -0.7418955 18
-2.0582626 0.59525514 0.56558162 17
-3.8255591 1.106362 0.76954293 7
-4.9433122 1.4296192 0.71991038 26
-6.2934527 1.8200835 0.56879127 4
-10.576041 3.0586195 0.56638354 6
-11.955005 3.4574196 0.42001608 17
-11.179066 4.135263 0.3314814 40
-13.876166 2.9418747 0.31099501 13
-11.91033 3.4444997 0.19866581 13
-11.182814 4.1366496 0.1207035 45
-16.180216 3.4303541 0.069859736 3
-11.842676 3.4249339 -0.020440588 13
-11.194324 4.1409073 -0.089994475 50
-18.369995 3.8946078 -0.25237748 31
-11.994151 3.4687409 -0.24148099 2
-11.176075 4.1341572 -0.30079862 44
-18.390137 3.8988776 -0.58519584 38
-11.992 3.4681187 -0.46276438 14
-11.158089 4.1275039 -0.51111406 53
-18.334166 3.8870113 -0.9149816 55
-8.3948841 2.4278233 -0.47863615 3
-11.151649 4.1251216 -0.7209847 52
-8.0508547 1.7068551 -0.54763252 1
-7.8182673 2.2610641 -0.58981144 1
-11.141739 4.1214557 -0.93077195 44
-7.868618 1.6682192 -0.67755336 0
-7.6884651 2.2235248 -0.72161859 0
-7.7824306 2.8788095 -0.79694271 0
-7.7078395 1.6341327 -0.80325383 0
-7.5681682 2.1887345 -0.84973705 0
-7.5412984 2.1809638 -0.98588216 54
-7.5274997 2.1769731 -1.1227598 40
-7.4999218 2.1689975 -1.258209 44
-7.4175148 2.1451652 -1.3809676 31
-7.4350362 2.1502326 -1.5222607 255
-7.6420474 2.2101009 -1.7055955 2
