# .PCD v0.7 - Point Cloud Data file format
VERSION 0.7
FIELDS x y z intensity
SIZE 4 4 4 4
TYPE F F F F
COUNT 1 1 1 1
WIDTH 1387
HEIGHT 1
VIEWPOINT 0 0 0 1 0 0 0
POINTS 1387
DATA ascii
8.0307713 -21.945114 -1.8309243 1
2.0551207 -3.796114 -0.36362252 41
6.4503651 -17.626451 -1.8026814 3
2.0574479 -3.8004129 -0.44057256 46
6.6563678 -14.762821 -1.7466578 2
5.7488241 -12.750026 -1.7564453 2
5.0681195 -11.240325 -1.7666874 3
4.5254955 -10.036867 -1.7743483 2
4.076921 -9.041997 -1.7739201 3
3.7040031 -8.214921 -1.7723683 3
3.3968906 -7.5337915 -1.7718403 4
3.142266 -6.9690728 -1.7746235 4
2.9191005 -6.4741249 -1.773967 5
2.1377437 -4.7411933 -1.7891725 5
1.5691825 -3.4802103 -1.7795352 6
1.6996377 -3.840878 1.1087034 25
2.1931663 -4.9561648 1.047307 19
3.4096665 -7.7052383 1.1787908 17
4.3797817 -9.8975258 0.93968195 2
7.8174605 -17.666067 0.99384278 5
11.911349 -26.917524 0.99343991 25
11.118494 -31.052759 0.91727275 12
2.022109 -3.7982354 0.094341874 40
18.83383 -42.5611 0.74576581 10
15.086258 -42.134296 0.45305318 8
2.0188174 -3.7920525 0.018144948 43
26.128237 -59.045155 -0.10705774 18
9.705368 -27.10605 -0.21708453 10
2.0167737 -3.7882137 -0.057678603 33
8.6533117 -19.554941 -0.41358069 11
9.6917696 -27.068071 -0.72575235 37
2.0216157 -3.7973087 -0.13391551 43
8.7136898 -19.691387 -0.79824263 6
8.4532919 -23.609135 -1.0773399 4
2.020189 -3.7946289 -0.20987427 43
8.7664261 -19.81056 -1.1865276 2
8.5505571 -23.880787 -1.5380845 5
2.0200074 -3.7942879 -0.28603309 45
8.7775888 -19.835785 -1.5719632 0
7.8908114 -22.038189 -1.8340487 1
2.0173302 -3.789259 -0.361608 43
7.9025741 -17.858408 -1.7607638 1
6.366076 -17.779766 -1.8137712 1
2.028996 -3.8111715 -0.44016686 48
6.5386581 -14.776202 -1.7427974 3
5.6789446 -12.833402 -1.7624264 2
4.9991374 -11.297159 -1.7700914 2
4.4553146 -10.068216 -1.7743483 3
4.0296297 -9.106245 -1.7809622 3
3.6640322 -8.2800598 -1.7808597 3
3.3442121 -7.557323 -1.7718403 3
3.0856526 -6.9730248 -1.7701011 4
2.8801129 -6.5085416 -1.7778445 5
2.1076529 -4.7629199 -1.791775 4
1.5536504 -3.5109727 -1.789675 6
1.6606636 -3.8283973 1.101557 26
2.1849089 -5.0369616 1.0609676 26
3.3515162 -7.7263908 1.1782366 21
4.294425 -9.9001179 0.93691415 2
7.6654968 -17.671591 0.99096566 5
11.677124 -26.919762 0.99033666 39
7.6058383 -21.7432 0.64061201 1
1.9867989 -3.7987814 0.09399116 41
19.622717 -45.237068 0.79011315 2
9.4890251 -27.126764 0.29092744 35
1.9909661 -3.8067491 0.018144948 46
25.255379 -58.222282 -0.10522725 25
9.4813175 -27.104731 -0.2165115 40
1.9926578 -3.8099837 -0.057786115 35
8.6386461 -19.915031 -0.41984588 3
9.4706459 -27.074223 -0.7240364 33
1.9974315 -3.8191113 -0.13416442 42
9.8496265 -22.706757 -0.91752708 39
9.4926424 -27.137104 -1.2351208 35
1.9904671 -3.8057952 -0.20967922 44
9.8193893 -22.637051 -1.351469 32
9.4839783 -27.112337 -1.7416936 36
1.9939895 -3.8125298 -0.28629866 46
9.7671051 -22.516518 -1.7786863 1
7.7422194 -22.133081 -1.8371732 1
1.9987357 -3.8216047 -0.36328676 33
7.7920632 -17.963369 -1.7654333 1
6.2552934 -17.882328 -1.8195075 1
2.0028484 -3.8294685 -0.44057256 26
6.4713154 -14.918594 -1.7539499 2
5.5989327 -12.907454 -1.7669122 2
4.9303722 -11.366194 -1.7751974 2
4.3923917 -10.125965 -1.7788032 2
3.956502 -9.1210899 -1.7781454 3
3.6001143 -8.2994938 -1.7793158 3
3.2996194 -7.6067505 -1.7777102 4
3.0406573 -7.0097547 -1.7737191 4
2.8354144 -6.5365992 -1.7797834 4
2.0726826 -4.7782416 -1.791775 4
1.5249865 -3.5156152 -1.7862951 6
1.6338959 -3.8398974 1.101557 23
2.1789072 -5.1207547 1.075387 27
3.2897391 -7.7313747 1.1754657 20
4.2236443 -9.9261904 0.93656814 2
7.5169139 -17.665863 0.98767751 5
11.451338 -26.912342 0.98709852 19
9.2846575 -27.149181 0.79795724 37
1.9657156 -3.8232288 0.094254196 41
18.983843 -44.614845 0.7769115 3
9.274828 -27.12044 0.29015809 38
1.9716575 -3.8347855 0.018212527 29
24.448929 -57.458611 -0.10353602 27
9.2672739 -27.098349 -0.21593848 36
1.9842991 -3.8593726 -0.058323659 19
9.2658806 -27.094275 -0.72282511 33
1.9890019 -3.8685193 -0.135409 22
9.6611271 -22.705082 -0.91471171 47
9.2745152 -27.119522 -1.2313437 43
1.9675027 -3.8267045 -0.21006931 24
9.6548586 -22.69035 -1.3505939 1
9.2686338 -27.102327 -1.7368516 39
1.9855741 -3.8618526 -0.2889545 24
9.6471615 -22.67226 -1.7856253 1
7.621068 -22.284695 -1.8452967 1
1.9957004 -3.8815477 -0.36765158 23
7.6805034 -18.050322 -1.768666 1
6.1509175 -17.985842 -1.825626 1
2.0033588 -3.8964429 -0.44665781 24
6.3810205 -14.996345 -1.7578104 2
5.5351024 -13.008311 -1.7753854 2
4.8540015 -11.407623 -1.776332 2
4.3339615 -10.185452 -1.7838947 2
3.9004369 -9.166605 -1.7816665 3
3.5497689 -8.3424835 -1.7831755 3
3.2433712 -7.6224031 -1.776033 4
3.0007992 -7.0523233 -1.779146 4
2.7897112 -6.5562348 -1.7797834 4
2.0407546 -4.7960753 -1.7930762 5
1.5089227 -3.5461919 -1.7964349 5
1.5996016 -3.8333645 1.0964525 27
2.173353 -5.2083306 1.0905653 27
3.2143261 -7.7029705 1.1677068 21
4.102066 -9.8303947 0.92480481 4
7.378016 -17.681044 0.98562241 4
10.605798 -25.41626 0.92948627 2
9.073349 -27.14887 0.79606688 27
1.960622 -3.8796883 0.095306337 26
18.952227 -45.418056 0.78857511 5
9.0649805 -27.123831 0.28951025 52
1.9737045 -3.905576 0.018482843 23
24.108814 -57.775555 -0.10380131 30
9.0601168 -27.109276 -0.21551625 46
1.9771518 -3.9123976 -0.058914959 18
9.8320942 -23.562117 -0.49379075 0
9.073966 -27.150717 -0.72262323 25
1.9889959 -3.9358349 -0.13727584 21
9.4577398 -22.664997 -0.91041452 55
9.0646915 -27.122967 -1.2285967 68
1.9677702 -3.8938334 -0.21299507 23
9.4500723 -22.646622 -1.3440313 58
9.0576839 -27.101999 -1.7327359 18
1.9855683 -3.9290524 -0.29293826 24
9.4271898 -22.591785 -1.7740604 3
7.5044909 -22.454603 -1.8549825 1
1.9973186 -3.9523039 -0.37302366 23
7.5865188 -18.18071 -1.7762091 1
6.0340381 -18.054779 -1.8283029 1
2.003031 -3.9636078 -0.45274308 24
6.2960811 -15.08824 -1.7633867 2
5.4441524 -13.046637 -1.7753854 2
4.781867 -11.459503 -1.7791687 2
4.2657895 -10.22275 -1.7851675 2
3.8408961 -9.2045135 -1.7837791 3
3.5020211 -8.392417 -1.788579 3
3.1961024 -7.6592979 -1.7793872 4
2.9544928 -7.0802927 -1.780955 4
2.7528389 -6.5970397 -1.7855996 7
2.0101352 -4.8171873 -1.7956786 4
1.4757518 -3.5365648 -1.7862951 7
1.5771948 -3.8551764 1.0995152 25
2.169656 -5.3033442 1.1072615 28
3.1544726 -7.710556 1.16549 17
4.0514464 -9.9030514 0.92895657 3
7.2332273 -17.680357 0.98274529 4
10.403887 -25.430479 0.92732751 2
8.8699427 -27.169741 0.79484367 14
1.9619488 -3.9505885 0.096709184 25
13.991545 -34.199883 0.59208816 1
8.9300175 -27.353756 0.29129186 15
1.9712985 -3.9694152 0.01871937 22
23.897243 -58.412628 -0.10464361 27
8.9898062 -27.536896 -0.21841152 14
1.98537 -3.9977496 -0.059990048 17
9.9414558 -24.300148 -0.50779074 2
9.4550495 -28.961994 -0.76905525 30
1.989923 -4.0069175 -0.13926715 22
9.2735519 -22.667574 -0.90789545 52
8.9557323 -27.432524 -1.2397563 29
1.9636399 -3.9539936 -0.21553072 22
9.2887192 -22.704649 -1.3435938 5
9.0107527 -27.601057 -1.7605778 11
1.9793929 -3.985714 -0.29612526 23
9.2601814 -22.634892 -1.7723256 2
7.3710589 -22.578472 -1.860919 0
1.999817 -4.0268402 -0.37873149 23
7.4805317 -18.284851 -1.7812377 1
5.93503 -18.179735 -1.8367159 1
2.0071709 -4.0416479 -0.46004537 27
6.2041473 -15.164952 -1.7672472 2
5.3664651 -13.117384 -1.7798712 2
4.7107468 -11.514596 -1.7825727 2
4.2017965 -10.270555 -1.7883496 2
3.7899635 -9.2639017 -1.790117 3
3.4463198 -8.4239254 -1.7901229 3
3.1499591 -7.6995234 -1.7835799 4
2.9049926 -7.1007457 -1.780955 4
2.7067173 -6.6160965 -1.7855996 10
1.9750248 -4.8276024 -1.7943773 5
1.4633818 -3.5769806 -1.8015047 7
1.5429475 -3.844017 1.0933897 28
2.1666198 -5.3978009 1.1239578 30
3.0988381 -7.7202797 1.1638274 21
3.9797397 -9.9149113 0.92757267 3
7.1039023 -17.698284 0.98110121 3
10.205213 -25.424721 0.92462903 3
7.5650682 -23.704483 0.69198549 1
1.9655383 -4.0246015 0.098199718 25
13.564779 -33.794567 0.58350068 1
8.7666512 -27.469538 0.2918992 6
1.9782805 -4.0506921 0.019040368 24
23.57785 -58.740597 -0.10494869 25
19.305557 -60.492283 -0.47877422 1
1.9851403 -4.0647383 -0.060796365 19
12.613537 -31.424692 -0.65490699 0
9.2639799 -29.027874 -0.76915622 29
1.9931309 -4.0811 -0.14138292 22
9.1185436 -22.717453 -0.90745091 61
9.3325062 -29.242598 -1.3187327 5
1.9724383 -4.0387297 -0.21943174 21
9.0888348 -22.643438 -1.3363749 3
9.4211016 -29.520203 -1.8789665 2
1.9879447 -4.0704808 -0.30143693 26
9.2554951 -23.058647 -1.8006597 1
7.247829 -22.710442 -1.8677927 1
1.9993033 -4.0937386 -0.38376781 24
7.375421 -18.374729 -1.7851889 1
5.8349099 -18.283182 -1.8432169 1
2.0100088 -4.1156583 -0.46694201 26
6.1093583 -15.22053 -1.768963 2
5.2956114 -13.193204 -1.7853539 2
4.6416497 -11.563958 -1.7854095 2
4.136529 -10.305528 -1.7896224 2
3.7269726 -9.2851801 -1.7894129 3
3.3947601 -8.4575243 -1.7924387 4
3.1031952 -7.7311349 -1.7860956 4
2.8578346 -7.1198568 -1.780955 4
2.667115 -6.6447077 -1.7885078 10
1.9415543 -4.8370848 -1.7930762 5
1.4396261 -3.5866077 -1.8015047 6
1.5089959 -3.8366997 1.0882852 30
2.1590698 -5.4895463 1.139895 26
2.6243834 -6.6726298 1.0031084 16
3.9206336 -9.9684124 0.92999452 6
6.9582405 -17.691685 0.97801858 3
10.008444 -25.446983 0.92287505 4
7.5622945 -24.279728 0.7072196 2
1.9633414 -4.092308 0.099514894 20
13.114794 -33.345036 0.57414418 13
12.081129 -38.788033 0.41126651 3
1.9759073 -4.1185002 0.019293791 22
9.0970354 -29.207211 -0.23065607 17
1.9930474 -4.1542258 -0.06192521 17
12.428974 -31.601305 -0.65676332 0
9.0634794 -29.099476 -0.76935804 26
1.9939916 -4.1561942 -0.14349869 21
8.968503 -22.802879 -0.90833998 7
9.0639534 -29.101 -1.3094616 26
1.9718463 -4.1100354 -0.22255254 23
8.9027567 -22.635717 -1.3322185 22
9.2219057 -29.608126 -1.880419 1
1.9871025 -4.1418347 -0.30568624 26
9.1541586 -23.27492 -1.8125137 1
7.1057057 -22.813789 -1.872167 1
2.0017102 -4.1722827 -0.3898114 23
7.2615428 -18.462847 -1.7887808 1
5.714232 -18.346283 -1.8455113 1
2.0104902 -4.1905832 -0.47383863 27
6.0233288 -15.314623 -1.7749681 2
5.2106395 -13.248319 -1.787846 2
4.5723991 -11.62556 -1.7899481 2
4.0717092 -10.35253 -1.7928046 2
3.670706 -9.3329592 -1.7936381 3
3.3385057 -8.4883223 -1.7939826 3
3.0548723 -7.76717 -1.7894497 3
2.8166158 -7.1613903 -1.786382 7
2.6249223 -6.6739998 -1.7914159 8
1.9132756 -4.8646016 -1.7982811 5
1.402609 -3.5662055 -1.7862951 7
1.4780027 -3.836314 1.0852225 27
2.1574028 -5.5997696 1.1596268 27
2.5577974 -6.6390367 0.99534953 17
3.8151295 -9.9025764 0.92134506 4
6.8101454 -17.67646 0.97452492 3
9.7903051 -25.411783 0.91909719 4
7.5506864 -24.852234 0.72234255 1
1.9654067 -4.171031 0.10109311 24
14.292212 -37.096962 0.6370123 18
9.981039 -32.851467 0.34757426 1
1.9760915 -4.1937065 0.019581001 23
14.268142 -37.034489 -0.065805167 33
9.9708023 -32.817776 -0.25861347 18
1.9861599 -4.2150741 -0.062624022 16
8.8670807 -29.184998 -0.76996368 27
1.99049 -4.2242632 -0.14536554 20
8.8536386 -22.980566 -0.91293353 10
8.860569 -29.163568 -1.3094616 30
1.9737583 -4.188755 -0.22606345 20
8.7545643 -22.723408 -1.3337498 26
9.0405121 -29.755829 -1.8857453 1
1.9853587 -4.2133737 -0.30993557 22
9.033041 -23.446224 -1.8208983 1
6.9821987 -22.981123 -1.8818527 1
1.9997172 -4.2438455 -0.39518347 20
7.1697092 -18.609747 -1.7981199 1
5.5999007 -18.431444 -1.8501003 1
2.0117176 -4.2693129 -0.48114094 24
5.9205551 -15.367435 -1.776255 3
5.1337171 -13.325112 -1.7933286 2
4.4996672 -11.679367 -1.7933521 2
4.0050144 -10.395443 -1.7953503 2
3.6125383 -9.376729 -1.7971592 3
3.2819867 -8.5187473 -1.7955265 3
3.004791 -7.7992563 -1.7919654 3
2.7693527 -7.1881514 -1.788191 4
2.5796602 -6.6957841 -1.7923853 7
1.8765479 -4.8707809 -1.7956786 4
1.3894086 -3.6063585 -1.8015047 6
1.451185 -3.8465383 1.0852225 20
2.1473701 -5.6918597 1.1755642 28
2.505794 -6.6419053 0.99313271 15
3.7416859 -9.9177828 0.9203071 4
6.6752982 -17.693672 0.97288084 2
7.5919161 -20.123278 0.72588706 0
7.9879661 -26.966927 0.78216708 3
1.9647877 -4.2463493 0.10258363 21
14.042768 -37.222027 0.63746089 32
9.6560249 -32.598202 0.34417301 24
1.9736408 -4.2654829 0.019851316 22
14.054435 -37.252949 -0.066017397 35
9.6221647 -32.483891 -0.25544679 35
1.9852371 -4.2905455 -0.063537844 16
8.7062712 -29.391886 -0.77379936 6
1.9945284 -4.310626 -0.14785467 20
8.8086929 -23.348488 -0.92508423 6
8.6590242 -29.23238 -1.3098049 26
1.9696327 -4.2568212 -0.22898921 20
8.6662083 -22.970816 -1.3446876 255
8.8472986 -29.867987 -1.8888927 1
1.9894154 -4.2995758 -0.31524724 23
8.8761816 -23.527376 -1.8223439 1
6.8397117 -23.090485 -1.8868518 1
2.0018427 -4.3264337 -0.40156284 19
7.0550866 -18.700346 -1.802071 1
5.4880514 -18.527355 -1.8558364 1
2.0152841 -4.3554835 -0.48925462 16
5.8369942 -15.471647 -1.783547 3
5.0475731 -13.379192 -1.7958208 2
4.4306016 -11.743837 -1.7984582 2
3.9365273 -10.434234 -1.7972596 2
3.5567195 -9.4275084 -1.8020887 3
3.2293637 -8.5598125 -1.7993861 3
2.954412 -7.8310204 -1.794481 4
2.7191043 -7.2073092 -1.788191 6
2.5301139 -6.7063675 -1.7904465 6
1.8478395 -4.8979182 -1.8008834 4
1.3565199 -3.5956175 -1.7913649 6
1.2192936 -3.3014903 0.92902398 5
2.1470387 -5.8135524 1.1975728 27
2.4374051 -6.5997801 0.98426545 18
3.6585493 -9.9062815 0.91684729 4
6.5336185 -17.691128 0.97020924 2
7.5911279 -20.554554 0.73951435 10
7.7806563 -26.956728 0.78027672 4
1.9665194 -4.3291416 0.10424952 19
13.833834 -37.457973 0.63983208 32
9.4137917 -32.614861 0.34364665 35
1.975246 -4.3483524 0.020172317 23
13.848063 -37.496502 -0.066276051 23
9.4295359 -32.669407 -0.25638172 45
1.9668144 -4.3297911 -0.063914128 2
11.860043 -32.113525 -0.66210037 0
9.4367809 -32.694508 -0.85899204 30
8.808321 -19.390844 -0.66298133 22
8.8088846 -23.851881 -0.94256943 3
8.4857626 -29.399628 -1.3146122 9
1.9729139 -4.3432188 -0.23289022 18
8.5388393 -23.120678 -1.3499377 25
8.6773186 -30.063288 -1.8973663 1
8.8162508 -19.408302 -1.4184798 9
8.7255344 -23.626196 -1.8252351 1
6.7004604 -23.2143 -1.8931007 1
8.7040081 -19.161207 -1.7727857 2
6.9340224 -18.775305 -1.8045853 1
2.2205007 -7.6931081 -0.76902682 0
5.7467504 -15.560519 -1.7891233 2
4.9664202 -13.447613 -1.8003066 2
4.3443909 -11.763339 -1.7967561 2
3.8690588 -10.476279 -1.7998053 2
3.4880881 -9.4447222 -1.8006803 3
3.1736054 -8.593195 -1.8017019 3
2.8942494 -7.8367805 -1.7911268 4
2.6714213 -7.233427 -1.79 6
2.4872661 -6.7347889 -1.7933547 5
1.8122901 -4.9071512 -1.7995822 4
1.3376648 -3.622005 -1.7998148 8
1.3710356 -3.7977958 1.0658253 17
2.1337039 -5.9104023 1.2142689 26
2.3755097 -6.5802088 0.97872341 17
3.568244 -9.8841066 0.91234952 5
6.3888407 -17.697214 0.96794862 1
7.5773559 -20.989426 0.75314158 2
7.5720453 -26.974541 0.77916473 7
8.8340311 -19.832247 0.47600561 28
14.527181 -40.240578 0.68552518 4
9.2133837 -32.821621 0.34510431 44
8.8702536 -19.913567 0.092076316 14
9.2265673 -32.868584 -0.25740713 34
8.7035332 -19.539282 -0.28747919 22
10.374978 -28.738895 -0.59094006 16
9.2346973 -32.897549 -0.86252487 24
8.7684298 -19.684975 -0.67082214 2
8.7247448 -24.167715 -0.95249742 1
9.2172461 -32.835381 -1.4651823 37
8.6842108 -19.495903 -1.0419594 66
8.455924 -23.423079 -1.363938 6
8.4685879 -30.168369 -1.9000294 1
8.7257118 -19.589071 -1.4269785 2
8.5819149 -23.772074 -1.8315959 1
6.5495162 -23.3319 -1.8987247 1
8.5065517 -19.097061 -1.7610343 4
6.8205566 -18.893076 -1.8110508 1
2.1662018 -7.716845 -0.7697916 0
6.9463315 -15.594395 -1.7403833 2
5.6379337 -15.617188 -1.7908391 2
4.8704066 -13.491122 -1.8013035 2
4.2647676 -11.813491 -1.7995929 2
3.797524 -10.519217 -1.8023509 2
3.4267833 -9.4922581 -1.8049057 2
2.5961056 -7.1912642 -1.5037341 0
2.8473499 -7.8872151 -1.7978351 4
2.6222951 -7.2638092 -1.7927134 5
2.4404664 -6.7601404 -1.7952935 4
1.7775546 -4.9238615 -1.8008834 5
1.3098474 -3.6283031 -1.7981248 11
1.3547913 -3.8364496 1.0739926 20
2.1486225 -6.0843925 1.2469025 27
2.3189604 -6.5667496 0.97428977 20
3.5004797 -9.9125338 0.91269553 5
6.2238989 -17.624617 0.96157783 1
7.5890474 -21.490395 0.76919746 1
6.2750111 -22.96907 0.66218442 2
18.646425 -42.659672 1.020751 11
9.5713968 -27.103943 0.46058425 28
25.85503 -59.151665 0.27266416 22
9.5686169 -27.096069 -0.047646068 34
15.543988 -56.897266 -0.44472471 33
8.7126884 -19.933065 -0.29237086 2
9.5814896 -27.132521 -0.5565201 20
15.477305 -56.653175 -1.482493 25
9.9262142 -22.709396 -0.77150768 25
9.5780344 -27.122736 -1.0662993 41
9.0130644 -32.991451 -1.4693028 3
9.9208088 -22.697029 -1.2093127 11
8.4544477 -23.941004 -1.3906262 0
8.2514534 -30.203646 -1.8985769 0
10.612449 -24.279377 -1.7632068 1
8.4449711 -23.914169 -1.8379567 1
6.4116921 -23.469378 -1.9062234 1
8.4352856 -19.298418 -1.7741288 2
6.7150226 -19.015362 -1.8182347 1
2.1070287 -7.7125745 -0.76787955 0
6.8627977 -15.700849 -1.7468742 1
5.5473075 -15.708668 -1.7968442 1
4.7879958 -13.558476 -1.8057892 2
2.5683813 -7.2730508 -1.1051724 3
2.536576 -7.1829858 -1.2276607 6
2.5449073 -7.2065783 -1.3668833 1
2.5027101 -7.0870857 -1.4782602 8
2.7896123 -7.8995247 -1.7961581 5
2.5728176 -7.2856131 -1.793618 3
2.3957968 -6.7843323 -1.7972323 4
1.7469146 -4.9468508 -1.804787 5
1.284485 -3.6373589 -1.7981248 11
1.3279748 -3.8458145 1.0739926 24
2.1548038 -6.2403107 1.2757413 27
2.2704735 -6.5752902 0.97318137 18
3.418185 -9.8990622 0.90923572 6
6.1150465 -17.709173 0.96383846 1
6.9351673 -20.084242 0.71711707 10
6.1052623 -22.977539 0.6611836 5
15.070006 -35.144012 0.8383801 2
9.3597507 -27.105835 0.4594948 30
11.643536 -43.821178 0.45900533 0
25.009514 -58.323444 0.26803499 22
9.3544111 -27.090372 -0.047520056 35
14.954314 -56.281502 -0.43908498 33
10.270956 -23.952387 -0.35026446 0
9.3683395 -27.130709 -0.55512786 44
14.897607 -56.068081 -1.464425 34
9.7437963 -22.723022 -0.7696408 26
9.3662691 -27.124712 -1.0637802 51
12.249143 -46.100418 -2.0492635 3
9.7164507 -22.659252 -1.2036562 35
9.358676 -27.102722 -1.5704428 35
8.0588465 -30.329975 -1.9029347 0
10.508751 -24.506937 -1.7743613 1
8.2856264 -23.995171 -1.8396914 1
6.2589526 -23.555962 -1.9096603 1
8.3239145 -19.411787 -1.779165 2
6.6029119 -19.12203 -1.8239818 1
2.0439312 -7.6924634 -0.76443785 1
6.7749734 -15.799579 -1.7525538 1
5.4582739 -15.807158 -1.8037074 1
2.5635905 -7.4241571 -0.98638064 0
2.4606788 -7.1261249 -1.0802096 7
2.4373877 -7.0586739 -1.2034765 10
2.4469821 -7.0864596 -1.3408272 2
2.4198651 -7.0079288 -1.4581898 14
2.7458842 -7.9520798 -1.803705 5
2.5244353 -7.3107634 -1.795427 3
2.3496416 -6.8045611 -1.7982016 4
1.711102 -4.9553509 -1.8034859 5
1.2602434 -3.6496646 -1.7998148 10
1.2998577 -3.8513269 1.0729717 21
2.157656 -6.3928828 1.3038213 26
2.2460513 -6.6547885 0.98260283 18
3.3426239 -9.9038048 0.90750581 6
5.9286737 -17.565969 0.95376849 0
6.8510389 -20.29883 0.72305369 22
5.9367013 -22.98863 0.66029406 7
14.83824 -35.28154 0.8391692 5
9.1536684 -27.121254 0.45866168 31
9.314086 -36.066841 0.37709215 14
24.218708 -57.585896 0.26386201 30
9.1471558 -27.101957 -0.047427204 32
14.397006 -55.749386 -0.43413889 29
10.207375 -24.270527 -0.35386604 0
9.1595259 -27.138609 -0.5539676 53
14.343839 -55.543507 -1.4480728 28
9.567872 -22.749954 -0.7682718 30
9.1549511 -27.125053 -1.0612612 52
11.440369 -44.300426 -1.9656518 0
9.6122322 -22.855431 -1.210483 3
9.1436977 -27.091711 -1.5660677 29
7.8658748 -30.45895 -1.9075347 0
9.5204382 -22.637167 -1.6341333 3
8.151083 -24.150709 -1.8472085 1
6.1172824 -23.687893 -1.9168465 1
8.1974621 -19.49147 -1.7811795 2
6.481998 -19.205404 -1.8275737 1
1.965288 -7.6101651 -0.75487763 1
6.67839 -15.879505 -1.756205 1
5.3655949 -15.897633 -1.8097125 1
2.4520483 -7.2651334 -0.9629547 0
2.370352 -7.023077 -1.0620549 10
2.3691084 -7.0193925 -1.1939301 13
2.3445666 -6.9466777 -1.3112502 18
2.3482916 -6.957715 -1.4442949 14
2.6915541 -7.974761 -1.8045435 5
2.4758289 -7.3355927 -1.797236 3
2.3082862 -6.8391833 -1.8030485 4
1.6740475 -4.9600077 -1.8008834 5
1.2382123 -3.668679 -1.8048847 11
1.2656716 -3.8382697 1.0668463 19
2.1621687 -6.5569825 1.3341781 27
2.2317922 -6.7681227 0.99701214 18
3.2746489 -9.9306841 0.90785182 6
6.39887 -19.405182 1.0511799 25
8.3880148 -25.437452 0.9039858 6
5.7741261 -23.021757 0.66007161 10
14.599189 -35.402756 0.8396076 11
8.9691133 -27.19969 0.45891801 17
9.0708303 -36.165901 0.37745658 4
23.869463 -57.882996 0.26445332 34
9.0291271 -27.381687 -0.047805242 12
13.846908 -55.208382 -0.42916265 33
13.073541 -31.703089 -0.46089128 0
8.9498005 -27.141123 -0.55273002 75
13.796197 -55.006199 -1.4315188 27
9.4057665 -22.808804 -0.76802289 27
8.9653587 -27.188305 -1.0612612 24
11.200825 -44.658306 -1.9780133 0
9.3473425 -22.667128 -1.1970245 4
9.0431442 -27.424196 -1.5815994 15
7.7404656 -30.861664 -1.929324 0
9.3393459 -22.647738 -1.6301496 4
8.0335054 -24.36237 -1.8590626 1
5.967288 -23.791906 -1.9218457 1
8.0854998 -19.607182 -1.7865517 1
6.3764558 -19.33721 -1.8358351 1
1.8946774 -7.554183 -0.74799424 1
6.5901237 -15.980925 -1.7622902 1
5.2681775 -15.97625 -1.814431 1
2.3627386 -7.1652298 -0.94750357 1
2.302664 -6.983048 -1.0535448 3
2.3027322 -6.9832549 -1.1850203 15
2.2849145 -6.9292212 -1.3049122 18
2.2861402 -6.9329381 -1.4358037 16
2.3492062 -7.1241913 -1.6083245 6
2.4343181 -7.3823013 -1.804472 3
2.2604835 -6.8551316 -1.8030485 4
1.6441175 -4.9859428 -1.8060883 4
1.2114346 -3.6737907 -1.8031946 11
2.1596775 -6.7064958 1.3614991 22
2.2197015 -6.8928895 1.0130841 19
3.1930246 -9.9153719 0.904392 7
6.2485461 -19.403753 1.0487138 26
7.7788796 -24.155933 0.85649282 38
5.6085348 -23.042082 0.65951568 13
14.368171 -35.544598 0.84057206 15
8.7973948 -27.318748 0.45987931 12
8.6544762 -35.556011 0.37045166 21
23.646183 -58.496941 0.26649758 23
9.389493 -29.157406 -0.050789755 19
13.386412 -54.996677 -0.4267801 43
12.755969 -31.556261 -0.45745099 1
8.8937225 -27.617878 -0.56116098 24
13.403335 -55.066204 -1.4306103 25
9.2552977 -22.896151 -0.76876962 11
9.3377256 -28.996653 -1.1292756 27
11.024877 -45.294556 -2.0027363 0
9.1619225 -22.665157 -1.1935136 5
9.3448467 -29.018766 -1.6697576 4
7.5474849 -31.008055 -1.9351345 0
9.1496019 -22.634678 -1.6245724 4
7.8852401 -24.486216 -1.8642669 1
2.8095126 -11.542589 -0.93077195 5
7.9499173 -19.666845 -1.7868874 1
6.2559547 -19.42676 -1.8401455 1
1.8258848 -7.5014577 -0.74149328 1
6.5052433 -16.092949 -1.7695925 1
2.4600105 -7.6391263 -0.86560798 0
2.2858942 -7.0984392 -0.93653822 1
2.2453611 -6.9725714 -1.0495734 9
2.2369771 -6.9465361 -1.1761104 17
2.2292421 -6.9225163 -1.300687 16
2.2304652 -6.9263144 -1.431172 1
2.5811448 -8.0152874 -1.805382 2
2.3886924 -7.4176607 -1.8089944 3
2.2161391 -6.8818274 -1.8059566 3
1.6023126 -4.9756975 -1.7982811 4
1.1857572 -3.6821587 -1.8031946 12
0.82691431 -2.6306405 0.72790563 3
2.1587353 -6.8675275 1.3910968 31
2.204788 -7.0140333 1.0286018 19
3.1201396 -9.9260168 0.90335405 6
6.0949621 -19.38974 1.0456312 24
7.58008 -24.114307 0.85311973 10
5.440187 -23.049543 0.65862608 17
11.268344 -28.446075 0.67082685 19
11.773915 -37.456043 0.62912977 2
2.738003 -11.600654 0.12066301 9
23.299093 -58.816788 0.26720718 24
18.882399 -60.070068 -0.10440484 19
2.7343905 -11.585347 -0.089753203 36
12.54861 -31.678011 -0.4579348 1
9.1444263 -29.090919 -0.58977979 21
2.7317603 -11.574203 -0.30019298 53
9.2248011 -23.287306 -0.7797218 3
9.1374607 -29.06876 -1.1295719 32
2.7392921 -11.606114 -0.51231587 14
9.0108232 -22.747137 -1.1944889 2
9.2582064 -29.452887 -1.6909769 0
2.7303722 -11.568321 -0.72074258 35
9.0016479 -22.723974 -1.6264315 2
7.7332435 -24.601562 -1.8688928 1
2.7233653 -11.538635 -0.92889726 22
7.8168268 -19.732983 -1.7878947 1
6.1333199 -19.511766 -1.8440965 1
1.7615801 -7.463644 -0.7365219 1
6.4029942 -16.163872 -1.7724323 1
2.3708422 -7.5422969 -0.85273963 1
2.2172399 -7.0536456 -0.92856348 2
2.1776309 -6.927639 -1.040496 17
2.1765845 -6.9243102 -1.1697462 20
2.1690521 -6.9003472 -1.2936448 2
2.2173645 -7.0540423 -1.4543301 2
2.1756184 -6.9212365 -1.5554963 0
2.3356807 -7.430439 -1.80809 3
2.1668773 -6.8934288 -1.8049873 3
1.5743421 -5.0084124 -1.8060883 5
1.1621963 -3.6972642 -1.8065746 12
0.81306547 -2.6511395 0.73198926 4
2.1475887 -7.0025821 1.4153823 46
2.2010677 -7.176959 1.0502156 19
3.0402534 -9.9132681 0.90024024 7
4.0209904 -13.111129 0.7055133 1
7.3822474 -24.071085 0.84974664 33
2.6489275 -11.584409 0.33048061 48
11.290838 -29.094458 0.68424159 1
11.373769 -37.086128 0.62156761 4
2.6498158 -11.588293 0.12033909 52
14.526354 -37.431797 0.16958937 8
10.063996 -32.815388 -0.056911319 3
2.6480932 -11.580759 -0.089572251 48
12.36622 -31.86552 -0.45938617 0
8.8848324 -28.970522 -0.58606708 8
2.6455424 -11.569604 -0.29958734 49
9.2023048 -23.712683 -0.79179412 2
8.9378233 -29.143309 -1.1300164 91
2.6475096 -11.578207 -0.51025563 54
8.8026543 -22.682856 -1.1878572 52
9.9294996 -32.376839 -1.8548244 24
2.6450934 -11.56764 -0.71953207 59
8.831234 -22.7565 -1.6243068 0
7.5964026 -24.769375 -1.8775665 0
2.641855 -11.553479 -0.92858481 54
7.7336717 -19.92828 -1.8006533 1
6.0261593 -19.649326 -1.8530763 1
1.6978929 -7.4253011 -0.73155057 1
6.325985 -16.300924 -1.7825744 1
2.280817 -7.436996 -0.83901346 2
2.1586344 -7.0385981 -0.92457604 3
2.1199276 -6.9123878 -1.0359573 16
2.1177714 -6.9053574 -1.1640183 4
2.1797073 -7.1073093 -1.3295598 3
2.118582 -6.9080005 -1.4211369 2
2.1123397 -6.8876462 -1.5445954 2
2.2837512 -7.4465632 -1.80809 3
2.1243904 -6.9269395 -1.8098341 4
1.5415576 -5.0265131 -1.8086908 4
1.1331681 -3.6948893 -1.8015047 12
0.80229419 -2.6826887 0.73913556 4
2.1402845 -7.1566234 1.4434623 37
2.186096 -7.3098063 1.0673959 19
2.9664047 -9.9189806 0.89885634 7
3.9934561 -13.353207 0.71702182 4
7.1934018 -24.053097 0.84731799 49
2.5645323 -11.587003 0.33003581 52
13.710129 -36.073212 0.8460958 4
9.773819 -32.681419 0.54658729 18
2.5645278 -11.586984 0.12013663 50
14.106937 -37.117268 0.16771406 34
9.7326536 -32.543774 -0.056321051 23
2.5645864 -11.587248 -0.089481771 49
12.18182 -32.052021 -0.46083754 0
8.738512 -29.219591 -0.58985716 19
2.5612502 -11.572174 -0.29918358 48
9.1956196 -24.194921 -0.80573326 3
8.7352924 -29.208824 -1.1301646 38
2.5622959 -11.576899 -0.50939721 62
8.6554384 -22.773634 -1.1894176 41
9.7352676 -32.552513 -1.8609496 20
2.5582316 -11.558536 -0.71783733 53
8.6834917 -22.847445 -1.6264315 0
7.442728 -24.886786 -1.8824816 0
2.5602705 -11.567748 -0.92827237 53
7.5943575 -19.981785 -1.8006533 1
5.8922586 -19.70237 -1.854154 1
1.6348275 -7.386435 -0.72657925 1
6.2233391 -16.374449 -1.7858199 1
2.1684484 -7.2507973 -0.81627947 3
2.0912485 -6.9926577 -0.9166013 6
2.0659459 -6.908052 -1.0331206 21
2.0581963 -6.8821392 -1.157654 2
2.0657284 -6.9073253 -1.2894195 4
2.0669298 -6.9113421 -1.418821 3
2.0642033 -6.9022255 -1.5445954 7
2.0664799 -6.9098372 -1.6742244 2
2.0793152 -6.9527555 -1.8127424 3
1.5075122 -5.0407772 -1.809992 4
1.1094229 -3.7096572 -1.8048847 11
0.79220384 -2.7179284 0.74730283 4
2.1287344 -7.3033571 1.4700243 40
2.1682661 -7.4389849 1.084022 19
2.8870487 -9.9050159 0.89574248 8
4.0018592 -13.729758 0.73572314 2
7.0208297 -24.087378 0.84677833 52
2.4810698 -11.592894 0.32970223 48
9.4883432 -32.553036 0.54331893 29
2.4802277 -11.58896 0.11997467 50
13.892103 -37.334808 0.16825469 40
9.5040998 -32.60709 -0.056314416 37
2.4794471 -11.585312 -0.089330979 48
11.994023 -32.233749 -0.46223515 0
8.5331888 -29.276047 -0.58977979 3
2.4753807 -11.566312 -0.29857796 51
10.63686 -28.586393 -0.94948089 23
8.5938015 -29.484001 -1.1384627 8
2.4772327 -11.574965 -0.50853878 64
8.5324631 -22.930859 -1.1944889 38
9.5010643 -32.59668 -1.859637 37
2.4758074 -11.568305 -0.71735311 54
9.0693855 -24.373831 -1.73054 1
7.3112264 -25.083683 -1.8934683 0
2.47528 -11.565842 -0.92671013 51
7.4824734 -20.10903 -1.8073685 1
5.7712884 -19.800394 -1.8595419 1
1.673216 -7.8181663 -0.76787955 1
6.1102595 -16.421225 -1.7862256 1
2.0944054 -7.1855803 -0.80727166 9
2.0290523 -6.9613638 -0.91062021 15
2.0132363 -6.9071012 -1.0308512 20
2.0808234 -7.1389823 -1.1983851 4
2.0097432 -6.8951168 -1.28449 2
2.0175309 -6.9218354 -1.4180491 3
2.0137775 -6.908958 -1.5429182 15
2.0040154 -6.8754663 -1.6624658 2
2.0296392 -6.963377 -1.8117729 3
1.4691089 -5.0402846 -1.8060883 5
1.080454 -3.7068701 -1.7998148 10
0.79213953 -2.7863648 0.76465821 3
2.1070983 -7.411756 1.4889973 33
2.1730447 -7.6437235 1.1117322 17
2.8191128 -9.9162788 0.89505053 9
4.2154851 -14.828043 0.79306024 4
6.8576412 -24.121876 0.84637356 62
2.4008844 -11.593432 0.32925743 50
13.195877 -36.196388 0.84469295 20
9.3137932 -32.761433 0.54575419 29
2.4016898 -11.597322 0.11989368 56
13.683923 -37.535103 0.16874464 25
9.3259153 -32.80407 -0.056546547 28
2.3993111 -11.585835 -0.089210339 51
10.470336 -28.720209 -0.41084582 15
9.2979364 -32.705658 -0.65761417 34
2.3961825 -11.570727 -0.29827514 51
10.447041 -28.656309 -0.94948089 16
9.3096886 -32.746994 -1.2620443 38
2.3963578 -11.571573 -0.50768036 62
8.4458818 -23.167114 -1.2038512 24
9.3272619 -32.808807 -1.8681685 37
2.3949804 -11.564922 -0.71614259 55
9.409236 -25.809605 -1.8280091 2
7.1577954 -25.177671 -1.8969377 0
2.3944745 -11.56248 -0.92514795 54
7.3817105 -20.248087 -1.8154266 1
5.651823 -19.880388 -1.863493 1
1.561577 -7.5405698 -0.73958123 0
6.0257525 -16.528685 -1.7935278 1
2.0401776 -7.1763611 -0.80469799 16
1.9763263 -6.9517627 -0.90762967 16
1.9630512 -6.9050674 -1.028582 21
2.0528681 -7.2209997 -1.2098408 3
1.9639686 -6.9082942 -1.28449 4
2.0789051 -7.3125854 -1.4952428 6
1.9679111 -6.9221621 -1.5429182 16
1.9615679 -6.8998499 -1.6651794 16
1.9844726 -6.9804177 -1.8127424 3
1.4408196 -5.0681086 -1.8125944 5
1.0588195 -3.7244163 -1.8048847 10
0.93772429 -3.3882117 0.92800307 15
2.0636854 -7.4565654 1.4950687 36
2.1354797 -7.7159753 1.1200453 20
2.7498176 -9.9357176 0.89505053 9
4.2589087 -15.388409 0.82142049 3
6.7519908 -24.396481 0.854334 23
2.3167546 -11.594228 0.32881263 51
12.960321 -36.336597 0.84583277 19
9.1179266 -32.945148 0.54774088 20
2.3190989 -11.60596 0.1198127 53
10.566041 -29.623798 0.13284332 6
15.772485 -56.989582 -0.098044522 32
2.3168006 -11.594458 -0.089150019 49
9.6703043 -27.11244 -0.38687131 22
9.1056576 -32.900818 -0.66024399 41
2.3122108 -11.571489 -0.29787138 53
9.6544075 -27.067869 -0.89459544 38
9.113904 -32.930611 -1.2666379 19
2.3123822 -11.572347 -0.50699359 66
8.4033928 -23.560423 -1.2212107 14
2.3126187 -11.57353 -0.71565837 57
9.2301626 -25.878424 -1.8282746 2
6.9988794 -25.288548 -1.9015638 0
2.3113503 -11.567183 -0.92421061 59
7.2656136 -20.370457 -1.821806 1
5.5299006 -19.980791 -1.86924 1
1.4839295 -7.4263439 -0.7273441 1
5.9289298 -16.622822 -1.7992074 2
1.9719957 -7.1252699 -0.79740596 20
1.9213954 -6.9424396 -0.90463912 19
1.9084615 -6.8957062 -1.025178 16
1.9191933 -6.9344826 -1.1595633 2
1.9125425 -6.9104519 -1.2823774 7
1.9178823 -6.9297462 -1.4141893 9
1.9195389 -6.9357314 -1.5429182 200
1.911273 -6.9058647 -1.6633704 3
1.9077449 -6.893117 -1.786569 2
1.4064125 -5.0816889 -1.8138956 5
1.0327932 -3.7317171 -1.8048847 10
0.94019169 -3.4917731 0.95454663 4
2.0095363 -7.4632063 1.4935508 24
2.0753806 -7.7077451 1.1167201 17
2.6741698 -9.9315853 0.89297467 9
4.2375793 -15.737926 0.83847779 1
7.3277988 -27.214676 0.95120889 28
2.2342429 -11.602266 0.32859024 51
9.4701471 -27.148785 0.63040715 36
9.4741869 -35.186134 0.58388519 2
2.231967 -11.590447 0.11948878 52
9.4617987 -27.124853 0.121338 35
15.1964 -56.437832 -0.09691041 34
2.234287 -11.602495 -0.089089707 52
9.451808 -27.09621 -0.38568869 39
15.307957 -56.852142 -1.1387198 48
2.2291019 -11.575569 -0.29756856 52
9.4507189 -27.093088 -0.89322639 34
12.417341 -46.116703 -1.770448 20
2.2322915 -11.592132 -0.50716525 91
9.4598389 -27.119234 -1.4022175 36
9.1403437 -33.946278 -1.9254824 0
2.2279892 -11.569791 -0.71444786 58
6.8449817 -25.421543 -1.9079244 1
2.2267697 -11.563458 -0.92264837 56
7.141603 -20.473372 -1.8265065 1
5.4047751 -20.072767 -1.8742688 1
1.3657911 -7.0924568 -0.69369197 0
5.844192 -16.753986 -1.8089439 1
1.919102 -7.1273432 -0.79611909 17
1.8697857 -6.9441876 -0.90314382 18
1.8520381 -6.8782749 -1.0206392 12
1.8625207 -6.9172063 -1.154472 4
1.9502469 -7.2430124 -1.3415315 4
1.865375 -6.9278069 -1.4111016 7
1.8670042 -6.9338574 -1.539564 20
1.8792233 -6.979238 -1.6778423 3
1.8555393 -6.8912783 -1.7826915 2
1.3679512 -5.0804267 -1.809992 5
1.0067158 -3.7388365 -1.8048847 10
0.88326973 -3.3788342 0.92187768 6
1.9527879 -7.4701371 1.492033 27
2.0178223 -7.7189183 1.1161659 18
2.5982723 -9.9393549 0.89193672 10
5.074832 -19.413115 1.0322731 31
7.1129427 -27.209642 0.94918507 35
2.1462278 -11.602606 0.32814544 51
9.2502518 -27.156908 0.6290043 40
9.1027145 -34.821259 0.5767076 3
2.1425824 -11.582897 0.11924583 56
9.238205 -27.12154 0.121017 39
14.609289 -55.885948 -0.09577629 34
2.1433587 -11.587095 -0.088848434 54
9.2361641 -27.115549 -0.38498989 38
14.714805 -56.289581 -1.1252612 40
2.1420097 -11.579802 -0.29726574 53
9.2247915 -27.082161 -0.89061284 39
14.675103 -56.137711 -2.1509728 5
2.1436253 -11.588535 -0.50630683 66
9.2388916 -27.123558 -1.3989017 47
8.9528799 -34.248085 -1.9388264 0
2.1409426 -11.574033 -0.71372157 55
9.014576 -26.46501 -1.8604102 25
6.6917462 -25.59841 -1.9174654 1
2.1390469 -11.563785 -0.92139858 51
7.0080414 -20.574223 -1.8308713 1
5.2615194 -20.127262 -1.8757055 1
1.3065234 -7.0631251 -0.68986791 9
5.7276378 -16.81521 -1.8109723 1
1.8597636 -7.1142855 -0.79311651 12
1.8138133 -6.938508 -0.90065175 18
1.8005668 -6.887835 -1.0200719 14
1.8107665 -6.9268532 -1.1538355 5
1.8831588 -7.2037807 -1.3316724 9
1.8105712 -6.926106 -1.4080138 8
1.820083 -6.962492 -1.5429182 12
1.8043617 -6.9023523 -1.6561344 3
1.7981036 -6.8784127 -1.7759058 2
1.3325863 -5.0976362 -1.8125944 5
0.97653091 -3.7355928 -1.7998148 11
0.83871537 -3.3024507 0.89941776 7
1.896722 -7.4683623 1.4889973 25
1.955109 -7.6982622 1.111178 17
2.5229337 -9.9340782 0.88986081 10
4.931313 -19.417097 1.0306289 28
6.9159222 -27.231516 0.94824058 30
2.0616751 -11.597622 0.32758945 50
9.0402346 -27.160112 0.62760144 39
8.7865429 -34.597107 0.57196528 5
2.0602663 -11.589697 0.11916485 45
9.0322208 -27.136036 0.12079737 47
14.051393 -55.327507 -0.094648808 32
2.0673141 -11.629343 -0.089059547 28
9.0276966 -27.122442 -0.38418359 35
14.155102 -55.735863 -1.1121894 36
2.0912099 -11.763765 -0.30160612 11
9.040555 -27.161074 -0.89111066 16
13.331364 -52.492382 -2.0076833 0
2.061271 -11.595348 -0.50596344 56
9.025342 -27.115368 -1.3951957 39
8.7155313 -34.317493 -1.9392639 0
2.0712695 -11.651594 -0.71759522 22
9.0022869 -27.046103 -1.8967952 8
6.5325136 -25.721842 -1.9232479 0
2.0994437 -11.810083 -0.93983281 13
6.8755698 -20.656681 -1.8338931 1
5.14147 -20.244593 -1.8832486 1
1.2509097 -7.0367918 -0.68642622 16
5.6201639 -16.884993 -1.8142178 1
1.800262 -7.0885506 -0.78882706 12
1.7633753 -6.9433084 -0.89965487 18
1.7534114 -6.9040756 -1.0206392 23
1.7594476 -6.9278436 -1.1519263 4
1.7572207 -6.9190755 -1.2767437 9
1.7592754 -6.9271655 -1.4056981 13
1.7608413 -6.933331 -1.5336943 3
1.753253 -6.9034519 -1.6534209 4
1.7509947 -6.8945599 -1.7768753 2
1.2960346 -5.1031494 -1.8112931 5
0.95756716 -3.7704308 -1.8133345 12
0.80915958 -3.2819397 0.8922714 8
1.8473589 -7.4928613 1.4912741 23
1.8994224 -7.7040305 1.1100696 17
2.4439824 -9.9127579 0.88640106 11
4.7784276 -19.381235 1.0269297 25
5.7638841 -23.378233 0.81264275 2
2.0068786 -11.765452 0.3319262 12
8.8590555 -27.249184 0.62821519 23
8.7448997 -35.469189 0.58535922 1
2.0317633 -11.911341 0.12232314 14
8.9340725 -27.479925 0.12204758 16
13.53458 -54.896065 -0.093746826 31
2.0600574 -12.077215 -0.092377037 7
8.9778633 -27.61462 -0.39025784 11
13.612485 -55.212048 -1.0998137 35
8.0751257 -47.340935 -1.212279 32
9.4168634 -28.964918 -0.94811183 255
13.056445 -52.956753 -2.0219085 0
2.0420902 -11.971883 -0.52175874 12
8.9296999 -27.466476 -1.4100196 18
8.530242 -34.598541 -1.951733 0
2.064395 -12.102646 -0.74446875 4
8.605937 -26.470627 -1.8521771 1
6.3546982 -25.774565 -1.9238262 0
1.294786 -7.5907645 -0.60333019 0
6.7472119 -20.753456 -1.8382579 1
1.978835 -8.0261269 -0.74532533 0
1.1923802 -6.9904041 -0.68107247 13
5.5119901 -16.95409 -1.8174633 1
1.7402602 -7.0584707 -0.7841087 17
1.7120103 -6.9438891 -0.89815962 18
1.7023271 -6.9046144 -1.0189372 27
1.7091502 -6.9322886 -1.1506534 4
1.7126455 -6.946466 -1.2795604 2
1.7221477 -6.9850068 -1.4149613 4
1.7058425 -6.9188728 -1.5278245 7
1.7040839 -6.9117403 -1.6525164 10
1.7009625 -6.8990798 -1.7749364 2
1.2612828 -5.1157455 -1.8125944 4
0.92948639 -3.7699835 -1.8099545 11
0.7871272 -3.2912703 0.89329231 7
1.8400635 -7.6939869 1.1067444 17
2.371011 -9.9140749 0.8850171 11
4.6467209 -19.429661 1.0277518 18
4.0746365 -17.037565 0.59123367 5
4.1621046 -25.472221 0.71778345 9
11.738005 -36.980488 0.85065508 15
2.7647557 -11.560468 0.19046283 0
5.2174363 -31.930889 0.32753125 7
19.800215 -62.380413 0.27643168 35
2.7734802 -11.596948 -0.01977073 15
7.6924925 -47.078316 -0.3596763 37
19.203264 -60.499725 -0.85308427 7
13.166238 -55.052914 -1.094786 35
7.6651125 -46.910748 -1.1998634 35
9.2216778 -29.05282 -0.94885862 50
2.7725101 -11.592891 -0.44187111 0
7.7139773 -47.209805 -2.0551009 33
9.2127523 -29.0247 -1.4866744 3
2.7684042 -11.575724 -0.65189016 15
8.5054512 -26.796352 -1.870768 1
2.7578781 -11.531709 -0.85927433 4
1.2012477 -7.3516765 -0.58364618 0
6.6274843 -20.879835 -1.8453088 1
1.9088546 -7.9816275 -0.73993742 0
1.1281388 -6.9042478 -0.67189461 26
5.4079404 -17.037672 -1.8223314 1
1.6863154 -7.0511088 -0.78196394 17
1.6570292 -6.9286523 -0.89467067 18
1.6540824 -6.9163308 -1.0189372 29
1.6726531 -6.9939818 -1.158927 2
1.6549499 -6.9199586 -1.2725183 2
1.7335924 -7.2487917 -1.4659091 5
1.6529496 -6.9115939 -1.5236318 6
1.6557894 -6.9234686 -1.6525164 1
1.6527565 -6.9107866 -1.7749364 2
1.2255375 -5.1244259 -1.8125944 5
0.90483087 -3.7834327 -1.8133345 9
0.76528126 -3.2964184 0.89329231 6
0.84195197 -3.6266742 0.71945435 4
1.7889943 -7.7060208 1.1067444 24
2.3034036 -9.9218178 0.88432515 12
2.6902373 -11.588089 0.6120066 19
2.6895499 -11.585129 0.40139666 32
3.9918435 -25.491365 0.71756101 9
11.498405 -37.076622 0.85109347 12
2.6862137 -11.570758 0.19033466 26
4.9696641 -31.735596 0.32518277 18
18.668051 -60.19516 0.26619348 33
2.6847456 -11.564434 -0.019684512 78
7.3089337 -46.673847 -0.35620803 36
9.0430088 -29.159195 -0.41030827 1
2.6860561 -11.570079 -0.22972408 41
7.28578 -46.525993 -1.1887602 30
9.0216827 -29.090429 -0.94811183 38
2.6820025 -11.552618 -0.43964839 15
7.3209538 -46.750607 -2.0329533 37
9.0330667 -29.127138 -1.48882 18
2.6843443 -11.562705 -0.65014017 59
5.1943011 -33.170094 -2.0358496 0
8.3760138 -27.008469 -1.8816569 1
2.6858466 -11.569177 -0.86071998 47
1.1166815 -7.1309752 -0.5655244 0
6.5006642 -20.961403 -1.8486663 1
1.8576778 -8.001873 -0.74065584 0
1.0804769 -6.8997769 -0.6707474 19
2.385735 -7.6928062 -0.82110393 0
1.6350166 -7.0427685 -0.77981925 14
1.61104 -6.9394898 -0.89467067 18
1.6054888 -6.9155779 -1.0172352 25
1.6690962 -7.1895652 -1.1894753 4
1.6010044 -6.8962622 -1.2661804 3
1.6064854 -6.9198713 -1.3972068 5
1.5964599 -6.876687 -1.5135692 2
1.6054288 -6.9153204 -1.6479939 3
1.6446226 -7.0841455 -1.8166199 4
1.1915239 -5.1324415 -1.8125944 4
0.87971818 -3.7893505 -1.8133345 10
0.74224931 -3.3016806 0.89329231 6
0.82781076 -3.682276 0.72932029 4
1.732546 -7.706728 1.1050818 29
2.233206 -9.9337702 0.8839792 13
2.6048911 -11.587102 0.61097902 39
2.6050975 -11.588021 0.40085697 39
3.8137827 -25.518612 0.71756101 8
11.24971 -37.190441 0.85188258 9
2.6027374 -11.577523 0.19014241 40
4.7142878 -31.544033 0.32287478 8
9.943635 -32.872684 0.14505821 4
2.6057 -11.590701 -0.019697776 41
6.9172845 -46.284626 -0.35286036 255
8.8542795 -29.271381 -0.41100708 0
2.603462 -11.580746 -0.22956938 58
2.8943691 -19.366674 -0.49429893 4
8.8287983 -29.187143 -0.94923198 34
2.6021614 -11.574961 -0.4397966 47
6.9317808 -46.381622 -2.0147543 34
8.8318214 -29.197136 -1.48921 20
2.601804 -11.57337 -0.64970261 58
2.890573 -19.341274 -1.1858237 0
8.1745501 -27.02426 -1.8787354 1
2.6023879 -11.575968 -0.85985261 57
1.0639235 -7.1188774 -0.56396216 12
6.3899479 -21.124542 -1.8590747 1
1.8008952 -8.0107603 -0.74029666 1
1.0281612 -6.8795862 -0.6680705 46
2.3066254 -7.6254773 -0.81217885 1
1.5823199 -7.0384908 -0.77810347 17
1.5582014 -6.9312072 -0.89217854 19
1.5580382 -6.9304814 -1.0178025 31
1.5521683 -6.9043698 -1.1404706 4
1.5554113 -6.9187961 -1.268293 4
1.5538322 -6.9117718 -1.393347 2
1.552702 -6.906744 -1.5177619 2
1.5511295 -6.8997493 -1.6416625 2
1.6027865 -7.1295309 -1.8253442 4
1.1564934 -5.1443253 -1.8138956 5
0.85721803 -3.8130856 -1.8217844 9
0.72082573 -3.3143401 0.89533412 8
0.81961167 -3.7685554 0.74525756 4
1.6778605 -7.7147641 1.1045276 23
2.1587219 -9.9257536 0.88190329 13
2.52139 -11.593293 0.61036253 37
2.5198894 -11.586393 0.40018237 43
2.761723 -19.404882 0.54509288 5
9.6505718 -32.726551 0.74807143 20
2.5176005 -11.57587 0.18982197 38
2.7615221 -19.403469 0.19840562 42
9.6064186 -32.57682 0.14345321 20
2.5204704 -11.589066 -0.019664615 46
2.7570765 -19.372232 -0.14753786 58
9.5886688 -32.516628 -0.45562333 35
2.5208528 -11.590822 -0.22941469 58
2.7557135 -19.362656 -0.49369329 51
2.520443 -11.588939 -0.43964839 64
2.7574294 -19.374712 -0.84075433 50
8.6334219 -29.277243 -1.4901853 21
2.5167019 -11.571737 -0.64860886 57
2.757163 -19.372841 -1.18655 52
8.0071344 -27.153406 -1.8837816 1
2.5172727 -11.574362 -0.85840696 56
1.0085797 -7.0866518 -0.56083775 31
6.243443 -21.172461 -1.8594105 1
1.7415409 -8.0075655 -0.73885989 1
0.98122972 -6.8944807 -0.66883534 24
2.2218182 -7.5345225 -0.80081975 2
1.5314547 -7.0415936 -0.77724558 20
1.5080892 -6.9341593 -0.89118165 21
1.5070935 -6.9295812 -1.0161005 29
1.4997342 -6.8957429 -1.1372886 6
1.5263191 -7.0179806 -1.28449 3
1.5063767 -6.9262857 -1.394119 4
1.5019541 -6.9059501 -1.5152464 4
1.5004398 -6.8989873 -1.6389489 4
1.5529757 -7.1405463 -1.8253442 3
1.1245713 -5.170753 -1.8204017 5
0.82595479 -3.7977209 -1.8116446 10
0.69369209 -3.3003678 0.89022958 8
0.81994033 -3.901017 0.77030188 3
1.6198863 -7.7069068 1.1017566 28
2.0860956 -9.924984 0.88051939 14
2.4371054 -11.594976 0.60954046 38
2.4381173 -11.599792 0.40004742 43
2.6197553 -19.376141 0.54375845 58
9.364439 -32.593266 0.74351215 33
2.437547 -11.597078 0.18988606 33
2.6206338 -19.382639 0.19800071 66
9.3787556 -32.643093 0.14345321 34
2.4362111 -11.590722 -0.019638086 42
2.6217656 -19.391008 -0.14753786 58
9.3923502 -32.690411 -0.45712847 32
2.4357588 -11.588571 -0.22902794 59
2.6199334 -19.377457 -0.49359235 56
9.3985872 -32.71212 -1.0595007 31
2.4370089 -11.594518 -0.43920386 65
2.6194239 -19.373688 -0.8398959 61
8.4817743 -29.521118 -1.4995477 6
2.4342115 -11.581209 -0.64817137 60
1.0335462 -7.6442771 -0.46774426 0
7.8041472 -27.162615 -1.8805945 1
2.4314833 -11.568229 -0.85667223 62
0.95747799 -7.0816646 -0.5599004 1
6.1240964 -21.315138 -1.8681401 1
1.6626507 -7.9103665 -0.72880244 2
0.93627417 -6.9248371 -0.67112982 4
2.1416914 -7.4542341 -0.79067767 3
1.4773496 -7.0287623 -0.77467191 34
1.4580102 -6.9367514 -0.89018482 22
1.4537925 -6.9166851 -1.0126965 2
1.45643 -6.9292336 -1.1411071 51
1.4497501 -6.8974524 -1.2605467 4
1.4797826 -7.0403376 -1.4149613 2
1.5269129 -7.2645688 -1.5915537 3
1.6253537 -7.7329192 -1.8343203 3
1.5054821 -7.1626077 -1.8282524 4
1.0853332 -5.1636724 -1.8151969 5
0.80389589 -3.8246827 -1.8217844 9
0.67217243 -3.3127108 0.8922714 6
1.5260185 -7.5207748 1.482926 15
1.5668302 -7.72191 1.1023108 22
2.0151706 -9.9314947 0.87982744 14
2.3545091 -11.603879 0.60912943 42
2.3531013 -11.59694 0.39937282 44
2.482393 -19.378094 0.54331368 58
9.1754551 -32.79649 0.74666858 40
2.3541391 -11.602055 0.18969381 32
2.4837334 -19.388557 0.19787924 57
9.1851215 -32.831039 0.14399384 40
2.3528469 -11.595687 -0.019618189 40
2.4842987 -19.392969 -0.14741722 60
9.2005377 -32.886143 -0.45895612 32
2.3524103 -11.593534 -0.2287959 61
2.4810374 -19.367512 -0.49288577 57
9.2130718 -32.930943 -1.064479 11
2.3520303 -11.591661 -0.43846297 69
2.4825876 -19.379612 -0.83938086 68
9.1850414 -32.830753 -1.6643653 33
2.349329 -11.578349 -0.64707756 61
0.94819415 -7.4018073 -0.45249173 0
7.6369085 -27.297152 -1.8861718 1
2.3474891 -11.569282 -0.85551572 57
0.91105723 -7.1119084 -0.56177509 0
5.9933958 -21.422625 -1.873848 1
1.6208531 -7.9881544 -0.73490876 2
2.0724447 -7.4076881 -0.78418672 3
1.426662 -7.0311098 -0.77381402 26
1.4087578 -6.9428716 -0.88968641 22
1.40232 -6.9111438 -1.0104271 1
1.4048783 -6.9237514 -1.1385614 30
1.4031274 -6.915123 -1.261955 15
1.402499 -6.9120259 -1.3871715 3
1.4077179 -6.9377465 -1.5177619 6
1.5728779 -7.7517152 -1.8361293 3
1.455441 -7.1729436 -1.8282524 4
1.051514 -5.1822443 -1.8191005 6
0.7750122 -3.8195424 -1.8167144 9
0.64268214 -3.2909782 0.88512504 6
1.4746112 -7.5510316 1.4867206 22
1.1836985 -6.0613575 0.8640033 2
1.9369686 -9.918622 0.87740552 13
2.2655571 -11.601223 0.6081019 38
2.2649634 -11.598183 0.39883313 41
2.3402779 -19.395769 0.54331368 52
6.2457609 -22.972361 0.52194905 7
2.2636626 -11.591521 0.18924521 28
2.3372295 -19.370504 0.19751482 54
15.519895 -57.083298 0.24985626 32
2.2654831 -11.600845 -0.019598292 37
2.3382413 -19.378891 -0.14717595 56
15.451473 -56.831642 -0.79153538 30
2.2627633 -11.586916 -0.2283318 60
2.337563 -19.37327 -0.49258298 50
12.539872 -46.122559 -1.4878809 37
2.2639313 -11.592898 -0.43787026 66
2.3385465 -19.38142 -0.8386941 63
2.2628615 -11.58742 -0.64664006 58
0.86569214 -7.1746883 -0.4382076 2
7.4764023 -27.498751 -1.896264 1
2.2595606 -11.570517 -0.85435927 55
0.85651147 -7.0986013 -0.56021285 0
5.8539815 -21.531368 -1.8795558 1
1.5110947 -7.7378521 -0.71084285 0
0.90242088 -7.4790893 -0.72351998 0
1.9951215 -7.3382015 -0.77526164 2
1.3727964 -7.0296693 -0.77252722 24
1.3570654 -6.9491162 -0.88918799 21
1.3493445 -6.9095793 -1.0087252 30
1.352573 -6.9261117 -1.1372886 30
1.35089 -6.9174938 -1.2605467 28
1.3532982 -6.9298248 -1.3887154 25
1.3523262 -6.9248481 -1.5127307 3
1.5175064 -7.7706852 -1.8379383 3
1.4050531 -7.1948466 -1.8311605 4
1.014948 -5.197238 -1.821703 4
0.7462979 -3.8215628 -1.8150245 9
0.61969113 -3.2953846 0.88512504 7
1.1366165 -6.044282 1.1884657 6
1.1303719 -6.0110755 0.85569024 0
1.8632575 -9.9084034 0.87532967 15
2.1815572 -11.601052 0.60727984 37
2.1802437 -11.594069 0.39815852 42
2.2025566 -19.391771 0.54275769 47
6.0770535 -22.984474 0.52124763 8
2.1789877 -11.587389 0.18892477 26
2.2014894 -19.382376 0.19747433 57
14.929801 -56.46711 0.24669695 34
2.1800036 -11.592792 -0.019558499 37
2.2024426 -19.390768 -0.14714579 53
14.869289 -56.238243 -0.78180581 33
2.1773818 -11.578849 -0.22786772 58
2.203609 -19.401035 -0.49288577 43
14.81029 -56.015099 -1.8036278 25
2.1799877 -11.592707 -0.43727753 59
2.2004755 -19.373447 -0.83766395 126
9.9867249 -37.771534 -1.9073982 0
2.1782205 -11.583309 -0.64554632 54
0.81423044 -7.1686559 -0.43748128 15
7.2720003 -27.503971 -1.893077 1
2.1743045 -11.562484 -0.85262454 50
0.80603296 -7.0964832 -0.55958796 0
5.7371435 -21.698877 -1.8906357 1
1.4504112 -7.7129755 -0.70761007 3
0.80255312 -7.065846 -0.68298453 0
1.9072237 -7.2134523 -0.76065707 2
1.3192768 -7.0156312 -0.76995355 39
1.3055847 -6.9428186 -0.88719428 19
1.3018055 -6.9227223 -1.0092925 29
1.3027272 -6.9276237 -1.1360157 27
1.3018363 -6.9228859 -1.2598424 27
1.3005339 -6.9159603 -1.3840839 22
1.3010576 -6.9187446 -1.5093765 3
1.4603395 -7.7657719 -1.8343203 3
1.356941 -7.2159214 -1.8340687 4
0.97933882 -5.2079139 -1.8230041 5
0.7196002 -3.8266795 -1.8150245 8
0.59873533 -3.311048 0.88818777 6
0.85818303 -4.7458119 0.93195146 0
0.8888911 -4.9156299 0.69885063 3
1.7926226 -9.9133272 0.87463772 12
2.0983837 -11.604207 0.60666335 36
2.096406 -11.59327 0.39761883 40
2.0683935 -19.418602 0.5430913 46
5.9104724 -23.003101 0.52072155 11
2.095907 -11.590511 0.18873252 28
2.0792544 -19.520569 0.19872956 13
14.371973 -55.934605 0.24392621 34
2.0997319 -11.611664 -0.019565132 32
2.1246331 -19.946594 -0.15124741 2
14.308097 -55.686005 -0.77272129 29
2.0922258 -11.570154 -0.22740363 56
2.8923054 -27.153696 -0.68931335 40
14.254704 -55.478203 -1.7830925 36
2.0968711 -11.595842 -0.43683299 58
2.0935295 -19.654585 -0.84916705 17
9.7715054 -38.029942 -1.9169557 0
2.0965927 -11.594303 -0.64532751 45
0.76331818 -7.1662245 -0.43699709 19
7.1066265 -27.65844 -1.9002477 0
2.1041813 -11.63627 -0.85696137 16
0.75773764 -7.1138334 -0.5605253 0
5.6023803 -21.804029 -1.8963435 1
1.3391101 -7.4053721 -0.67851543 0
0.75109601 -7.0514803 -0.68107247 0
