# .PCD v0.7 - Point Cloud Data file format
VERSION 0.7
FIELDS x y z intensity
SIZE 4 4 4 4
TYPE F F F F
COUNT 1 1 1 1
WIDTH 1393
HEIGHT 1
VIEWPOINT 0 0 0 1 0 0 0
POINTS 1393
DATA ascii
13.784533 4.4815254 -0.70764297 39
9.485321 2.3385975 -0.53507495 12
9.5364914 1.6266766 -0.58661717 22
9.4359026 3.0677309 -0.66023982 17
9.0950823 2.2423844 -0.67886144 19
9.3715076 1.5985347 -0.7448675 4
9.1580553 2.9773993 -0.81118375 6
8.9467134 2.2058041 -0.83081329 11
9.2001715 1.5693092 -0.89636934 35
9.0144291 2.9307048 -0.96633869 32
8.8462563 2.1810367 -0.98270953 39
9.0825462 2.2392936 -1.1747848 5
9.745656 2.4027829 -1.4381993 1
8.8954153 2.1931567 -1.4765022 4
8.1469021 2.0086114 -1.5006843 4
7.5642323 1.8649548 -1.5322958 4
7.0289974 1.7329931 -1.5521423 5
6.5447788 1.6136094 -1.5647801 7
6.1454935 1.515166 -1.5810603 8
4.6456699 1.1453857 -1.6460387 6
1.6825883 0.41484067 -0.80780417 2
5.8641033 1.4024353 1.5915917 18
5.2825503 1.2633535 1.0495838 1
7.3819122 1.7654284 1.0618539 9
13.727777 3.2830799 1.2254615 34
13.749564 3.2882905 0.72729725 28
13.763801 3.2916951 0.47762829 32
13.756184 2.2477305 0.38763642 65
13.767628 4.3699942 0.31669408 35
13.765981 3.2922165 0.22679944 26
13.772639 2.2504194 0.1412729 36
13.759376 4.3673749 0.060973108 41
10.81889 2.5874021 -0.018444281 3
10.737299 1.7544513 -0.082032494 10
13.773505 4.3718596 -0.19421509 32
11.248624 2.6901755 -0.22369091 0
10.343492 1.690104 -0.26456147 0
13.768079 4.3701372 -0.44966239 37
9.967865 2.3838744 -0.37993208 0
11.453406 1.8714617 -0.49858087 0
13.78121 4.3743052 -0.7058875 40
9.5053005 2.2732494 -0.5352937 9
9.6185427 1.571649 -0.59097499 13
9.2630777 2.9402013 -0.64669508 9
9.1143951 2.1797621 -0.67915058 20
9.4375381 1.5420732 -0.74924171 2
9.2014122 2.9206278 -0.81319833 4
8.961895 2.1432908 -0.83081329 19
9.2894945 1.5178833 -0.90401757 34
8.970191 2.8472357 -0.95944208 36
8.8419285 2.1145999 -0.98056483 35
9.0863781 2.1730616 -1.1732895 5
9.7313852 2.3273189 -1.4336605 1
8.8951454 2.1273272 -1.4739565 4
8.1837025 1.9571813 -1.5049096 5
7.5541654 1.8066237 -1.5276642 5
7.0333171 1.6820598 -1.5504651 5
6.5596738 1.5687852 -1.5656847 4
6.1710191 1.475836 -1.5849378 7
4.6609106 1.1146846 -1.6486411 6
1.6819174 0.4022406 -0.8061142 2
5.8812866 1.3632094 1.5936335 17
5.2529817 1.2175761 1.0419946 1
7.3863387 1.7120619 1.0607455 10
13.723187 3.1808648 1.2230396 34
13.748837 3.18681 0.72606421 29
13.751395 3.187403 0.476414 32
13.755737 2.1491723 0.38719162 67
13.77106 4.2654886 0.31608033 36
13.757459 3.1888087 0.22628677 23
13.776158 2.1523628 0.14115143 43
13.770425 4.2652922 0.060888633 41
10.80162 2.5036817 -0.018384591 5
10.824371 1.6911807 -0.082605518 6
13.776946 4.267312 -0.1938388 30
10.269763 2.380404 -0.20388979 0
10.386644 1.6227912 -0.26536897 8
10.231254 3.1690586 -0.33341974 27
9.9920521 2.3160341 -0.38022846 0
10.013176 1.5644411 -0.43539983 12
13.777065 4.2673488 -0.70413208 29
9.5170479 2.2059338 -0.53507495 13
9.6726732 1.5112414 -0.59363818 17
9.2490654 2.8648329 -0.64430481 15
9.1332779 2.1169806 -0.67943966 21
9.4677725 1.4792281 -0.75080395 27
9.1987333 2.8492427 -0.81118375 6
8.9766388 2.0806737 -0.83081329 15
9.3470726 1.4603702 -0.90860647 26
8.9252281 2.7645266 -0.95254546 39
8.8526011 2.0519233 -0.98013586 46
9.0897274 2.1068864 -1.1717943 5
9.7512531 2.2602196 -1.4342278 1
8.9097805 2.0651767 -1.4739565 3
8.2048388 1.9017799 -1.506318 5
7.5895338 1.7591599 -1.5322958 4
7.0410781 1.6320347 -1.5496266 5
6.585649 1.5264719 -1.5693027 5
6.1736107 1.4309665 -1.582999 6
4.6648936 1.0812645 -1.6473399 6
1.6811527 0.38967037 -0.80442423 3
5.8751049 1.3207799 1.5895499 18
5.2724371 1.1852943 1.0442713 4
7.389801 1.661298 1.0596371 13
13.724543 3.0854087 1.2213098 34
13.746285 3.0902965 0.72483116 32
13.764432 3.0943761 0.47614413 33
13.757826 2.0561199 0.38685802 76
13.768425 4.1648002 0.31537893 36
13.762697 3.0939863 0.22603042 25
13.782219 2.0597656 0.14107046 44
13.771611 4.1657639 0.06077037 43
10.802378 2.428478 -0.018358063 4
11.361492 1.6979856 -0.086616665 0
13.743692 4.1573186 -0.19297874 33
10.347754 2.3262744 -0.20512736 0
11.203959 1.6744422 -0.28596056 0
10.144896 3.0687215 -0.32993495 0
9.9837933 2.2444525 -0.37933937 0
10.141904 1.5157171 -0.44055048 0
9.6864901 2.930059 -0.49406275 7
9.5041924 2.1366334 -0.53354371 20
9.8641281 1.4742033 -0.60477489 9
9.1990986 2.7826281 -0.63952434 15
9.1393318 2.0546095 -0.67886144 22
9.6154146 1.4370327 -0.76173949 10
8.9770727 2.7154677 -0.79003119 21
8.9941282 2.0219662 -0.83117247 12
9.8606091 1.4736774 -0.957555 3
8.8938522 2.6902943 -0.94727159 42
8.8931751 1.999271 -0.98313844 56
9.0647793 2.0378494 -1.16681 5
8.9509058 2.0122492 -1.3145198 1
8.9425459 2.01037 -1.4771386 3
8.2172709 1.8473213 -1.506318 4
7.6086926 1.710507 -1.5338397 5
7.0631952 1.5878739 -1.5521423 5
6.5918264 1.4819057 -1.5683981 5
6.1981111 1.3933947 -1.5868765 6
4.675653 1.0511316 -1.6486411 6
1.6837002 0.37851194 -0.80442423 5
5.8955197 1.2821982 1.5926126 19
5.2920961 1.1509614 1.0465481 4
7.3934774 1.6079842 1.0585287 11
13.734066 2.986979 1.2202718 33
13.748007 2.990011 0.72380364 31
13.76226 2.9931109 0.47533461 32
13.759969 1.9583338 0.38652444 42
13.685928 4.0357752 0.31283626 40
13.760513 2.9927309 0.2256459 23
13.776464 1.9606813 0.14086799 40
13.700605 4.040103 0.060331106 46
10.799524 2.3487546 -0.0183249 5
12.002706 1.7082382 -0.091411948 2
13.699491 4.0397744 -0.1919574 36
10.434086 2.2692766 -0.20651962 0
11.555835 1.644639 -0.29464132 0
10.169908 2.9989531 -0.33005941 0
9.9875021 2.1721504 -0.37889484 0
10.231368 1.4561394 -0.44398421 1
9.6952133 2.858973 -0.49347758 7
9.5344877 2.0736258 -0.5344187 12
10.305038 1.4666244 -0.63116419 7
9.2183008 2.7183385 -0.63952434 18
9.1573515 1.9916036 -0.67915058 22
10.268736 1.4614577 -0.81266791 3
8.9652262 2.6437109 -0.78734517 24
8.9963465 1.9565873 -0.83009487 7
10.497428 1.4940054 -1.0183582 1
8.8856983 2.6202593 -0.94443178 40
8.9185753 1.9396729 -0.98442531 56
8.9430494 1.9449958 -1.1493652 3
8.960866 1.9488707 -1.3139524 1
8.9679403 1.9504092 -1.4790479 3
8.22612 1.789073 -1.5056138 4
7.6204486 1.6573476 -1.5338397 5
7.0702868 1.5376946 -1.5513036 5
6.6134338 1.4383349 -1.5711117 5
6.2076874 1.3500905 -1.5868765 7
4.6754851 1.0168566 -1.6460387 6
1.7111001 0.37214181 -0.81625402 5
5.8967576 1.2394173 1.5905708 20
5.2692556 1.107525 1.0404767 4
7.396769 1.5546991 1.0574203 13
13.738985 2.8877456 1.2188879 32
13.752909 2.890672 0.72298157 36
13.771085 2.8944924 0.47492984 32
13.741607 1.8579376 0.38563484 82
13.690707 3.9335067 0.31231019 39
13.765415 2.8933008 0.22538957 23
13.777924 1.8628478 0.14074652 42
13.697721 3.9355216 0.060195949 43
10.815659 2.2733026 -0.0183249 4
13.786166 1.8639623 -0.10489302 36
13.696606 3.9352014 -0.19152737 36
10.355743 2.1766348 -0.20466326 0
12.066331 1.6314315 -0.30735967 4
12.269445 3.5251608 -0.39739054 0
10.049364 2.1122379 -0.38067299 0
10.451179 1.4130543 -0.45308366 8
9.6918964 2.7845998 -0.49230731 6
9.5487318 2.0070121 -0.5344187 14
10.750259 1.4534917 -0.65779561 3
9.2063656 2.6451006 -0.63739967 14
9.1788406 1.929266 -0.67972881 22
10.859606 1.4682759 -0.85859728 2
8.9604778 2.5744543 -0.78533065 29
9.0214834 1.8961915 -0.83117247 11
11.190222 1.5129769 -1.0845151 2
8.8770018 2.5504704 -0.94159198 30
8.9474659 1.8806342 -0.98614109 54
8.9175701 1.8743505 -1.1443809 43
9.3036194 1.9554927 -1.3621761 9
8.9890661 1.889378 -1.4803207 3
8.2422628 1.7324102 -1.506318 4
7.6318336 1.6041063 -1.5338397 4
7.0846772 1.4891015 -1.5521423 5
6.6118746 1.389725 -1.5683981 6
6.2055683 1.304325 -1.5839684 7
4.6861715 0.98496872 -1.6473399 7
1.681725 0.35347545 -0.80104434 6
5.8787346 1.1928372 1.5834244 20
5.2845564 1.0722742 1.0419946 3
7.388031 1.4990842 1.0546492 12
13.735376 2.7870059 1.216812 32
13.757093 2.7914126 0.72215956 30
13.771365 2.7943084 0.47425523 31
13.758207 1.7624674 0.38574603 46
13.679324 3.8270571 0.3114334 41
13.761761 2.7923594 0.22500505 24
13.774724 1.7645831 0.14058456 43
13.686341 3.8290205 0.060027003 46
10.835185 2.1985364 -0.018331533 4
13.790908 1.7666564 -0.1048327 39
10.515246 2.9418449 -0.14674985 6
10.355009 2.1011052 -0.20435387 0
13.759144 1.7625873 -0.35015786 20
11.319651 3.1668928 -0.36590296 1
10.036443 2.0364659 -0.37963572 0
11.475553 1.4700525 -0.49703568 5
9.6687775 2.7050288 -0.49016175 4
9.5899096 1.9458612 -0.53595001 10
11.385873 1.4585643 -0.69604802 2
9.1900158 2.5710857 -0.63500941 16
9.2077246 1.8683131 -0.68088531 14
11.727925 1.5023822 -0.92639768 2
8.9552021 2.5053921 -0.78331614 27
9.011075 1.8284115 -0.82901728 56
12.053583 1.5440998 -1.1671157 8
8.879262 2.4841464 -0.93996924 33
8.9759674 1.8212879 -0.98785686 52
8.9732237 1.820731 -1.1498636 35
9.856431 1.9999403 -1.4410359 2
8.994297 1.8250072 -1.4790479 3
8.2618742 1.6763933 -1.5077264 4
7.62746 1.5476661 -1.5307519 5
7.0948997 1.4396058 -1.5521423 5
6.6137786 1.3419828 -1.5665891 6
6.2297354 1.2640578 -1.5878459 7
4.6818128 0.94997323 -1.6434363 6
1.6734924 0.33956358 -0.79597443 5
5.8835249 1.1489707 1.5824035 19
5.2807107 1.0312495 1.0397178 2
7.3949332 1.4441278 1.054095 11
13.724149 2.6801357 1.2140442 28
13.749742 2.6851337 0.72072095 28
13.775784 2.6902194 0.47371554 32
13.766788 1.6610886 0.38563484 39
13.687716 3.721436 0.31099501 38
13.762233 2.687573 0.22468463 27
13.779347 1.6626039 0.14050357 44
13.683163 3.7201984 0.059891842 42
10.843159 2.1175182 -0.018318269 4
13.791575 1.6640793 -0.10474223 38
10.303406 2.0121121 -0.20303896 0
13.779634 1.6626385 -0.35035974 39
10.150434 2.7597151 -0.32744583 0
10.113872 1.9750986 -0.38200662 0
12.315236 1.4859455 -0.53291839 2
9.6536493 2.6246483 -0.48840627 3
9.596076 1.8739804 -0.53551245 19
12.204898 1.4726322 -0.74543715 7
9.177804 2.4952748 -0.63288474 16
9.1937637 1.7954144 -0.67886144 27
12.605659 1.5209876 -0.99482304 13
8.957942 2.4354985 -0.78197312 26
9.1689053 1.7905598 -0.84230745 2
13.772276 1.6617507 -1.3323169 7
8.8741932 2.4127285 -0.93753517 34
9.0007868 1.7577286 -0.98914367 48
9.005805 1.7587087 -1.1523557 10
9.8824854 1.9299122 -1.4427379 3
9.0229368 1.7620542 -1.4815936 3
8.2623463 1.6135216 -1.5056138 4
7.6424522 1.4924648 -1.5315238 5
7.0975847 1.3860596 -1.5504651 5
6.6196136 1.2927185 -1.5656847 5
6.2274075 1.2161262 -1.5849378 7
4.6997876 0.91780323 -1.6473399 6
1.6688201 0.3258974 -0.79259449 3
5.8990049 1.1092975 1.5844454 19
5.2684832 0.99072903 1.0359232 2
7.4009418 1.3917341 1.0535408 19
13.738608 2.5835214 1.2136983 33
13.748523 2.5853858 0.71969342 28
13.770657 2.5895479 0.47290599 34
13.770103 1.5640368 0.38541245 39
13.686299 3.6186316 0.31038126 37
13.761007 2.5877333 0.22436419 27
13.770746 1.5641099 0.14030112 40
13.693333 3.6204913 0.059824266 43
10.865539 2.0432456 -0.018331533 4
13.77901 1.5650486 -0.10456128 44
11.190421 2.9587262 -0.15556559 0
10.321133 1.9408709 -0.2031163 0
13.786933 1.5659485 -0.3502588 36
10.057363 2.6591475 -0.32383657 0
10.13527 1.9059198 -0.38230297 0
13.786556 1.5659057 -0.59609944 41
9.6601505 2.5541255 -0.48782113 2
9.6207008 1.8091559 -0.53616875 15
13.79381 1.5667297 -0.84179437 44
9.1795664 2.4270601 -0.63182241 16
9.2531242 1.7400337 -0.68233091 23
13.812585 1.5688621 -1.0891812 36
8.9516058 2.3667877 -0.77995855 26
9.2320805 1.7360765 -0.84697694 15
13.787498 1.5660126 -1.3326993 12
8.8600435 2.3425789 -0.93428969 34
9.0401974 1.6999934 -0.99214625 50
9.0529671 1.7023947 -1.1568415 13
9.9035015 1.862336 -1.4438726 3
9.0233746 1.6968299 -1.4796842 3
8.2579308 1.5528895 -1.502797 4
7.6449709 1.4376234 -1.5299799 5
7.099401 1.33503 -1.5487881 5
6.6284771 1.2464736 -1.5656847 6
6.2281179 1.1711867 -1.582999 7
4.7097979 0.88566929 -1.6486411 7
1.7066848 0.32093909 -0.80949414 2
5.9027991 1.0674001 1.5834244 17
5.2675424 0.95252687 1.0344054 2
7.4104772 1.3400327 1.0535408 12
13.724939 2.4818735 1.2109303 33
13.746582 2.4857872 0.7186659 30
13.764795 2.4890807 0.47209644 31
13.764784 1.4661714 0.38496765 37
13.691861 3.5180204 0.30994287 73
13.770865 2.4901783 0.22423603 27
13.769399 1.466663 0.14017965 39
13.691155 3.517839 0.059706002 41
10.871667 1.9659178 -0.018318269 3
13.781646 1.4679674 -0.10450096 39
10.660722 2.7391922 -0.14793245 0
10.373785 1.8758861 -0.20388979 0
13.773672 1.4671181 -0.34965315 41
10.048574 2.5819054 -0.32296538 0
10.140463 1.8336945 -0.38200662 0
13.789206 1.4687726 -0.59575611 47
9.6467886 2.4786696 -0.48626074 1
9.6409569 1.7433692 -0.53660625 13
13.804413 1.4703925 -0.84179437 42
9.1846895 2.3599367 -0.63102567 16
9.2886009 1.6796529 -0.68406564 13
13.811305 1.4711267 -1.088244 38
8.9640503 2.3032451 -0.77962279 26
9.1969309 1.6630762 -0.84266663 11
13.798095 1.4697195 -1.3326993 16
8.8761816 2.2806678 -0.93428969 36
9.0674982 1.639671 -0.99386203 39
9.0763483 1.6412712 -1.1583368 33
9.9162607 1.7931522 -1.4438726 2
9.0505457 1.6366054 -1.4822299 3
8.2918196 1.4994053 -1.5070223 4
7.6818562 1.389106 -1.5353836 4
7.1239429 1.2882189 -1.5521423 5
6.6331835 1.199475 -1.5647801 9
6.2475991 1.12975 -1.5859072 6
4.7158661 0.85276759 -1.6486411 6
1.6803429 0.30385554 -0.79597443 3
5.9024863 1.0248415 1.5813826 20
5.2972803 0.91976035 1.0389589 1
7.3884282 1.2828438 1.0491072 11
13.741932 2.3859949 1.2109303 35
13.747858 2.3870239 0.71784383 27
13.781837 2.3929238 0.47209644 32
13.766726 1.3692495 0.38474527 38
13.766529 3.4349334 0.31108269 56
13.756391 2.3885055 0.22372334 23
13.771342 1.3697087 0.14009866 44
13.804643 3.4444435 0.06009458 30
10.932419 1.8981825 -0.018397857 3
13.783598 1.3709276 -0.10444064 44
10.396297 2.5940156 -0.14400837 0
10.394509 1.804786 -0.20404448 0
13.787558 1.3713214 -0.3497541 38
10.093509 2.5184658 -0.32383657 0
10.231783 1.7765322 -0.38497019 0
13.799123 1.3724718 -0.59575611 44
9.6522284 2.4083602 -0.48567557 1
9.629283 1.6719207 -0.5352937 10
13.810368 1.3735901 -0.84155232 41
9.1931963 2.2938256 -0.63049448 16
9.3669243 1.6263677 -0.68898076 5
13.809334 1.3734874 -1.0873066 33
8.9683094 2.2377133 -0.77861553 26
9.2083178 1.598829 -0.84266663 8
13.804057 1.3729625 -1.3323169 17
8.8725824 2.2138283 -0.93226129 36
9.1453362 1.5878936 -1.0011541 37
9.1188679 1.583298 -1.1623242 40
9.9324398 1.7245574 -1.4444399 2
9.0617504 1.5733808 -1.4822299 2
8.2982054 1.4408073 -1.506318 4
7.6681652 1.3314142 -1.5307519 4
7.1289096 1.2377839 -1.5513036 5
6.6452346 1.1538039 -1.5656847 9
6.2362161 1.0827867 -1.5810603 7
4.721705 0.81982386 -1.6486411 6
1.6967114 0.29459792 -0.80273432 3
5.9133124 0.98424512 1.5824035 18
8.6778688 1.4443935 1.6999766 21
7.4011116 1.2318829 1.0496614 14
13.754323 2.2893474 1.2105844 33
13.752366 2.2890217 0.71722734 28
13.770603 2.292057 0.47115198 32
13.764005 1.2720023 0.38441166 32
13.766853 3.3330965 0.31055662 54
13.772731 2.2924111 0.22372334 24
13.776586 1.2731651 0.14005817 40
11.211968 2.7145329 0.048724424 1
10.973023 1.8264121 -0.018444281 3
13.792832 1.2746664 -0.10444064 41
13.010889 3.15007 -0.1799164 0
10.410801 1.7328326 -0.20412183 0
7.8560104 0.72601432 -0.1991529 33
10.079759 2.4404132 -0.32284093 0
10.145362 1.6886514 -0.3812657 0
7.8353539 0.7241053 -0.33805296 10
9.6726894 2.3418577 -0.48587063 1
9.6801176 1.6112136 -0.53748125 33
7.7884455 0.71977025 -0.47428104 38
9.19347 2.2258337 -0.62943214 20
9.4528217 1.5733812 -0.6944741 16
7.7431731 0.71558642 -0.60926664 23
8.9759645 2.1731734 -0.77794403 25
9.2349749 1.5371214 -0.8441034 16
13.80934 1.2761921 -1.3319346 20
8.883954 2.1508965 -0.93185556 38
9.3091946 1.5494751 -1.0178829 11
9.1766796 1.5274184 -1.1683053 41
9.5028782 1.5817128 -1.3803309 2
9.0803051 1.5113773 -1.4835029 2
8.3080616 1.3828408 -1.506318 4
7.6850162 1.2791376 -1.5322958 4
7.1412349 1.1886275 -1.5521423 5
6.6569715 1.108024 -1.5665891 11
6.2436237 1.039224 -1.5810603 7
4.719851 0.78559864 -1.6460387 6
1.7023031 0.28334093 -0.80442423 5
5.9200392 0.94293851 1.5824035 21
8.6838627 1.3831577 1.6992177 24
7.4017072 1.1789372 1.048553 14
13.742423 2.1888807 1.2081625 33
13.752232 2.190443 0.71640527 30
13.766529 2.1927202 0.47047737 33
13.748646 1.1738397 0.38374448 37
13.770321 3.2323353 0.31011823 77
13.764701 2.1924291 0.22333881 24
13.773184 1.1759347 0.1399367 40
11.144976 2.6160827 0.048352737 1
11.021059 1.7554243 -0.018503971 3
7.8910666 0.67372793 -0.059714831 13
10.610618 2.4906516 -0.14648108 0
10.442391 1.6632546 -0.20450857 0
7.8409667 0.66945052 -0.19864821 34
10.06152 2.3617609 -0.32172081 0
10.137165 1.6146384 -0.38052481 1
7.8282728 0.66836673 -0.33753788 40
9.6810246 2.2724466 -0.48548052 1
9.7936821 1.5599288 -0.5431689 28
7.8012371 0.66605842 -0.47476527 34
9.2010136 2.1597726 -0.628901 19
9.4990349 1.5129976 -0.6970762 18
7.7559271 0.6621899 -0.60989153 4
8.9753962 2.106813 -0.77660102 26
9.30056 1.4813848 -0.84913212 35
13.809979 1.1790763 -1.3311697 20
8.8948793 2.087913 -0.93144989 40
9.2451639 1.4725614 -1.009733 46
9.2263136 1.4695588 -1.1732895 23
9.4745865 1.5091035 -1.3746575 2
9.0867348 1.4473269 -1.4828664 3
8.2902937 1.3204705 -1.5013885 3
7.6898828 1.2248375 -1.5315238 4
7.1532211 1.1393586 -1.5529808 5
6.6683922 1.0621355 -1.5674937 6
6.2507262 0.99561006 -1.5810603 7
4.7289553 0.75322372 -1.6473399 6
1.7042396 0.27144974 -0.80442423 6
5.9226546 0.90100479 1.5813826 19
8.6894245 1.3219095 1.6984587 26
7.4019246 1.126044 1.0474446 15
13.725851 2.0880938 1.2053947 31
13.743492 2.0907776 0.71517223 30
13.777551 2.0959587 0.47034246 35
13.756506 1.0778291 0.38374448 37
13.761355 3.1290283 0.3094168 69
13.767809 2.0944767 0.22314656 24
13.777068 1.0794402 0.13989621 45
11.108362 2.5257962 0.048116211 1
11.408723 1.7355924 -0.019134035 1
7.8796268 0.61737269 -0.059594195 30
10.600447 2.4103074 -0.1461048 0
10.481425 1.5945239 -0.20505001 9
7.8574085 0.61563188 -0.19895104 35
10.077763 2.2914608 -0.32172081 0
10.207468 1.5528473 -0.3827475 6
7.8606367 0.61588478 -0.33873969 33
9.7005491 2.2056906 -0.48567557 1
9.974123 1.5173489 -0.55257535 9
7.9052086 0.61937702 -0.48081785 30
9.215867 2.0954847 -0.628901 17
9.6355791 1.4658467 -0.70632815 12
7.8597507 0.6158154 -0.6177026 31
8.9976597 2.0458689 -0.77727252 27
9.3736916 1.4260061 -0.8548792 35
7.7484889 0.60709798 -0.74646461 32
8.9092388 2.0257642 -0.93144989 42
9.3338528 1.4199455 -1.0183119 24
9.4796162 1.4421202 -1.2041918 5
9.559267 1.4542373 -1.3854369 3
9.1083298 1.3856369 -1.4847757 3
8.3382378 1.268484 -1.5084307 3
7.7176476 1.1740745 -1.5353836 5
7.1571345 1.0888045 -1.5521423 5
6.6679406 1.0143842 -1.5656847 6
6.272871 0.95428276 -1.5849378 8
4.745317 0.7218982 -1.6512436 6
1.688172 0.25681916 -0.79597443 6
5.9326277 0.86018991 1.5824035 20
8.6984406 1.2612137 1.6984587 27
7.4135256 1.0749098 1.0479988 16
13.740094 1.9922185 1.2053947 34
13.753801 1.9942058 0.71496671 30
13.776021 1.9974276 0.46980277 36
13.75173 0.98091084 0.38341087 40
13.759431 3.027725 0.30889073 55
13.766263 1.9960128 0.22289021 26
13.776289 0.98266268 0.13981523 45
11.125724 2.448185 0.048116211 1
13.791762 1.9997101 -0.023106752 30
7.9076829 0.56405497 -0.059775151 36
10.484204 2.3070202 -0.14427714 0
11.184928 1.621737 -0.21858594 0
7.8575263 0.56047732 -0.1988501 40
10.09742 2.2219093 -0.32184526 0
10.261574 1.4878571 -0.38437748 14
7.8687305 0.56127656 -0.33891138 41
9.7196131 2.1387739 -0.48587063 0
10.217681 1.481493 -0.5654819 5
7.7659683 0.5539465 -0.47210211 6
9.2458639 2.0345268 -0.62996334 17
10.178591 1.4758252 -0.74535978 4
7.7524834 0.5529846 -0.60895419 30
9.0039368 1.9812915 -0.77660102 27
9.7540236 1.4142659 -0.88864332 4
7.7525387 0.55298853 -0.74646461 90
8.9270506 1.9643729 -0.93185556 46
9.9378414 1.4409181 -1.0830823 9
9.9647102 1.444814 -1.2645011 2
10.004149 1.4505323 -1.4484113 2
9.1138725 1.3214484 -1.4841392 3
8.3235102 1.2068512 -1.5042053 4
7.7023506 1.1167874 -1.5307519 5
7.1723027 1.0399342 -1.5538193 5
6.6710038 0.96724933 -1.5647801 8
6.2755399 0.90990984 -1.5839684 8
4.7390113 0.68712378 -1.6473399 6
1.7006876 0.24658792 -0.80104434 5
5.9305401 0.81976581 1.5803617 20
8.6754913 1.1991946 1.6923873 22
7.4087191 1.0240914 1.0463362 16
13.74511 1.8999569 1.2047027 32
13.762767 1.9023978 0.7147612 40
13.777084 1.9043769 0.46939799 32
7.8286152 0.50625378 0.21817058 0
13.763564 2.9330695 0.30854002 59
13.767313 1.9030261 0.22269796 27
7.9230437 0.51236022 0.080374524 0
11.114331 2.3685076 0.047997948 1
13.788873 1.9060062 -0.023080222 31
7.9152417 0.51185566 -0.059805308 40
10.460156 2.2291005 -0.1437396 0
11.607442 1.6044718 -0.22663015 0
7.8650613 0.50861067 -0.19895104 39
10.07674 2.147393 -0.32072514 0
10.322691 1.4268835 -0.38630381 21
7.8643041 0.50856167 -0.338568 44
9.7335835 2.0742648 -0.48587063 0
10.721831 1.4820557 -0.59282631 5
7.7575183 0.50165617 -0.47137582 7
9.2552509 1.9723302 -0.62969774 23
10.666343 1.4743856 -0.78034371 3
7.7400627 0.50052732 -0.6077044 34
9.0246763 1.9231938 -0.77727252 26
10.291995 1.4226404 -0.93677521 2
7.7441158 0.50078946 -0.74531734 76
8.9437742 1.9059535 -0.93226129 43
10.672043 1.4751736 -1.1620079 3
11.161369 1.5428121 -1.415025 2
10.005705 1.383067 -1.4472766 2
9.1146135 1.2598934 -1.4828664 3
8.3508329 1.1543177 -1.5077264 4
7.7290273 1.0683668 -1.5346116 5
7.1712933 0.99127245 -1.5521423 5
6.6772718 0.92298496 -1.5647801 10
6.2852807 0.86880082 -1.5849378 8
4.747211 0.65619677 -1.6486411 6
1.6879202 0.23331758 -0.79428446 4
5.9207797 0.77633154 1.5762781 18
8.6758642 1.1375778 1.6908696 17
7.3960495 0.96976864 1.0435652 15
13.750137 1.8029155 1.2040107 31
13.747987 1.8026335 0.71332264 32
13.774189 1.8060691 0.4688583 32
7.8359499 0.45181853 0.21828178 0
13.768037 2.8336854 0.3081893 54
13.760435 1.8042657 0.22237754 23
7.8745165 0.45404226 0.07984814 17
11.130595 2.2908573 0.047997948 1
13.789945 1.808135 -0.023060326 30
7.9106355 0.45612487 -0.059744991 52
10.471545 2.1552141 -0.14368585 0
12.25281 1.6065862 -0.23900585 6
7.888381 0.45484167 -0.19945572 32
10.079739 2.0745738 -0.32035178 0
11.55707 1.515361 -0.43209127 4
7.859684 0.45318699 -0.33822465 43
9.7400017 2.0046504 -0.48548052 0
11.266533 1.4772657 -0.62235826 3
7.7727895 0.44817671 -0.47210211 15
9.2766123 1.9092774 -0.63022888 22
11.281595 1.4792407 -0.82457954 1
7.7473493 0.44670981 -0.60801685 45
9.0495949 1.8625535 -0.77827978 23
11.139083 1.4605545 -1.0129241 1
7.7394724 0.44625565 -0.74455255 54
8.9685555 1.8458743 -0.9334783 44
12.275126 1.6095123 -1.335301 3
11.163999 1.4638215 -1.4140282 2
10.046524 1.3172984 -1.4518154 2
9.1271029 1.1967441 -1.4835029 3
8.354784 1.0954777 -1.5070223 5
7.7285147 1.0133615 -1.5330677 4
7.1819167 0.94169164 -1.5529808 5
6.6951427 0.87786591 -1.5674937 13
6.2950406 0.82540458 -1.5859072 8
4.7404256 0.62156373 -1.6447375 5
1.6931027 0.22199933 -0.79597443 3
5.9337316 0.73593056 1.5783199 20
8.668004 1.0750486 1.6878339 25
7.4026394 0.91811174 1.0435652 15
13.750525 1.7054076 1.2029729 32
13.756273 1.7061206 0.71311712 30
13.774561 1.7083888 0.46845353 32
7.8508935 0.39770916 0.21861537 1
13.767872 2.7336051 0.30775091 41
13.768726 1.7076652 0.22231345 25
7.8695049 0.39865196 0.07976716 40
11.146317 2.2130966 0.047997948 1
13.782385 1.7093592 -0.023027165 30
7.9695535 0.4037202 -0.060167216 28
10.494183 2.0836155 -0.14379334 0
13.779826 1.7090418 -0.26855287 39
7.9113317 0.40077081 -0.19996043 36
10.105741 2.0064905 -0.32072514 0
12.011657 1.4897447 -0.44868734 3
7.8666472 0.39850721 -0.33839631 44
9.7537594 1.9366047 -0.48548052 0
12.077228 1.4978771 -0.66654676 2
7.7757292 0.39390147 -0.47210211 57
9.3014603 1.8468009 -0.63102567 22
12.273529 1.5222235 -0.89628214 12
7.7582445 0.39301574 -0.60864174 62
9.2304878 1.8327096 -0.79271728 1
11.832972 1.4675834 -1.0750644 5
7.7503529 0.39261597 -0.74531734 14
8.9968357 1.7863179 -0.93510103 44
12.29001 1.5242676 -1.33573 2
11.16213 1.3843822 -1.4125329 2
10.047616 1.2461548 -1.4506806 2
9.1234779 1.1315386 -1.4815936 3
8.3934889 1.0410017 -1.512656 4
7.7470856 0.9608317 -1.5353836 4
7.1999607 0.8929745 -1.5554963 5
6.6972418 0.83062488 -1.5665891 12
6.3006496 0.78143758 -1.5859072 7
4.7559104 0.58985138 -1.6486411 6
1.6946113 0.21017404 -0.79597443 3
5.9425659 0.69493663 1.5793408 19
8.6674967 1.0135959 1.686316 26
7.4088683 0.86640924 1.0435652 16
13.738347 1.6065923 1.200897 31
13.74801 1.6077223 0.7120896 30
13.766297 1.6098609 0.46777889 34
7.8654633 0.34341311 0.21894896 4
13.766981 2.6336634 0.30731252 51
13.764423 1.6096417 0.2220571 27
7.8960724 0.34474954 0.080010109 22
11.185068 2.1397362 0.048099317 1
13.793982 1.6130984 -0.023027165 30
7.9961548 0.34911925 -0.060348172 24
10.484902 2.0057924 -0.14347082 0
13.779505 1.6114054 -0.2683208 53
7.9419017 0.3467505 -0.20066699 30
10.099868 1.9321342 -0.32010287 0
13.780561 1.611529 -0.51433086 46
7.8852077 0.34427518 -0.33908308 30
9.7631168 1.8677126 -0.48528549 0
13.777324 1.6111504 -0.75973648 42
7.7743006 0.33943287 -0.47186002 75
9.3023663 1.7795696 -0.63022888 17
13.80547 1.6144418 -1.0073055 45
7.7647834 0.33901733 -0.60895419 73
9.1804199 1.756241 -0.78734517 17
12.622434 1.476095 -1.1458255 7
7.7409711 0.33797768 -0.74417013 18
9.020813 1.7257077 -0.9363181 62
12.576854 1.4707648 -1.365756 10
11.159697 1.3050393 -1.4110377 2
10.063937 1.1768987 -1.4518154 2
9.1389999 1.0687345 -1.4828664 5
8.3575315 0.97734797 -1.5049096 3
7.7614012 0.90763521 -1.5369275 4
7.1982493 0.84177899 -1.5538193 5
6.7067471 0.78430164 -1.5674937 12
6.3136606 0.73833323 -1.5878459 7
4.7523985 0.55575585 -1.6460387 6
1.6852345 0.19707499 -0.79090452 3
5.9628787 0.65304172 1.5834244 19
8.6746941 0.95003396 1.686316 25
7.4032068 0.81078345 1.0419025 17
13.741832 1.504976 1.200205 31
13.751483 1.5060331 0.71167856 30
13.773755 1.5084722 0.46764398 34
13.769595 0.50009567 0.38318849 38
13.774117 2.5305083 0.30704948 56
13.775852 1.508702 0.2220571 26
7.8943906 0.28671509 0.079969615 1
11.227992 2.0627475 0.04821758 1
13.781578 1.5093291 -0.022987371 30
8.0704498 0.29310933 -0.060891032 5
10.487523 1.9267125 -0.14330956 0
13.782996 1.5094843 -0.26816612 45
8.0321436 0.29171813 -0.20288765 39
10.153083 1.865271 -0.32134745 0
13.795979 1.5109061 -0.51447904 50
7.9753804 0.28965655 -0.34286019 27
9.7804756 1.7968174 -0.48548052 0
13.804646 1.5118554 -0.76061147 40
7.7765799 0.28243634 -0.47186002 63
9.3073101 1.70989 -0.62969774 35
13.797105 1.5110295 -1.0058599 44
7.7710447 0.28223532 -0.60926664 66
9.2361698 1.6968205 -0.79103845 3
13.828884 1.5145099 -1.2543018 34
7.7511988 0.28151453 -0.74493498 80
9.0880146 1.6696023 -0.94199771 42
12.618924 1.3819976 -1.3691876 8
11.180799 1.2244972 -1.4125329 2
10.080166 1.1039582 -1.45295 5
9.1505146 1.0021448 -1.4835029 5
8.3801289 0.91777378 -1.5077264 3
7.7717476 0.85114521 -1.5376993 4
7.2003388 0.78856575 -1.5529808 5
6.7161894 0.73554271 -1.5683981 7
6.3073301 0.69076532 -1.5849378 6
4.7676244 0.52214009 -1.6499424 6
1.7010496 0.18629532 -0.7976644 5
5.9634452 0.61100286 1.5824035 20
8.6850214 0.88985032 1.6870749 27
7.4047461 0.75867575 1.0413483 19
13.732183 1.4069725 1.1984751 33
13.749741 1.4087715 0.71106201 31
13.772019 1.4110541 0.4672392 34
13.76076 0.40360191 0.38285491 39
13.763881 2.4294209 0.30643573 54
13.770135 1.4108611 0.22180076 23
13.781366 0.40420631 0.13957228 44
11.297266 1.9940462 0.048454106 1
13.783821 1.4122633 -0.022974107 29
13.793675 0.4045673 -0.10404857 42
10.504658 1.8541454 -0.14336331 0
13.785241 1.4124088 -0.26801142 47
8.0819483 0.23704286 -0.20409892 13
10.16192 1.7936498 -0.32122299 0
13.798238 1.4137404 -0.51418269 55
8.0131598 0.23502527 -0.34440538 40
9.820322 1.7333554 -0.48684588 1
13.806917 1.4146297 -0.76017398 45
7.7663894 0.22778752 -0.47113371 33
9.3661852 1.6531971 -0.63288474 20
13.791442 1.4130441 -1.0047034 40
7.7728257 0.22797631 -0.60926664 49
9.3223696 1.6454633 -0.79741782 34
13.839121 1.4179292 -1.2543018 37
7.7569551 0.22751082 -0.74531734 74
9.1386375 1.6130333 -0.94605452 38
12.636177 1.294678 -1.3700455 7
11.177231 1.1451972 -1.4110377 4
10.07581 1.0323478 -1.4512479 4
9.1572876 0.93823773 -1.4835029 3
8.3863316 0.85924709 -1.5077264 3
7.7696915 0.79606736 -1.5361555 5
7.2251225 0.74027187 -1.5571735 5
6.7211609 0.68863696 -1.5683981 6
6.3351626 0.64908832 -1.590754 7
4.763628 0.48807201 -1.6473399 6
1.6842757 0.17256759 -0.78921455 7
5.9868155 0.57119191 1.5875081 19
8.6832037 0.82844979 1.6855571 27
7.4019752 0.70620996 1.0402399 19
13.74167 1.3110695 1.1984751 29
13.755263 1.3123665 0.71085656 28
13.765616 1.3133543 0.46669951 35
13.759245 0.30743617 0.38274369 39
13.760791 2.3299336 0.30599734 62
13.779649 1.314693 0.22180076 24
13.787852 0.30807537 0.13961278 61
11.3819 1.9271474 0.048758212 0
13.793344 1.3159996 -0.022974107 28
13.788167 0.3080824 -0.10398825 43
10.568611 1.789444 -0.14406212 0
13.778841 1.314616 -0.26770201 46
13.792163 0.30817169 -0.34824002 37
10.18602 1.7246648 -0.32159635 0
13.815729 1.3181354 -0.51447904 46
8.0265913 0.17934591 -0.34492046 33
9.7927923 1.6580846 -0.48489538 1
7.8008308 0.74426413 -0.42919749 32
7.7558155 0.17329571 -0.4704074 26
9.4050446 1.5924325 -0.63474381 13
7.764287 0.74077749 -0.56523597 37
7.7622676 0.17343989 -0.6083293 41
9.2982607 1.5743521 -0.79439604 19
13.832818 1.3197658 -1.252865 40
7.754374 0.17326351 -0.74493498 79
9.2124519 1.5598233 -0.95254546 29
12.633031 1.2052962 -1.3687587 6
11.184953 1.0671375 -1.4110377 4
10.074889 0.96122813 -1.4501133 2
9.1478891 0.87278461 -1.4809572 3
8.4078045 0.80217439 -1.5105433 5
7.7867808 0.74292362 -1.5384713 5
7.2067537 0.68758422 -1.5521423 5
6.7413197 0.64317793 -1.5720161 6
6.3163595 0.60263324 -1.5849378 7
4.7593889 0.45408526 -1.6447375 6
1.6962667 0.16183794 -0.79428446 7
5.9866195 0.53113204 1.5864872 20
8.6885071 0.77084315 1.6855571 27
7.3986039 0.65640312 1.0391316 19
13.738155 1.2188473 1.1974372 35
13.739791 1.2189924 0.70962346 27
13.76606 1.2213229 0.46642968 35
13.756983 0.21611145 0.38263249 40
13.768046 2.2373359 0.30582199 68
13.768146 1.221508 0.22148034 24
13.785592 0.21656089 0.13957228 57
13.767284 2.2372119 0.058911949 32
13.789816 1.2234306 -0.022954211 28
13.797905 0.2167543 -0.10404857 45
10.580247 1.7193118 -0.14406212 0
7.863636 0.69766074 -0.1526853 6
13.801899 0.21681705 -0.3484419 37
10.228805 1.6622018 -0.32259202 3
7.8358188 0.69519275 -0.29161716 46
13.801564 0.21681179 -0.59300905 44
9.8193474 1.5956641 -0.48567557 7
7.8055959 0.69251138 -0.42919749 41
7.7807465 0.12222945 -0.47186002 46
9.48631 1.5415448 -0.63952434 1
7.7690296 0.68926722 -0.56523597 25
7.7712216 0.12207982 -0.60895419 58
9.3399725 1.5177647 -0.79708207 24
7.7658715 0.68898702 -0.70294058 7
7.7593336 0.12189307 -0.74531734 22
9.2854404 1.5089031 -0.95903641 38
12.644709 1.1218368 -1.3691876 5
11.195738 0.99328434 -1.4115361 2
10.077099 0.8940388 -1.449546 3
9.1652775 0.81314218 -1.4828664 3
8.4090176 0.7460469 -1.5098391 4
7.7837181 0.69057041 -1.5369275 4
7.2228427 0.6408096 -1.5546578 5
6.7376747 0.59776556 -1.5702071 10
6.3395457 0.56244361 -1.5897847 7
4.7773662 0.42384726 -1.6499424 6
1.6973027 0.15058446 -0.79428446 7
5.9863272 0.48901045 1.5854663 20
8.6858482 0.70952863 1.6840392 28
7.4069543 0.60505849 1.0396857 20
13.738386 1.1222599 1.1967452 34
13.755928 1.1236929 0.71003449 28
13.778234 1.125515 0.4665646 37
13.754159 0.12003108 0.3825213 39
13.771475 2.1393206 0.30555895 84
13.780324 1.1256857 0.22154441 23
13.782769 0.12028076 0.13953179 61
13.758852 2.1373596 0.058810581 45
7.9056563 0.64579642 -0.013151748 4
13.795082 0.12038822 -0.10401841 43
10.639419 1.6527734 -0.14470717 5
7.8404131 0.64046687 -0.15214385 32
13.795079 0.12038819 -0.34824002 41
10.283617 1.5975015 -0.32396102 3
7.8404808 0.64047235 -0.29161716 47
13.802742 0.12045506 -0.59300905 45
9.9092054 1.5393388 -0.48957658 17
7.9336433 0.64808261 -0.43597892 38
7.7893958 0.067977227 -0.47234422 53
9.5836058 1.4887587 -0.64536715 7
7.9128218 0.6463818 -0.57535529 34
7.7758722 0.06785921 -0.60926664 65
9.4172964 1.4629236 -0.80278993 39
7.7069621 0.62956554 -0.6971935 2
7.7719398 0.067824893 -0.74646461 28
9.3743925 1.4562587 -0.96715009 21
12.64034 1.0325627 -1.3679007 8
11.218222 0.91639292 -1.4135298 2
7.9914932 0.65280825 -1.1488574 5
9.1786022 0.74978065 -1.4841392 3
8.4140205 0.68732363 -1.5098391 4
7.8118196 0.63813108 -1.5415591 6
7.2349367 0.59100676 -1.556335 5
6.7378001 0.55039674 -1.5693027 9
6.3471856 0.51848823 -1.590754 6
4.7764387 0.39017725 -1.6486411 6
1.6802454 0.13725571 -0.78583461 4
6.0050225 0.44835794 1.5895499 20
8.6710072 0.64741057 1.6802447 28
7.4070477 0.55303854 1.0391316 20
13.726016 1.0248369 1.1950153 37
13.759455 1.0273335 0.70982897 31
13.769811 1.0281067 0.46602491 34
13.754662 0.024006028 0.3825213 39
13.762341 2.0396097 0.30503288 53
13.767905 1.0279645 0.221224 24
13.783273 0.024055963 0.13953179 45
13.753654 2.0383222 0.058726106 41
7.9259276 0.59178007 -0.013178277 27
13.803587 0.024091419 -0.10407873 43
11.248117 1.6669962 -0.1528241 1
7.8486819 0.5860126 -0.1522212 46
13.799582 0.024084428 -0.34834096 38
10.27079 1.5221541 -0.32321429 5
7.8607054 0.58691037 -0.29220986 40
13.807243 0.0240978 -0.59318078 43
10.12917 1.5011657 -0.49991426 1
7.8782306 0.58821887 -0.43269759 42
7.793673 0.013602308 -0.47258633 57
9.7793245 1.4493178 -0.65784955 4
7.754025 0.57894516 -0.56350124 36
7.7801442 0.013578696 -0.60957909 53
9.9635038 1.4766136 -0.84845257 11
7.774734 0.58049142 -0.70294058 13
7.7682424 0.013557923 -0.74608219 19
10.006278 1.482953 -1.0312481 5
7.7453942 0.57830077 -0.83772665 57
7.7216854 0.57653058 -0.97242475 56
7.7076101 0.57547969 -1.1074418 20
7.718646 0.57630366 -1.2473898 48
7.6804147 0.57344913 -1.3774465 11
7.6947532 0.57451969 -1.517629 27
7.2427864 0.54077417 -1.5571735 6
6.7531357 0.50421494 -1.5720161 12
6.3351712 0.4730081 -1.5868765 7
4.7865901 0.35738513 -1.6512436 6
1.6847782 0.12579198 -0.78752458 3
6.0080061 0.40642479 1.5895499 21
8.6870718 0.58765608 1.6825215 28
7.410728 0.501315 1.0391316 25
13.756692 0.93060166 1.1970912 40
13.750349 0.93017256 0.70900697 33
13.772663 0.93168211 0.46588999 34
13.758492 -0.072039485 0.38263249 38
13.772284 1.9429218 0.3049452 37
7.8690033 0.53231603 0.12637709 0
13.787105 -0.072189301 0.13957228 47
13.76755 1.9422538 0.058726106 46
7.9178929 0.53562325 -0.01315838 35
13.795419 -0.072232835 -0.10401841 44
12.019883 1.6957022 -0.16314498 0
7.8485913 0.53093523 -0.15214385 46
13.807412 -0.072295628 -0.34854281 41
10.37222 1.4632586 -0.32607681 8
7.8566351 0.53147936 -0.29191351 48
13.803079 -0.072272941 -0.59300905 45
10.400505 1.4672488 -0.51278758 4
7.8502655 0.53104848 -0.43094754 47
7.7736154 -0.040702663 -0.47137582 22
10.267402 1.4484713 -0.6899851 5
7.7419558 0.52372164 -0.56234473 7
7.7800493 -0.040736351 -0.60957909 44
10.356409 1.4610281 -0.88102078 2
7.7587237 0.52485591 -0.70114464 111
7.7761106 -0.040715732 -0.74684697 79
10.70595 1.5103395 -1.1022427 3
7.7413063 0.52367771 -0.83686876 45
7.737401 0.52341348 -0.97392005 58
7.7232919 0.52245903 -1.1091437 9
7.7146006 0.52187115 -1.2461169 66
7.7195883 0.52220851 -1.3837844 10
7.7024927 0.52105206 -1.5184009 28
7.2541895 0.49072561 -1.5588505 5
6.7370534 0.45574278 -1.5674937 9
6.3499341 0.42955527 -1.5897847 8
4.7889686 0.3239603 -1.6512436 6
1.7109356 0.11574 -0.79935437 3
6.0146842 0.36260581 1.5905708 22
8.6833048 0.52348828 1.6810036 26
7.4181581 0.44721669 1.0396857 23
13.735299 0.82805669 1.1946694 34
13.756798 0.82935274 0.70900697 34
13.779123 0.83069867 0.46588999 31
13.765591 -0.17299265 0.38285491 39
13.774264 1.8403268 0.30468217 37
7.8567252 0.47365651 0.12612075 2
13.786204 -0.1732517 0.13957228 46
13.777452 1.8407527 0.058709212 46
7.917614 0.47732729 -0.013151748 33
13.790519 -0.17330591 -0.10398825 42
12.361036 1.6515108 -0.16760661 0
7.8562646 0.47362873 -0.1522212 44
13.798513 -0.17340639 -0.34834096 42
11.844959 1.5825598 -0.37200135 2
7.8523402 0.47339213 -0.29161716 49
13.806174 -0.17350265 -0.59318078 47
10.905987 1.4571072 -0.53716892 3
7.8340139 0.4722873 -0.42985377 47
7.7890773 -0.097885594 -0.47234422 31
10.803893 1.4434669 -0.7253077 3
7.7495694 0.46719643 -0.56263387 32
7.7755542 -0.097715653 -0.60926664 7
11.081932 1.4806145 -0.94179243 1
7.762363 0.46796769 -0.70114464 82
7.7716222 -0.097666234 -0.74646461 52
11.600263 1.5498668 -1.1931159 1
7.7290583 0.46595988 -0.83515298 30
7.7410302 0.4666816 -0.97392005 60
7.7269144 0.46583059 -1.1091437 16
7.7339873 0.46625701 -1.2486626 61
7.703557 0.46442246 -1.3802633 16
7.7100229 0.46481228 -1.5191729 29
7.2419763 0.43659526 -1.5554963 5
6.747992 0.40681455 -1.5693027 8
6.3451653 0.38252944 -1.5878459 7
4.7987661 0.28930205 -1.653846 6
1.7008814 0.10254063 -0.79428446 3
6.0093451 0.32019502 1.588529 9
8.674983 0.46222776 1.6787268 26
7.4131875 0.39499572 1.0385774 20
13.740746 0.73214602 1.1946694 32
13.746296 0.73244178 0.7081849 30
7.8044791 0.41584486 0.26377496 0
13.76005 -0.26901221 0.38274369 41
13.766939 1.7416101 0.30424377 36
7.8598404 0.41879469 0.12612075 7
13.788658 -0.26957151 0.13961278 44
13.770125 1.7420131 0.058624737 42
7.9287419 0.42246595 -0.013165012 14
13.796971 -0.26973403 -0.10404857 41
13.77694 1.7428752 -0.1866357 33
7.8913283 0.42047241 -0.15283999 41
13.796968 -0.26973394 -0.34834096 38
12.303927 1.5565293 -0.38606498 3
7.8594451 0.41877362 -0.29176533 48
13.800631 -0.26980555 -0.59300905 44
11.351895 1.4360908 -0.55862445 1
7.8450966 0.41800907 -0.43029127 46
7.7961879 -0.1524173 -0.47282842 21
11.474962 1.4516597 -0.76966006 1
7.7685781 0.41393194 -0.56379038 103
7.7906308 -0.15230866 -0.61051637 14
11.851236 1.4992608 -1.0062573 5
7.7614622 0.41355279 -0.7007854 63
7.7826939 -0.15215349 -0.74761182 36
12.183247 1.5412623 -1.25194 2
7.7519798 0.41304755 -0.83729768 99
7.7282467 0.41178298 -0.97192633 17
7.733932 0.41208592 -1.1097112 71
7.7212791 0.41141173 -1.2461169 18
7.6948152 0.41000167 -1.3781507 53
7.7130799 0.41097486 -1.5191729 73
7.2839036 0.38810712 -1.5638818 5
6.7740126 0.3609387 -1.5747297 8
6.3593068 0.33884197 -1.590754 8
4.7893372 0.25518954 -1.6499424 7
1.6906948 0.09008503 -0.78921455 4
5.9843898 0.27698305 1.5813826 19
8.6779976 0.40165472 1.6787268 25
7.4078498 0.34286687 1.037469 19
13.745522 0.63620132 1.1946694 34
13.747085 0.63627368 0.70797938 28
7.9030342 0.36578611 0.2670131 0
13.761834 -0.36517334 0.38285491 41
13.76685 1.6440337 0.30398074 50
7.8665676 0.36409828 0.12618484 14
13.778444 -0.36561409 0.13953179 41
13.774008 1.6448884 0.058590949 41
8.0513697 0.3726517 -0.01336398 3
13.794752 -0.36604682 -0.10404857 42
13.776858 1.6452289 -0.18647444 32
7.9100509 0.36611086 -0.15314938 43
13.798745 -0.36615279 -0.3484419 40
13.783341 1.646003 -0.43211398 38
7.9021068 0.36574316 -0.2932471 36
13.802406 -0.36624992 -0.59318078 44
12.20266 1.4572384 -0.59997511 4
7.8917108 0.365262 -0.43269759 40
7.8069077 -0.20715804 -0.47355473 44
12.49935 1.4926691 -0.83764935 3
7.7712779 0.35968786 -0.56379038 103
7.8013372 -0.20701022 -0.61145371 44
12.629221 1.5081782 -1.0713938 9
7.7482414 0.35862163 -0.69934863 14
7.7695012 -0.20616545 -0.74646461 1
12.644157 1.509962 -1.298188 60
7.7546744 0.35891938 -0.83729768 102
7.7150745 0.35708654 -0.96993262 18
7.7366199 0.35808375 -1.1097112 70
7.7160735 0.35713276 -1.2448441 17
7.7053561 0.35663673 -1.3795592 48
7.7157607 0.35711828 -1.5191729 78
7.2629929 0.33616227 -1.5588505 5
6.7685828 0.31327885 -1.5729207 8
6.3576403 0.29425868 -1.5897847 6
4.7910018 0.22174799 -1.6499424 7
1.6949041 0.078447387 -0.79090452 7
5.9783664 0.23698047 1.5793408 20
8.6647739 0.34346879 1.6756911 27
7.4020448 0.29341459 1.0363606 21
13.741475 0.54470748 1.1939774 29
13.74701 0.54492694 0.70777386 27
13.777329 0.54612875 0.4653503 33
13.759109 -0.45643598 0.38285491 37
13.761556 1.5509022 0.30363002 43
13.775413 0.54605275 0.22090356 19
13.78371 -0.45725209 0.13961278 41
13.776665 1.5526049 0.05855716 43
13.777161 0.54612207 -0.022861358 34
13.800016 -0.457793 -0.10410888 41
13.775544 1.5524786 -0.18631318 31
7.9602585 0.31554201 -0.15407756 34
13.796013 -0.4576602 -0.3484419 40
13.77409 1.5523148 -0.4314917 39
7.9602761 0.3155427 -0.29532161 32
13.799673 -0.45778161 -0.59318078 46
13.776279 1.5525615 -0.67682499 42
7.9258866 0.31417951 -0.43444762 30
7.8133426 -0.25919488 -0.47403896 45
13.801913 1.5554503 -0.9242295 41
7.7814655 0.30845469 -0.56436861 100
7.811749 -0.25914201 -0.61239105 51
13.811345 1.5565133 -1.1707772 36
7.7385073 0.30675188 -0.6982711 25
7.7799015 -0.25808552 -0.74761182 19
12.64994 1.4256251 -1.2977823 93
7.7608581 0.30763784 -0.83772665 80
7.7331357 0.30653894 -0.97192633 14
7.7309117 0.30645078 -1.1085764 42
7.7182727 0.30594975 -1.2448441 17
7.7114868 0.30568078 -1.3802633 47
7.7101159 0.30562642 -1.517629 73
7.2650628 0.28798467 -1.5588505 5
6.7588315 0.26791784 -1.5702071 6
6.3672075 0.25239399 -1.5917234 6
4.7810287 0.18951841 -1.6460387 7
1.6953871 0.06720458 -0.79090452 7
5.9605479 0.19460751 1.5742363 19
7.4187303 0.2422161 1.4343553 3
7.4039125 0.24173231 1.0363606 20
13.756892 0.44915241 1.1950153 35
13.746487 0.44881269 0.70756841 32
13.772816 0.44967231 0.46508044 31
13.755588 -0.55248153 0.38285491 38
13.768071 1.4543722 0.30354235 34
13.770894 0.44960958 0.2207754 22
13.784179 -0.55362993 0.13965327 42
13.771256 1.4547087 0.05848958 41
13.788634 0.45018879 -0.022874624 34
13.800481 -0.55428469 -0.10413904 43
13.77809 1.4554306 -0.18620567 31
8.0022392 0.26126724 -0.15485103 40
8.2227488 -0.33025977 -0.20773274 19
13.788568 1.4565372 -0.43161616 39
8.0341978 0.26231065 -0.29798886 44
8.1618853 -0.32781523 -0.35092953 26
13.790755 1.4567684 -0.67702007 40
7.927887 0.2588397 -0.43444762 27
7.8312902 -0.31453717 -0.47524947 47
13.792589 1.4569621 -0.92290157 39
7.7714672 0.25373268 -0.56350124 52
7.8057652 -0.31351197 -0.61207861 21
13.806019 1.4583808 -1.1694342 35
7.7643509 0.25350034 -0.70042622 77
7.8057594 -0.31351173 -0.75028867 50
12.675413 1.3389508 -1.2994051 201
7.7508922 0.25306094 -0.83643979 45
7.743021 0.25280395 -0.97292316 59
7.7289052 0.25234309 -1.1080091 13
7.7360082 0.25257498 -1.2473898 56
7.7055621 0.25158095 -1.378855 19
7.7120619 0.25179315 -1.517629 8
7.2668962 0.23725884 -1.5588505 5
6.7683263 0.22098088 -1.5720161 7
6.3688145 0.20793712 -1.5917234 8
4.7935767 0.15650676 -1.6499424 6
1.6994386 0.05548542 -0.79259449 7
5.9656811 0.15100724 1.5752572 20
5.3041449 0.134262 1.0252984 1
7.4054861 0.18745252 1.0363606 22
13.747864 0.34799495 1.1939774 36
13.757395 0.34823623 0.70797938 28
13.779738 0.34880179 0.46521536 35
13.751167 -0.65330005 0.38285491 38
13.766422 1.3522356 0.30327931 34
13.777819 0.34875318 0.22083947 33
13.775755 -0.65446818 0.13961278 43
13.765627 1.3521574 0.058422003 41
13.795563 0.34920233 -0.022881255 34
13.796046 -0.65543216 -0.10413904 45
13.780428 1.3536112 -0.18609816 33
8.0798998 0.20452374 -0.15632066 8
8.1641874 -0.38786989 -0.20631959 21
13.790915 1.3546414 -0.43136725 37
8.0558844 0.20391585 -0.29872975 32
8.1472864 -0.38706696 -0.35041445 21
13.785158 1.3540759 -0.67623985 39
7.7938185 0.19728225 -0.42700994 10
7.8287745 -0.37193486 -0.47524947 24
13.798926 1.3554282 -0.92263597 39
7.7771068 0.19685924 -0.56379038 48
7.81919 -0.37147951 -0.6133284 5
13.816339 1.3571386 -1.1694342 33
7.7620177 0.19647729 -0.70006704 86
7.8231373 -0.37166703 -0.75220072 60
12.657166 1.2432765 -1.2965653 200
7.7445879 0.1960361 -0.8355819 29
7.7526011 0.19623893 -0.97392005 73
7.7345061 0.1957809 -1.1085764 23
7.7416 0.19596046 -1.2480261 55
7.7111354 0.19518933 -1.3795592 18
7.7019296 0.1949563 -1.5153131 8
7.2762604 0.1841815 -1.5605277 5
6.7853446 0.17175511 -1.5756341 6
6.3624086 0.16104947 -1.5897847 7
4.8021579 0.12155538 -1.6525447 6
1.6816782 0.042567741 -0.78414464 7
5.9665899 0.10935597 1.5752572 22
8.5876627 0.15739512 1.6597539 16
7.4145355 0.13589399 1.037469 20
13.757926 0.25215599 1.1946694 34
13.751502 0.25203827 0.70756841 28
13.777841 0.25252098 0.46508044 34
13.758249 -0.74993658 0.38318849 38
13.771544 1.2557316 0.30319163 32
13.783916 0.25263235 0.22090356 37
13.778838 -0.75105888 0.13969375 43
13.778714 1.2563854 0.058438897 41
13.789665 0.2527377 -0.022867991 31
8.2435274 -0.44933936 -0.062248189 2
7.8029213 0.71149433 -0.10530511 0
13.779109 0.25254422 -0.26654181 44
8.1413174 -0.44376802 -0.2058149 20
7.839663 0.71484452 -0.24505542 40
13.804198 0.25300407 -0.51181179 50
8.1643391 -0.44502291 -0.35127291 21
7.8023 0.71143764 -0.38249391 33
13.80898 0.25309172 -0.75645512 46
7.8419337 -0.42744923 -0.4762179 34
7.762558 0.70781386 -0.51868397 39
7.7782917 0.14256093 -0.56379038 44
7.8243704 -0.42649186 -0.61395329 6
7.7165456 0.70361829 -0.65270746 20
7.7632003 0.14228433 -0.70006704 96
7.8203521 -0.42627284 -0.75220072 48
13.176755 1.201497 -1.3488985 4
7.7457676 0.14196484 -0.8355819 36
7.7537823 0.14211173 -0.97392005 60
7.7396431 0.14185259 -1.1091437 51
7.7348824 0.14176533 -1.2467533 67
7.7201838 0.14149593 -1.3809676 20
7.7305717 0.14168632 -1.5207168 47
7.2930112 0.13366668 -1.5638818 5
6.7785869 0.12423829 -1.5738251 7
6.3711381 0.11677055 -1.5917234 8
4.7953258 0.087888986 -1.6499424 6
1.689184 0.030959453 -0.78752458 4
5.6500907 0.064100929 1.4915429 15
6.695693 0.075963408 1.2939553 15
7.4192643 0.084172405 1.0380232 17
13.755365 0.15605621 1.1943233 37
13.752927 0.15602852 0.70756841 30
13.783265 0.15637273 0.46521536 35
13.772634 -0.84719646 0.38374448 46
13.77599 1.1592239 0.30310395 35
13.781344 0.15635093 0.22083947 34
13.777251 -0.84748054 0.13973425 42
13.779178 1.1594921 0.058405105 45
13.795094 0.15650691 -0.022874624 32
8.1962748 -0.50417769 -0.061916441 17
7.8475542 0.66035706 -0.10584266 23
13.776537 0.15629639 -0.26646444 45
8.1140738 -0.49912125 -0.20520926 21
7.8325109 0.65909117 -0.24468206 37
13.805628 0.15662643 -0.51181179 53
8.1091785 -0.49882019 -0.34904096 26
7.8030963 0.65661597 -0.38229886 41
13.822392 0.15681662 -0.75711137 44
7.8666549 -0.4839018 -0.4779126 45
7.811059 0.65728599 -0.52160537 7
7.7790971 0.08825475 -0.56379038 63
7.8450837 -0.48257491 -0.61582798 49
7.7212696 0.64973044 -0.65270746 3
7.7520533 0.087947935 -0.69898945 37
7.8171859 -0.4808588 -0.75220072 4
12.645533 1.064098 -1.2937255 200
7.7624764 0.088066183 -0.83729768 86
7.7466483 0.087886617 -0.97292316 7
7.748363 0.08790607 -1.1102785 70
7.7238369 0.087627813 -1.2448441 18
7.7327952 0.087729447 -1.3830802 42
7.7274485 0.087668791 -1.5199448 63
7.3054986 0.082881719 -1.5663974 5
6.7676001 0.076779202 -1.5711117 4
6.3756785 0.072332807 -1.5926929 7
4.7958226 0.054409154 -1.6499424 6
1.6676074 0.018919198 -0.77738476 3
4.5094914 0.019676721 1.1903758 22
6.3347478 0.027641049 1.2241349 15
7.41571 0.032357719 1.037469 17
13.75612 0.060023475 1.1943233 36
13.75368 0.060012832 0.70756841 31
13.776025 0.060110327 0.46494552 33
13.782339 -0.94441867 0.38418928 23
13.779761 1.0627136 0.30301628 36
13.786099 0.060154289 0.22090356 68
8.0766449 -0.55344266 0.081953667 24
13.778961 1.0626519 0.058371317 43
13.79985 0.060214285 -0.022881255 31
8.1446686 -0.55810386 -0.061554532 21
7.8758998 0.60739994 -0.10616519 33
13.785291 0.060150757 -0.26661915 49
8.1183691 -0.55630177 -0.20541114 24
7.8448939 0.60500872 -0.24493097 38
13.806385 0.060242802 -0.51181179 53
8.07759 -0.55350739 -0.34783915 26
7.9190254 0.61072582 -0.38776025 49
13.80318 0.060228813 -0.75601763 48
7.8630843 -0.5388087 -0.4779126 43
7.8950443 0.60887635 -0.52691704 38
7.7875023 0.033980001 -0.56436861 60
7.8494802 -0.53787649 -0.61645281 50
7.761384 0.59856832 -0.65572923 29
7.7604465 0.033861943 -0.69970787 38
7.8056936 -0.53487605 -0.75143594 7
7.7447414 0.59728479 -0.79189467 36
7.7668791 0.033890013 -0.83772665 76
7.7510419 0.033820909 -0.97342157 12
7.7606668 0.033862904 -1.1119804 68
7.7400565 0.033772975 -1.2473898 11
7.7253442 0.033708781 -1.3816718 44
7.7278719 0.033719808 -1.5199448 52
7.3019881 0.031861506 -1.5655589 5
6.775764 0.029565379 -1.5729207 5
6.3721476 0.027804237 -1.5917234 7
4.7998676 0.02094375 -1.6512436 6
1.6822007 0.0073401174 -0.78414464 3
4.3780274 -0.0099335602 1.155665 20
6.2091174 -0.014088226 1.1998495 18
7.419723 -0.016835039 1.0380232 12
13.744262 -0.031185152 1.1932853 35
13.745788 -0.031188613 0.70715737 31
13.784117 -0.031275582 0.46521536 36
8.1219234 -0.61069095 0.22651044 0
13.770549 0.97017646 0.30266556 38
13.778196 -0.031262148 0.2207754 25
8.0688086 -0.60669714 0.081913181 25
13.781714 0.97096312 0.058354422 43
13.791945 -0.031293344 -0.022867991 34
8.1088791 -0.6097101 -0.06131326 24
