# .PCD v0.7 - Point Cloud Data file format
VERSION 0.7
FIELDS x y z intensity
SIZE 4 4 4 4
TYPE F F F F
COUNT 1 1 1 1
WIDTH 1376
HEIGHT 1
VIEWPOINT 0 0 0 1 0 0 0
POINTS 1376
DATA ascii
13.779152 -1.2515756 0.058438897 42
6.7096481 -1.1047601 -0.011274821 0
6.6385965 -1.5962371 -0.051481422 1
13.789981 -1.2525592 -0.18609816 32
10.437486 -1.7185576 -0.20458591 8
6.6522222 -1.5995133 -0.17270686 41
13.812421 -1.2545974 -0.43174061 39
10.112796 -1.6650966 -0.37993208 11
6.6598659 -1.6013513 -0.2942726 27
13.790735 -1.2526277 -0.67604482 37
9.7814388 -1.610538 -0.54295015 15
6.6848435 -1.6073571 -0.41690248 47
13.812467 -1.2546015 -0.92290157 42
6.6921067 -1.1018718 -0.49150956 1
6.6805377 -1.6063217 -0.53834176 23
13.814008 -1.2547415 -1.168427 32
9.2376432 -1.5210006 -0.8441034 7
12.717459 -1.1551409 -1.3018391 43
9.2216301 -1.5183641 -1.0080172 2
6.6847773 -1.100665 -0.85080934 1
9.1539984 -1.5072283 -1.3292705 1
9.3011379 -1.5314552 -1.5191425 2
8.5086079 -1.4009632 -1.542233 4
7.826653 -1.2886776 -1.5600855 4
7.2745099 -1.1977658 -1.5806526 4
6.7626996 -1.1134951 -1.5910106 5
6.325841 -1.0415653 -1.6014173 7
4.7548041 -0.7828902 -1.6577497 6
1.681331 -0.27683529 -0.79428446 3
6.5484371 -1.1252276 1.7539157 21
5.2717834 -0.90585828 1.0336465 19
8.971858 -1.5416474 1.2735597 19
13.757857 -2.3640327 1.2119683 34
13.763815 -2.3650565 0.71846038 34
6.6585679 -1.1441514 0.2280203 20
6.6482038 -1.6477275 0.19048226 36
13.774854 -1.3482089 0.30345467 38
6.6615038 -1.1446559 0.10830491 4
6.6620803 -1.6511667 0.069482461 24
13.782022 -1.3489106 0.05848958 44
6.6426387 -1.1414143 -0.011175338 28
6.6738796 -1.6540911 -0.05184333 0
13.792842 -1.3499695 -0.18625942 35
6.6453476 -1.1418798 -0.13040902 9
6.6719441 -1.6536114 -0.17351437 43
13.815263 -1.3521639 -0.43211398 38
6.6656647 -1.145371 -0.25071961 47
6.6524034 -1.6487683 -0.29444429 0
13.789608 -1.349653 -0.67643487 40
6.6720705 -1.1464716 -0.37078989 50
6.6928368 -1.6587896 -0.41811299 50
13.819261 -1.3525553 -0.9239639 47
6.6881833 -1.1492404 -0.49179867 2
6.6846433 -1.6567589 -0.53959149 18
13.82078 -1.3527038 -1.16977 34
6.6668534 -1.1455752 -0.60990959 55
6.6782823 -1.6551822 -0.66080475 1
13.564542 -1.3276248 -1.3894669 4
6.6984115 -1.1509978 -0.73306441 1
6.7160454 -1.1540278 -0.8557936 3
8.9754505 -1.5422648 -1.304875 14
9.313571 -1.6003646 -1.522961 2
8.4947395 -1.4596635 -1.5415288 4
7.8368063 -1.3466098 -1.5639452 4
7.262116 -1.24786 -1.5798141 4
6.7547612 -1.1606805 -1.5910106 6
6.3413639 -1.0896457 -1.6072335 6
4.7529507 -0.81670642 -1.6590508 6
1.6829306 -0.28918043 -0.79597443 3
6.5784922 -1.1777316 1.7641248 20
5.2575989 -0.94125527 1.0321286 18
8.9491787 -1.6021498 1.2718971 21
13.764554 -2.4642348 1.2140442 34
13.7509 -2.4617906 0.7186659 48
6.6543531 -1.1913128 0.22815521 16
6.6520357 -1.6980556 0.19092706 42
13.777037 -1.4455947 0.3037177 37
6.6494141 -1.1904285 0.10824082 6
6.6736441 -1.7035716 0.069725409 23
13.780224 -1.4459292 0.058523368 42
6.6738825 -1.1948091 -0.01124166 45
6.6621695 -1.7006425 -0.05184333 0
13.791037 -1.4470637 -0.18636693 31
6.6647706 -1.1931778 -0.13095045 3
6.6873584 -1.7070724 -0.17422095 44
13.82139 -1.4502486 -0.43261182 38
6.6732454 -1.194695 -0.25131235 58
6.6484752 -1.6971468 -0.29478768 0
13.787795 -1.4467235 -0.67682499 36
6.6717668 -1.1944304 -0.37122738 50
6.6849618 -1.7064607 -0.41835511 73
12.642482 -1.3265482 -0.84588248 4
6.6721435 -1.1944977 -0.49122044 2
6.6883698 -1.7073306 -0.54084128 18
12.594013 -1.3214625 -1.0666932 1
6.6822224 -1.1963022 -0.61206478 56
6.689712 -1.7076732 -0.66309917 15
12.395351 -1.3006175 -1.2706015 1
6.6784692 -1.1956302 -0.73177761 2
6.6882915 -1.1973888 -0.85330147 3
8.859231 -1.5860467 -1.289557 19
9.2905102 -1.6632576 -1.5210518 2
8.4804668 -1.5182376 -1.5408247 4
7.8310781 -1.401979 -1.5647172 4
7.2455277 -1.2971493 -1.578137 4
6.7541647 -1.2091818 -1.5928196 7
6.329782 -1.1332057 -1.6062642 5
4.7508569 -0.85053438 -1.6603521 6
1.7022831 -0.30475566 -0.8061142 3
6.5739117 -1.2243375 1.7651457 19
5.2624826 -0.98009455 1.0344054 19
8.9416695 -1.6653131 1.2724513 21
13.770521 -2.5646474 1.2161201 33
13.76087 -2.56285 0.72010446 28
6.6537347 -1.2392038 0.22842506 16
6.655488 -1.7485182 0.19137184 39
13.766609 -1.5417396 0.3037177 35
6.6448727 -1.2375535 0.10830491 3
6.6654568 -1.7511373 0.069765896 24
13.78172 -1.5434319 0.058574054 39
6.6771755 -1.2435696 -0.011261557 40
6.6772151 -1.7542263 -0.052054442 36
13.792523 -1.5446417 -0.18652819 31
6.63662 -1.2360164 -0.13056372 4
6.6946154 -1.7587978 -0.17472564 0
13.806956 -1.5462582 -0.43248737 34
6.6647425 -1.241254 -0.25131235 56
6.6751161 -1.7536749 -0.29650453 34
12.284481 -1.3757542 -0.60348606 4
6.6711187 -1.2424415 -0.37166491 50
6.7115021 -1.763234 -0.42077616 1
12.109351 -1.3561412 -0.81082547 3
6.6714859 -1.2425098 -0.49179867 4
6.6878581 -1.7570225 -0.54177862 30
11.962584 -1.3397048 -1.0139797 3
6.689374 -1.2458414 -0.61350155 56
6.6968822 -1.7593932 -0.66501123 47
12.041915 -1.3485891 -1.235307 2
6.6855984 -1.2451382 -0.73349339 2
6.7070813 -1.2491393 -0.85679042 2
8.7934446 -1.6377075 -1.2816142 16
9.2903194 -1.7302463 -1.522961 2
8.5044994 -1.5838938 -1.5471625 4
7.832675 -1.4587719 -1.5670329 4
7.2478304 -1.3498493 -1.5806526 5
6.7493887 -1.2570187 -1.5937241 6
6.3217168 -1.1773682 -1.6062642 6
4.7485213 -0.88437343 -1.6616533 6
1.7072425 -0.31795999 -0.80949414 5
6.409955 -1.2378438 1.7232884 19
5.2751474 -1.018698 1.0382 19
8.9187593 -1.7223258 1.2707887 19
13.76886 -2.6589417 1.217504 34
13.759258 -2.6570876 0.72092646 30
6.6453695 -1.2833053 0.22842506 18
6.6784887 -1.8019946 0.19237264 0
13.767995 -1.6344223 0.30398074 38
6.6482997 -1.2838712 0.10849717 23
6.6614199 -1.797389 0.069846876 20
13.779124 -1.6357435 0.058607843 41
6.672708 -1.2885847 -0.011268189 3
6.6770191 -1.801598 -0.052144922 42
13.797862 -1.6379679 -0.18674321 31
6.6243496 -1.2792461 -0.13048637 2
6.6712217 -1.8000337 -0.17442282 0
12.375072 -1.469066 -0.38793182 1
6.6681376 -1.2877021 -0.25175688 52
6.6671968 -1.7989478 -0.29667622 46
11.870414 -1.4091573 -0.58359092 9
6.6784177 -1.2896873 -0.37253994 6
6.6765313 -1.8014665 -0.41932353 0
11.703756 -1.3893731 -0.78426713 6
6.6709323 -1.2882419 -0.49237692 51
6.6914587 -1.8054941 -0.54302841 44
11.660539 -1.3842425 -0.98913383 6
6.688787 -1.2916898 -0.6142199 48
6.6927547 -1.8058438 -0.66577607 44
11.617785 -1.3791673 -1.1927103 2
6.6810975 -1.2902049 -0.7339223 44
6.7025461 -1.2943468 -0.85728884 14
8.7318487 -1.686231 -1.2742388 4
9.2902708 -1.7940693 -1.5248704 2
8.4860754 -1.6387689 -1.5457541 4
7.8228278 -1.5106875 -1.5670329 4
7.2463984 -1.3993716 -1.5823298 5
6.7256007 -1.2987989 -1.5901061 8
6.3252001 -1.2214766 -1.6091723 5
4.7425518 -0.91584694 -1.6616533 6
1.6979767 -0.32790089 -0.8061142 5
6.4087415 -1.2840831 1.7253302 18
5.2679067 -1.0555006 1.0382 42
8.8987494 -1.7829919 1.2696803 21
13.773405 -2.7596991 1.2195799 36
13.748206 -2.7546501 0.7213375 26
6.6480074 -1.3320235 0.22882983 32
6.6387749 -1.8410947 0.19159424 0
13.768152 -1.7319986 0.30424377 37
6.658782 -1.3341824 0.10881759 33
6.6679811 -1.8491944 0.070049331 22
13.787212 -1.7343963 0.058692317 42
6.6557055 -1.333566 -0.011254924 3
6.6796966 -1.8524433 -0.052265558 41
13.78609 -1.7342552 -0.18674321 29
6.6427064 -1.3309613 -0.1310278 41
6.6584926 -1.846563 -0.17442282 0
11.9599 -1.5045251 -0.37523723 0
6.6746626 -1.3373643 -0.25234959 2
6.6775818 -1.8518568 -0.29770637 49
11.511455 -1.4481118 -0.56642646 5
6.6770835 -1.3378494 -0.37297744 4
6.6714873 -1.8501667 -0.41980773 0
11.095818 -1.3958257 -0.74416411 12
6.7048063 -1.3434039 -0.49555728 54
6.7055902 -1.8596244 -0.54521549 44
11.219525 -1.4113879 -0.95253658 4
6.6717939 -1.3367895 -0.61350155 2
6.6876588 -1.8546515 -0.66654086 27
11.055118 -1.3907058 -1.1359146 5
6.7031231 -1.3430667 -0.73735386 56
6.7166953 -1.3457861 -0.86027938 12
6.7903132 -1.3605365 -0.99227238 14
6.8458495 -1.371664 -1.1251965 11
6.8104286 -1.3645669 -1.242237 15
6.8692517 -1.376353 -1.3779083 15
6.8606324 -1.374626 -1.5001526 21
6.7087283 -1.3441899 -1.5882971 20
6.308908 -1.2640802 -1.6072335 7
4.736042 -0.9489339 -1.6616533 6
1.7205298 -0.34473279 -0.81794399 4
6.4185548 -1.332724 1.7304348 20
5.2681003 -1.093848 1.0397178 18
8.8860855 -1.8450724 1.2696803 18
13.777215 -2.8606477 1.2216557 36
13.759931 -2.857059 0.72298157 30
6.6502895 -1.3808404 0.22923461 33
6.6603689 -1.8972559 0.19259503 2
13.763654 -1.8291284 0.30441913 59
6.6493058 -1.3806361 0.10881759 28
6.6741428 -1.9011796 0.070251785 35
13.770803 -1.8300786 0.058675423 42
6.6853981 -1.3881303 -0.011321248 2
6.6704483 -1.9001272 -0.052295715 0
6.6528316 -1.3813683 -0.13141455 47
6.6800508 -1.9028625 -0.17533128 31
11.449739 -1.5216193 -0.35955566 0
6.6534219 -1.3814908 -0.25190505 1
6.6606474 -1.8973353 -0.29753467 12
11.116904 -1.4773871 -0.54750657 6
6.6754022 -1.3860548 -0.37341496 4
6.6852875 -1.9043542 -0.42150247 37
10.800942 -1.4353971 -0.7250421 5
6.7030764 -1.3918009 -0.49613553 52
6.6924443 -1.9063929 -0.54521549 16
10.743164 -1.4277188 -0.91291749 4
6.6701002 -1.3849539 -0.6142199 0
6.6668887 -1.8991132 -0.66577607 0
10.690117 -1.4206691 -1.099403 8
6.705265 -1.3922553 -0.73864067 58
6.7265663 -1.3966782 -0.86277151 15
6.7380037 -1.3990531 -0.98603165 15
6.7781081 -1.4073802 -1.1156502 15
6.8161573 -1.4152806 -1.2450539 13
6.8556333 -1.4234772 -1.3771363 13
6.9695816 -1.447137 -1.5261474 5
6.6915512 -1.3894079 -1.5864881 25
6.2999296 -1.3080931 -1.6072335 6
4.7255988 -0.98120511 -1.6603521 7
1.6967827 -0.3523134 -0.80780417 4
6.4506869 -1.3864409 1.7416648 18
5.2680149 -1.1322501 1.0412357 13
8.8729877 -1.907064 1.2696803 19
13.7647 -2.9584355 1.2223477 33
13.774799 -2.9606063 0.72483116 31
6.6443958 -1.4280745 0.22936952 31
6.6469607 -1.9437079 0.19259503 38
13.75847 -1.926281 0.30459449 45
6.6707869 -1.4337467 0.10933028 20
6.6760631 -1.9522181 0.070413753 28
13.773538 -1.9283906 0.058743 42
6.6481695 -1.4288856 -0.011274821 32
6.6838937 -1.9545077 -0.052506831 0
11.629513 -1.6282123 -0.15782328 0
6.6547556 -1.4303011 -0.13164659 52
6.6781173 -1.9528186 -0.17563409 63
11.050813 -1.5471903 -0.34735891 0
6.6553397 -1.4304267 -0.25234959 3
6.6817598 -1.9538839 -0.29907987 0
10.758134 -1.5062132 -0.5303421 5
6.6577535 -1.4309455 -0.37297744 46
6.6986542 -1.9588242 -0.42319718 44
10.395396 -1.4554274 -0.69848377 6
6.6853957 -1.4368867 -0.49555728 2
6.713419 -1.9631416 -0.54802752 8
10.326355 -1.4457612 -0.87833476 4
6.6914287 -1.4381832 -0.61709344 4
6.6916842 -1.9567859 -0.66960013 0
10.337077 -1.4472624 -1.0641085 4
6.6914935 -1.4381973 -0.73821175 13
6.7205319 -1.4444383 -0.86326993 15
6.7667842 -1.4543793 -0.99170506 11
6.7951436 -1.4604746 -1.1201051 12
6.8754039 -1.4777249 -1.2577298 13
7.8048229 -1.6774842 -1.5701207 4
7.2193274 -1.5516441 -1.5831683 5
6.2944379 -1.3528583 -1.6082029 6
4.7186337 -1.0141721 -1.6603521 7
1.6836481 -0.3618651 -0.80273432 2
6.4516764 -1.4362098 1.7447275 18
5.2825747 -1.1759558 1.0457891 16
8.8549032 -1.971193 1.2691261 19
13.769873 -3.065316 1.2247696 33
13.768324 -3.0649714 0.72565317 28
6.6454554 -1.4793471 0.2297743 22
6.6593404 -2.0004315 0.19337341 39
13.759804 -2.0294178 0.3049452 52
6.7420802 -1.5008568 0.11067608 0
6.6730657 -2.0045547 0.070535228 34
13.774859 -2.0316381 0.058810581 39
6.6687522 -1.4845332 -0.01132788 37
6.6693873 -2.0034497 -0.052506831 0
11.150357 -1.6445534 -0.15148024 0
6.632381 -1.4764366 -0.13141455 1
6.6866012 -2.0086207 -0.17623973 64
10.809768 -1.5943202 -0.3401404 0
6.6563802 -1.4817791 -0.25279412 51
6.6825671 -2.0074089 -0.2997666 1
10.50175 -1.5488911 -0.51824898 2
6.6704769 -1.4849172 -0.37428996 47
6.6955876 -2.0113201 -0.42392349 69
10.084365 -1.4873314 -0.67829949 7
6.6668949 -1.4841198 -0.49497902 0
6.6988482 -2.0122995 -0.54802752 9
9.9251003 -1.4638417 -0.84509504 3
6.6768174 -1.4863286 -0.61673427 53
6.7076678 -2.0149488 -0.67265946 35
9.8262196 -1.4492577 -1.0125867 15
6.6924171 -1.4898013 -0.73949856 1
6.7407551 -1.5005618 -0.86725736 12
6.8680248 -1.5288934 -1.0081578 1
9.2743855 -2.064574 -1.5312346 3
8.467103 -1.8848646 -1.5513879 2
7.788486 -1.7337974 -1.5693488 4
7.2153945 -1.6062214 -1.5848454 5
6.7204247 -1.4960361 -1.5982466 8
6.2957163 -1.4014915 -1.611111 5
4.7110724 -1.0487335 -1.6603521 6
1.6880281 -0.37577251 -0.8061142 3
6.4339538 -1.4794827 1.7426857 19
5.2589264 -1.209286 1.0427535 12
8.8409262 -2.032964 1.2691261 21
13.767555 -3.1658385 1.2264994 32
13.762163 -3.1645987 0.72647524 28
6.6427579 -1.5274969 0.23004414 22
6.6757827 -2.0562901 0.194263 24
13.765062 -2.1284838 0.30538359 56
6.6456871 -1.5281705 0.10926619 1
6.6780214 -2.0569799 0.070737682 11
13.784059 -2.1314213 0.058911949 39
6.6504292 -1.529261 -0.011314615 59
6.6972871 -2.0629139 -0.052838579 32
10.889587 -1.6838508 -0.14809372 0
6.6413994 -1.5271846 -0.13180129 1
13.935553 -2.1548467 -0.43895912 0
6.6614561 -1.5317966 -0.25338686 65
6.6836677 -2.0587189 -0.30045336 48
10.198504 -1.5769891 -0.50381529 0
6.6833024 -1.5368202 -0.37560251 47
9.7976351 -1.5150028 -0.65970862 11
6.6758118 -1.5350976 -0.49642465 1
6.6922588 -2.0613651 -0.54865241 37
9.6743555 -1.4959402 -0.82461399 4
6.6895733 -1.5382621 -0.61888945 51
6.6972427 -2.0629003 -0.67304182 43
9.5917015 -1.4831594 -0.98946267 1
6.6779776 -1.5355958 -0.73906964 0
6.7765298 -1.5582576 -0.87323844 20
6.8031597 -1.5643812 -1.0002151 11
6.877459 -1.5814662 -1.1372886 8
6.8727384 -1.5803808 -1.2612509 13
6.8696709 -1.5796754 -1.3863996 15
6.8762035 -1.5811776 -1.5127307 31
6.6984243 -1.5402974 -1.595533 8
6.2819967 -1.4445401 -1.6101418 7
4.7110085 -1.0832926 -1.6629546 6
1.69243 -0.38917294 -0.80949414 3
6.4121795 -1.521685 1.739623 18
5.2694621 -1.2505049 1.0465481 15
8.8380814 -2.0973797 1.2707887 19
13.77226 -3.2683177 1.2289213 33
13.763057 -3.2661338 0.72770828 30
6.6513805 -1.5784502 0.23071876 22
13.769605 -2.2277234 0.30582199 46
6.6387482 -1.5754523 0.10933028 5
6.6787558 -2.1083667 0.070899643 12
13.788586 -2.2307942 0.058996424 39
6.6668344 -1.5821176 -0.011361041 8
6.7056084 -2.1168437 -0.053019531 41
10.541961 -1.7055372 -0.14352457 7
6.6344676 -1.5744364 -0.13187863 1
6.6845975 -2.1102109 -0.1769463 0
10.202334 -1.6505905 -0.32172081 7
6.6700459 -1.5828797 -0.25412774 61
6.6958084 -2.11375 -0.30165517 47
10.025544 -1.6219884 -0.4958182 5
6.6685247 -1.5825186 -0.37538373 19
6.6858897 -2.1106188 -0.425134 0
9.546483 -1.5444832 -0.64350808 13
6.6765776 -1.5844296 -0.49729201 43
6.6967187 -2.1140373 -0.55021465 64
9.2387266 -1.4946927 -0.78835243 12
6.6864238 -1.5867664 -0.61960781 74
6.7054591 -2.1167965 -0.6753363 42
9.1607857 -1.482083 -0.94605452 5
6.6903114 -1.5876889 -0.74164331 34
6.7616243 -1.6046124 -0.87273997 17
6.7920728 -1.611838 -1.0002151 15
6.8278279 -1.6203231 -1.1309243 14
6.8347201 -1.6219587 -1.2563213 17
6.8852067 -1.6339397 -1.3918031 12
7.0019932 -1.6616546 -1.5429182 5
6.6988816 -1.5897226 -1.5982466 11
6.2793107 -1.4901537 -1.6120805 7
4.7143722 -1.1187755 -1.6668582 6
1.6967269 -0.40265307 -0.81287408 3
6.3938866 -1.564574 1.7375811 19
5.2606039 -1.2872615 1.0465481 14
8.4615211 -2.0705211 1.2186935 5
13.768461 -3.3691208 1.2306513 35
13.755441 -3.3659348 0.72853035 28
6.6479654 -1.6267468 0.23098861 22
6.6692491 -2.1566799 0.19493018 0
13.76949 -2.3264625 0.3061727 57
6.650897 -1.6274641 0.10971479 32
6.6752911 -2.1586337 0.071021117 11
6.6694145 -1.1268494 0.028569 3
6.643971 -1.6257693 -0.011341144 0
6.7020845 -2.1672981 -0.053110011 46
6.660984 -1.1254251 -0.090791389 15
6.650507 -1.6273687 -0.13242008 44
6.7039452 -2.1678998 -0.17785475 13
6.6386495 -1.1216515 -0.20958523 11
6.6471848 -1.6265557 -0.25368321 1
6.6999006 -2.1665919 -0.3025136 50
6.6733584 -1.1275159 -0.33041543 0
6.676712 -1.633781 -0.37647751 3
6.708982 -2.1695287 -0.42755505 0
6.6626277 -1.1257029 -0.44963235 21
6.6924796 -1.6376393 -0.49931589 51
6.6931801 -2.1644187 -0.55115193 49
6.6813087 -1.1288592 -0.57078326 44
6.7061405 -1.640982 -0.62248135 0
6.7056723 -2.1684585 -0.67686594 1
6.6664739 -1.1263527 -0.68925673 1
6.7022419 -1.6400281 -0.74421692 59
6.7695332 -1.6564941 -0.8752321 14
6.7960391 -1.6629801 -1.0024844 13
6.793334 -1.6623182 -1.1271057 15
6.853828 -1.6771209 -1.261955 14
7.7771544 -1.9030576 -1.5747523 3
7.1953702 -1.7606958 -1.5881995 4
6.6989741 -1.6392286 -1.60096 13
6.2800632 -1.5367216 -1.6149886 6
4.7064466 -1.1516602 -1.6668582 6
1.6833098 -0.41190329 -0.80780417 5
6.3608661 -1.60128 1.7314557 19
5.2595673 -1.3240398 1.0480659 14
8.7664537 -2.2068608 1.2646924 3
13.765136 -3.4652257 1.2323811 36
13.763804 -3.4648907 0.73017442 32
6.656414 -1.675681 0.23166321 18
6.696557 -2.2146745 0.19615337 33
6.6326823 -1.1659406 0.14765029 4
6.6632276 -1.6773963 0.11009931 26
6.7026 -2.2166729 0.071466513 48
6.6460357 -1.168288 0.028501421 40
6.6640739 -1.6776093 -0.011394202 0
6.661252 -1.1709628 -0.090898901 2
6.6473241 -1.6733928 -0.13257477 48
6.7197919 -2.2223585 -0.17866227 43
6.6310639 -1.1656562 -0.20958523 3
6.6711378 -1.6793876 -0.25501683 0
6.7119431 -2.219763 -0.30371541 0
6.6539288 -1.1696756 -0.32983029 31
6.681222 -1.6819261 -0.37735254 5
6.7020268 -2.2164834 -0.42803925 34
6.658946 -1.1705575 -0.44989792 2
6.689209 -1.6839368 -0.49989414 51
6.7241111 -2.2237871 -0.5549013 3
6.6815262 -1.1745268 -0.57145476 47
6.6835198 -1.6825045 -0.62140375 1
6.706264 -2.2178848 -0.67839557 1
6.6862912 -1.1753645 -0.69209647 3
6.6912174 -1.6844424 -0.74421692 84
6.7776413 -1.7061987 -0.87772423 9
8.7546587 -2.2038915 -1.2935283 3
9.2483997 -2.3281856 -1.5369624 2
8.4462776 -2.12626 -1.5577258 3
7.7643619 -1.954595 -1.5747523 3
7.1683631 -1.8045588 -1.5848454 4
6.6917334 -1.6845723 -1.6018646 9
6.269733 -1.5783381 -1.6149886 6
4.702373 -1.1837721 -1.6681594 6
1.7192144 -0.43279386 -0.82639384 5
6.3532758 -1.6466184 1.7324766 19
5.2539973 -1.3617115 1.0488248 13
7.4470277 -1.9300929 1.0762632 3
13.786899 -3.5732372 1.2365329 34
13.754747 -3.5649042 0.73099643 44
6.6561627 -1.7251195 0.23206799 17
6.6885071 -2.2639351 0.19637576 39
6.6519175 -1.2172552 0.14826404 4
6.6745844 -1.7298939 0.11048383 23
6.702116 -2.2685416 0.071628481 37
6.6652603 -1.2196969 0.028619684 48
6.6599436 -1.7260994 -0.011407467 37
6.6984801 -2.2673109 -0.053321123 0
6.6450462 -1.2159979 -0.090791389 4
6.6587076 -1.7257791 -0.13303886 50
6.704113 -2.2692175 -0.17866227 69
6.6384959 -1.2147992 -0.21008307 2
6.6902061 -1.7339427 -0.25620225 1
6.6811419 -2.2614419 -0.30302867 0
6.6573911 -1.218257 -0.33041543 49
6.684782 -1.7325369 -0.37822756 33
6.7052989 -2.2696187 -0.42924976 75
6.6623898 -1.2191716 -0.45069468 2
6.6888757 -1.733598 -0.50076151 1
6.7273088 -2.2770686 -0.55646348 1
6.6849265 -1.2232956 -0.57246208 53
6.6716108 -1.7291232 -0.62140375 1
6.7019315 -2.2684789 -0.67954284 2
6.6857524 -1.2234467 -0.69290787 2
6.6908441 -1.7341081 -0.74550378 18
8.5366755 -2.2125039 -1.1074976 33
8.788887 -2.2778711 -1.3009037 5
9.2548561 -2.3986392 -1.5407809 3
8.4312277 -2.1851742 -1.5577258 3
7.7505269 -2.0087528 -1.5747523 3
7.1783061 -1.8604467 -1.5898767 4
6.645864 -1.7224503 -1.5937241 8
6.2660747 -1.6240178 -1.6169274 7
4.6903329 -1.215623 -1.6668582 6
1.6915846 -0.4384186 -0.81456405 5
6.3490996 -1.6929247 1.7345184 20
5.2671318 -1.4044286 1.0533783 10
8.8189945 -2.3514979 1.2768849 18
13.723112 -3.6591322 1.2330731 30
13.775844 -3.6731925 0.73346257 42
6.6594086 -1.7756654 0.23260768 14
6.6952095 -2.318424 0.19704294 37
6.6432571 -1.2636647 0.14826404 7
6.7125731 -2.3244367 0.071911916 39
6.6644416 -1.2676944 0.028653475 51
6.6825156 -1.7818267 -0.011467157 39
6.7278452 -2.329725 -0.053683031 8
6.6678286 -1.2683386 -0.091221429 2
6.6310401 -1.7681013 -0.13272947 1
6.7107792 -2.3238156 -0.1792679 4
6.6612744 -1.267092 -0.21107872 18
6.677938 -1.7806062 -0.25620225 43
6.684073 -2.3145676 -0.3038871 0
6.6565733 -1.2661977 -0.33080554 47
6.6841021 -1.7822497 -0.37888384 49
6.7043824 -2.3216004 -0.43021819 70
6.6497951 -1.2649083 -0.45042908 3
6.6958842 -1.7853913 -0.5022071 0
6.7037115 -2.3213682 -0.55583864 33
6.6801386 -1.2706802 -0.57279783 25
6.6824727 -1.7818153 -0.62355894 42
6.7160311 -2.3256342 -0.68260211 43
6.7005033 -1.274554 -0.69534194 46
6.655519 -1.7746284 -0.74293011 0
8.5363607 -2.2761362 -1.1094912 28
8.7345114 -2.3289711 -1.2952303 1
9.2302551 -2.4611561 -1.5395081 2
8.4233761 -2.2460101 -1.5591342 4
7.7552757 -2.0678675 -1.5786121 4
7.1802597 -1.9145453 -1.5932308 3
6.6525016 -1.7738237 -1.5982466 6
6.2470846 -1.6657233 -1.6149886 7
4.6890411 -1.2502865 -1.6694607 6
1.6884826 -0.45021722 -0.81456405 6
6.3371263 -1.7372086 1.7345184 19
5.2685618 -1.444281 1.0556551 8
8.8405685 -2.4234822 1.282427 20
13.724135 -3.7622237 1.235495 39
13.711339 -3.7587156 0.73140746 34
6.6391387 -1.8199999 0.23233783 13
6.6460433 -1.3123358 0.14852707 33
6.6497808 -1.8229172 0.11048383 0
6.6961818 -2.3712425 0.071911916 4
6.6554294 -1.3141893 0.028653475 3
6.6544828 -1.8242062 -0.011440627 71
6.7151871 -2.3779726 -0.053713191 42
6.6627355 -1.315632 -0.091275178 40
6.6378198 -1.8196384 -0.1331162 0
6.6830845 -2.3666043 -0.17896508 0
6.6640339 -1.3158883 -0.2114521 49
6.6730542 -1.8292972 -0.25649861 74
6.7129569 -2.3771827 -0.30594736 31
6.6475716 -1.3126377 -0.33080554 2
6.6792006 -1.8309821 -0.37932134 45
6.6682119 -1.3167133 -0.45228818 47
6.6832571 -1.8320941 -0.5022071 0
6.7286921 -2.3827548 -0.55927551 43
6.6828361 -1.3196011 -0.57380509 3
6.6852388 -1.8326374 -0.62499571 50
6.7183981 -2.3791096 -0.68451416 41
6.6836343 -1.3197587 -0.69453061 48
6.6813216 -1.8315636 -0.74721956 0
8.5394001 -2.3409221 -1.1119834 35
8.683671 -2.3804715 -1.2901243 2
9.2204647 -2.5276237 -1.5407809 2
8.4188833 -2.3078847 -1.5612469 4
7.7406507 -2.1219594 -1.5786121 4
7.1554027 -1.9615244 -1.5907152 3
6.6437135 -1.821254 -1.599151 7
6.246532 -1.7123739 -1.6178968 7
4.6874943 -1.2849917 -1.672063 7
1.6922914 -0.46391109 -0.81794399 5
6.3056102 -1.7783662 1.7294139 17
5.2616129 -1.4839284 1.056414 9
8.8149405 -2.4860706 1.2813185 18
13.723036 -3.8702967 1.2379168 38
13.714175 -3.8677979 0.73305154 35
6.6525526 -1.8762141 0.2332823 10
6.698936 -2.4276266 0.19815493 0
6.6440797 -1.3626254 0.14870243 43
6.6670341 -1.8802984 0.11099651 9
6.7011824 -2.4284408 0.072154865 3
6.645617 -1.3629407 0.028653475 2
6.68328 -1.8848802 -0.011513582 4
6.7126174 -2.4325848 -0.053833827 50
6.6725025 -1.3684546 -0.09154395 44
6.6781907 -1.8834448 -0.13419908 0
6.7069111 -2.4305167 -0.18007541 0
6.6659579 -1.3671124 -0.21182546 42
6.6787019 -1.8835889 -0.25723952 61
6.7178936 -2.4344966 -0.30697748 45
6.6495123 -1.3637395 -0.33139068 1
6.6886635 -1.8863984 -0.38063386 12
6.7155161 -2.4336352 -0.43312344 0
6.6583805 -1.3655583 -0.45228818 56
6.6965261 -1.8886158 -0.50423098 33
6.7260413 -2.4374492 -0.5605253 59
6.6846972 -1.3709556 -0.57481235 1
6.6907969 -1.8870001 -0.62679166 70
6.7194948 -2.435077 -0.68642622 39
6.6854749 -1.3711151 -0.69574761 50
6.7021646 -1.8902062 -0.75108004 28
8.54111 -2.4088423 -1.1144755 31
8.6926651 -2.4515853 -1.2940956 1
9.2130909 -2.5983605 -1.5426902 2
8.3790016 -2.3631232 -1.5570216 4
7.7248878 -2.1786439 -1.5786121 4
7.1333032 -2.0117998 -1.5890381 3
6.633935 -1.8709633 -1.6000556 6
6.2338119 -1.758117 -1.6178968 5
4.6743083 -1.3182914 -1.6707618 7
1.7097814 -0.48220828 -0.82808381 5
6.2633219 -1.8137375 1.7212467 19
5.2737589 -1.5271791 1.0609676 7
8.8202 -2.5541604 1.2846438 18
13.726304 -3.9748735 1.2406846 41
13.717536 -3.9723344 0.73469561 35
6.666172 -1.9303951 0.23422676 11
6.7155724 -2.4868307 0.19915572 1
6.6500521 -1.4122988 0.14905314 44
6.6806364 -1.9345838 0.11144511 31
6.7253261 -2.4904425 0.07260026 12
6.6242018 -1.4068089 0.02860279 1
6.6853271 -1.9359421 -0.011540111 0
6.7292304 -2.4918885 -0.054105256 50
6.6745238 -1.417496 -0.091705218 38
6.661037 -1.9289082 -0.13412173 34
6.7272787 -2.4911656 -0.1810848 0
6.664073 -1.4152765 -0.21207437 37
6.6884265 -1.9368396 -0.25812858 0
6.7157249 -2.4868872 -0.30766425 43
6.6476455 -1.4117877 -0.33178079 5
6.6945128 -1.9386021 -0.38172764 5
6.7208285 -2.4887772 -0.43457606 20
6.6603971 -1.4144958 -0.45308492 54
6.7100024 -1.9430876 -0.50625485 47
6.7051215 -2.4829609 -0.56021285 1
6.6827612 -1.4192454 -0.57548386 12
6.7310333 -1.9491777 -0.63182038 0
12.10527 -4.4826794 -1.2397736 1
6.6796327 -1.418581 -0.69615334 6
6.7117257 -1.9435867 -0.75365371 52
8.5317097 -2.470619 -1.1154723 23
8.7361908 -2.5298326 -1.3031731 5
9.2023134 -2.6648128 -1.5439631 2
8.3887739 -2.4292276 -1.561951 3
7.7132602 -2.2336118 -1.579384 4
7.1341119 -2.0659015 -1.5923922 4
6.624454 -1.9183145 -1.60096 6
6.2064757 -1.7972759 -1.6140193 7
4.6613579 -1.3498396 -1.6694607 6
1.6924437 -0.49009913 -0.82132393 5
6.2542143 -1.8585212 1.7222676 19
5.2817917 -1.5695531 1.0647621 5
8.8287354 -2.6235735 1.2885232 21
13.717319 -4.0762801 1.2424146 40
13.723932 -4.0782452 0.73654521 32
6.6793575 -1.984858 0.23517123 9
13.796256 -5.2186761 0.41020963 38
6.6478419 -1.4604065 0.1492285 22
6.6746349 -1.9834547 0.11157328 25
6.6571937 -1.462461 0.028788632 40
6.6716485 -1.9825672 -0.011540111 0
6.656652 -1.462342 -0.091597706 1
6.6665769 -1.98106 -0.13450848 47
12.001951 -4.5399485 -0.32391366 0
6.6579351 -1.4626238 -0.21219884 1
6.6785731 -1.984625 -0.25827676 0
6.649334 -1.4607344 -0.33236593 46
6.6923013 -1.9887044 -0.38238391 8
11.953888 -4.5217676 -0.77497381 1
6.6464615 -1.4601033 -0.45281935 1
6.7115707 -1.9944305 -0.50741136 50
12.021311 -4.5472717 -1.0070083 1
6.6610112 -1.4632995 -0.5744766 46
6.6790733 -1.9847736 -0.62822843 0
12.051335 -4.558629 -1.2374792 2
6.6773396 -1.4668866 -0.69696468 0
6.7056174 -1.9926615 -0.75451159 77
6.9049911 -2.051908 -0.90463912 25
6.8850784 -2.0459907 -1.0291493 25
6.9046483 -2.051806 -1.1608362 0
6.9222426 -2.0570345 -1.2915322 27
6.9149389 -2.0548642 -1.418821 36
6.9133153 -2.0543816 -1.5462724 17
6.6109004 -1.9645151 -1.60096 9
6.2086568 -1.8449832 -1.6178968 6
4.6735749 -1.3888136 -1.6772679 7
1.6924562 -0.50293541 -0.8230139 5
6.2410874 -1.9021376 1.7222676 20
5.2406516 -1.5972283 1.0586908 1
8.8102045 -2.6851447 1.2885232 19
13.715211 -4.1800761 1.2448364 14
13.721875 -4.182107 0.73798376 57
6.6691618 -2.0326049 0.23530614 5
13.789327 -5.3263888 0.4110992 51
6.6881824 -1.5182906 0.15036832 1
6.6721029 -2.0335011 0.11176554 10
12.387319 -4.7848368 0.13442993 0
6.6780276 -1.5159854 0.028923791 45
6.6844287 -2.0372579 -0.011586538 36
12.077911 -4.6653223 -0.097624704 0
6.6462812 -1.5087786 -0.091597706 1
6.6678863 -2.0322161 -0.13481787 48
11.757348 -4.5414987 -0.31816015 0
6.6748543 -1.515265 -0.21307003 0
6.6913209 -2.0393584 -0.25931403 7
11.798717 -4.5574784 -0.54339135 0
6.6506629 -1.5097733 -0.3329511 44
6.7049985 -2.0435271 -0.38391519 44
11.74698 -4.5374937 -0.76359493 0
6.6672435 -1.5135373 -0.45494401 0
11.740039 -4.5348125 -0.98607457 0
6.6700683 -1.5141785 -0.57615536 66
6.6879191 -2.0383217 -0.63038361 6
11.699794 -4.5192676 -1.204592 1
6.6863394 -1.5178723 -0.69899309 1
6.6877389 -2.0382667 -0.75408262 4
6.8297558 -2.0815501 -0.89666432 33
6.8441143 -2.0859263 -1.025178 33
6.8561583 -2.089597 -1.1551083 23
6.8662825 -2.0926826 -1.2837858 58
6.8929167 -2.1008 -1.4172771 34
6.861393 -2.0911922 -1.537887 16
6.6231146 -2.0185707 -1.6072916 4
6.1733522 -1.8814937 -1.6120805 6
4.6565294 -1.4192015 -1.6746655 6
1.6889039 -0.5147385 -0.8230139 6
6.2394104 -1.9469447 1.7253302 18
5.256187 -1.6401397 1.0640032 0
8.7884197 -2.7423372 1.287969 25
13.778484 -4.2994361 1.25314 34
13.712903 -4.2789721 0.73901129 46
6.678432 -2.0839369 0.23611569 5
13.7909 -5.4323792 0.41221118 54
6.6312394 -1.5516806 0.14931618 2
12.076201 -4.7569418 0.13139312 0
6.6639318 -1.5593305 0.028906895 63
6.7165909 -2.095844 -0.011666124 35
9.4267235 -3.7132845 -0.076392762 8
6.667284 -1.5601149 -0.092027746 1
9.3942251 -3.7004831 -0.25487131 14
6.6568723 -1.5576785 -0.21282111 4
6.689095 -2.0872643 -0.25975856 49
9.4480495 -3.7216852 -0.43625829 0
6.6405034 -1.5538483 -0.3329511 71
6.7065487 -2.0927105 -0.38479021 41
9.4505711 -3.7226784 -0.61591166 17
6.6687174 -1.5604502 -0.45574075 1
6.6990314 -2.0903647 -0.50856781 0
9.3981886 -3.7020445 -0.79142171 15
6.6754031 -1.5620147 -0.57749838 50
6.6970711 -2.0897529 -0.63253874 50
9.3504696 -3.6832476 -0.96520317 17
6.6877494 -1.5649037 -0.70021015 47
6.6968517 -2.0896845 -0.75665629 0
6.7324495 -2.1007924 -0.88569903 18
6.8074503 -2.1241958 -1.0217739 32
6.8119903 -2.1256125 -1.150017 33
6.8259406 -2.1299655 -1.2788563 31
6.8675919 -2.1429625 -1.4149613 29
6.8772411 -2.1459732 -1.5445954 14
6.6021423 -2.0601315 -1.6054826 5
6.1718516 -1.9258636 -1.6149886 6
4.6397929 -1.4478003 -1.672063 7
1.6958355 -0.52916825 -0.82808381 6
6.2367182 -1.9939892 1.728393 19
8.7160759 -2.7866838 1.7682792 23
8.7992477 -2.8132753 1.2924026 21
13.793683 -4.4100847 1.2572917 34
13.758797 -4.398931 0.7431215 34
6.6941838 -2.140249 0.23719507 3
9.3415546 -3.755281 0.27999669 28
6.6280198 -1.5998133 0.14949153 10
6.6818976 -2.1363211 0.1124064 0
9.3038645 -3.7401297 0.10151079 20
6.6334414 -1.601122 0.028822422 2
6.6789365 -2.1353743 -0.01162633 66
9.2632532 -3.723804 -0.075276881 22
6.6523418 -1.605684 -0.09197399 41
6.6776962 -2.1349778 -0.13559134 0
9.2123346 -3.7033348 -0.25063187 20
6.6652675 -1.6088039 -0.2134434 43
6.6781683 -2.1351287 -0.25990674 72
9.2994747 -3.7383649 -0.4305926 16
6.6450286 -1.6039188 -0.33373129 4
6.7031889 -2.1431282 -0.38544649 40
9.2687607 -3.726018 -0.60574335 27
6.665421 -1.6088409 -0.45627192 42
6.710876 -2.1455858 -0.51059169 0
9.2204142 -3.7065828 -0.77861148 24
6.6643357 -1.6085789 -0.57749838 0
6.7012925 -2.1425219 -0.63433474 50
9.1656713 -3.684576 -0.94875956 22
6.7037401 -1.61809 -0.70304996 50
6.6972523 -2.1412301 -0.75837207 0
6.7932258 -2.1719146 -0.89566749 47
6.8641138 -2.1945786 -1.0325533 18
6.8120313 -2.177927 -1.1525627 15
7.0321841 -2.2483137 -1.320405 25
7.0206919 -2.2446394 -1.4496984 19
7.0371838 -2.2499123 -1.5840068 25
6.5801768 -2.1037991 -1.6036736 4
6.1804357 -1.9759946 -1.6208049 7
4.6367784 -1.4824601 -1.6746655 7
1.6921 -0.54099435 -0.82808381 6
6.2299962 -2.0398881 1.7304348 21
5.2999573 -1.7353655 1.0776637 5
8.7982159 -2.8808005 1.2951736 22
13.804216 -4.5199156 1.2610976 35
13.773308 -4.5097952 0.74558759 28
6.6866775 -2.1894193 0.23746492 3
9.1671343 -3.7597163 0.27554879 20
6.6632586 -1.6576316 0.15054367 43
6.6896257 -2.1903846 0.11279091 29
9.1295013 -3.7442822 0.099891156 20
6.6492739 -1.6541526 0.028940685 0
9.0890017 -3.7276721 -0.074070521 21
6.6797838 -1.6617427 -0.092511535 40
6.681632 -2.1877673 -0.13597809 0
9.0345697 -3.7053478 -0.24649335 21
6.665513 -1.6581925 -0.21381678 43
6.704886 -2.1953814 -0.26153672 19
9.1215553 -3.7410231 -0.42355338 25
6.6646857 -1.6579868 -0.33529168 0
6.7070417 -2.1960871 -0.38654026 11
9.0910664 -3.7285187 -0.59581709 22
6.6578999 -1.6562985 -0.45653749 52
6.7108989 -2.1973503 -0.51174819 30
9.046731 -3.7103355 -0.7661137 21
6.6838875 -1.6627635 -0.5801844 1
6.6937432 -2.1917329 -0.6350531 22
8.9960527 -3.6895506 -0.93384558 23
6.6922803 -1.6648514 -0.70304996 79
6.7237148 -2.2015464 -0.76309043 32
6.8646483 -2.2476923 -0.90713125 32
6.9351735 -2.2707844 -1.0456021 34
6.9692979 -2.2819576 -1.1818382 32
6.96767 -2.2814248 -1.3112502 32
6.9600906 -2.2789431 -1.4404353 31
6.995286 -2.290467 -1.578137 21
6.5986552 -2.1605983 -1.611814 5
6.1664896 -2.0190942 -1.6208049 6
4.6191263 -1.5124409 -1.672063 6
1.6917273 -0.55392241 -0.82977378 7
6.2156038 -2.0833311 1.7304348 21
5.2914371 -1.7735711 1.0784227 1
8.7816467 -2.9434114 1.2957278 27
13.806332 -4.6275735 1.2642113 35
13.794515 -4.6236124 0.7484647 30
6.6788101 -2.2385876 0.23773476 1
8.982048 -3.7572722 0.27076727 20
6.6592722 -1.7060947 0.15071903 43
6.7158847 -2.2510142 0.11349586 27
8.9666109 -3.7508144 0.098392993 24
6.6646876 -1.7074821 0.029058948 0
6.7167373 -2.2512999 -0.011745711 0
8.9336052 -3.7370079 -0.073014952 25
6.6796432 -1.7113137 -0.092672795 45
6.7003231 -2.2457983 -0.13667423 38
8.8793688 -3.7143202 -0.2429605 22
6.677012 -1.7106396 -0.2145635 41
8.9661798 -3.7506344 -0.41754434 25
6.6606894 -1.7064577 -0.3356818 0
6.7142687 -2.2504725 -0.38785279 14
8.9174795 -3.7302625 -0.58613294 23
6.6539068 -1.7047201 -0.45706865 84
6.7294397 -2.2555575 -0.5143503 49
8.8881683 -3.7180014 -0.75486571 5
6.6875606 -1.7133422 -0.58152741 6
8.8084526 -3.6846557 -0.91701949 19
6.707478 -1.7184451 -0.70588976 6
6.7383475 -2.2585433 -0.76652199 55
6.8864198 -2.3081737 -0.91211545 27
6.9304147 -2.3229198 -1.047304 35
6.9494529 -2.3293009 -1.1812017 34
6.9366393 -2.3250062 -1.3084333 33
6.932847 -2.323735 -1.4381194 29
6.9420414 -2.3268168 -1.5697516 20
6.5464673 -2.1942291 -1.602769 7
6.1522436 -2.0620942 -1.6208049 7
4.612041 -1.5458529 -1.6733643 6
1.6912565 -0.56687135 -0.83146369 7
6.1891913 -2.1250699 1.7273721 19
8.7253428 -2.995862 1.7826986 26
8.7823153 -3.0154233 1.2990531 19
13.798423 -4.7377129 1.2666332 35
13.782921 -4.7323904 0.7496978 43
6.7075939 -2.3030643 0.23935385 0
8.8108492 -3.7617817 0.26643053 22
6.6543202 -1.7569045 0.15089439 35
6.7143345 -2.3053787 0.11375219 29
8.806447 -3.7599022 0.096935317 39
6.6751971 -1.7624165 0.029160317 33
6.7114038 -2.3043725 -0.011765608 0
8.802969 -3.7584174 -0.072170503 47
6.6785212 -1.7632941 -0.092834063 0
6.6988111 -2.3000486 -0.13698362 50
8.8040934 -3.7588975 -0.24164829 45
6.6642933 -1.7595377 -0.2145635 0
6.6954646 -2.2988997 -0.26242578 0
8.8024578 -3.7581992 -0.41119188 48
6.6711783 -1.7613555 -0.3368521 33
6.7051468 -2.3022242 -0.38829029 23
8.8017673 -3.7579043 -0.58032244 16
6.6682444 -1.7605809 -0.45892775 2
6.7391381 -2.313895 -0.51637417 50
8.7909927 -3.753304 -0.74892926 2
6.6825299 -1.7643526 -0.58219892 46
6.6918349 -2.2976534 -0.63792664 0
8.7958546 -3.7553797 -0.91854918 10
6.6908541 -1.7665504 -0.70548403 0
6.7253723 -2.3091686 -0.76695096 77
6.9068527 -2.3714802 -0.91709971 34
6.9057112 -2.3710883 -1.0461694 14
6.9247212 -2.3776155 -1.1799289 34
8.2898855 -2.8463469 -1.5675849 2
7.591228 -2.6064615 -1.5786121 4
6.9210997 -2.3763719 -1.5689131 22
6.5338922 -2.2434235 -1.6036736 9
6.1479735 -2.1109176 -1.623713 6
4.6041636 -1.5808477 -1.6746655 6
1.6836268 -0.57807624 -0.82977378 8
6.1705556 -2.1669445 1.7263511 20
8.7338591 -3.0671124 1.78877 32
8.7872133 -3.085849 1.3029325 23
13.802611 -4.8471313 1.270093 34
13.783469 -4.8404088 0.75154734 43
6.6649494 -2.3405633 0.23840939 0
8.755043 -3.8104351 0.26554096 46
6.6225958 -1.7980784 0.150456 1
8.7763166 -3.8196938 0.09689483 46
6.6665902 -1.8100232 0.029177211 47
6.7102499 -2.3564715 -0.011792137 34
8.7948542 -3.8277624 -0.072321296 45
6.6583281 -1.80778 -0.092726551 0
6.6976838 -2.3520589 -0.13729301 31
8.7886372 -3.8250563 -0.24195109 40
6.6634226 -1.8091631 -0.21493688 0
6.709424 -2.3561816 -0.26361123 28
8.7869997 -3.8243434 -0.41170695 55
6.6702862 -1.8110267 -0.33743724 47
6.7077532 -2.3555949 -0.38938406 38
8.7972851 -3.82882 -0.58177507 48
6.6442356 -1.8039538 -0.45813099 0
8.793828 -3.8273156 -0.75142884 43
6.6777425 -1.8130511 -0.58287048 46
6.7207375 -2.3601546 -0.64223695 32
8.8095827 -3.8341725 -0.92275566 53
6.6860394 -1.8153037 -0.70629543 0
8.7362337 -3.0679464 -1.1628226 15
8.6934271 -3.0529137 -1.3201932 7
9.1025534 -3.1965885 -1.5547823 3
8.2809582 -2.9080648 -1.5696975 3
7.5950656 -2.6671968 -1.5832437 4
6.9818354 -2.4518456 -1.5865225 5
6.5143948 -2.2876923 -1.602769 8
6.1257639 -2.1512148 -1.6217743 7
4.5930152 -1.6129519 -1.6746655 6
1.6898122 -0.59341967 -0.83484364 7
6.1334372 -2.2021291 1.7202258 19
8.7196274 -3.1306663 1.7902879 32
8.7878256 -3.1551521 1.3062577 21
13.790937 -4.9514527 1.2721689 30
13.779418 -4.9473171 0.75319141 41
6.7011223 -2.4059489 0.2402983 18
8.7574673 -3.8844335 0.26643053 40
6.6445489 -1.8539411 0.1512451 0
6.711606 -2.4097128 0.11426488 0
8.782342 -3.895467 0.097259246 47
6.6692033 -1.8608201 0.02924479 62
6.7086935 -2.4086671 -0.011818666 52
8.789855 -3.8987994 -0.072502248 44
6.6686602 -1.8606685 -0.093049079 0
8.7946167 -3.9009113 -0.24285956 43
6.6852884 -1.8653082 -0.21605699 7
6.7116218 -2.4097185 -0.26435211 47
8.7856579 -3.8969374 -0.41290876 51
6.6651769 -1.8596966 -0.33782735 68
6.7212172 -2.4131637 -0.39113411 28
8.7958879 -3.9014752 -0.58346981 45
6.666079 -1.8599484 -0.46052125 0
6.7362132 -2.4185476 -0.51868713 0
8.8033466 -3.9047835 -0.75455326 49
6.6764402 -1.8628393 -0.58387774 45
6.7228436 -2.4137475 -0.64403296 48
8.8044386 -3.9052677 -0.92505014 42
6.6923676 -1.8672833 -0.70832384 32
6.6999612 -2.4055321 -0.76780885 0
8.8976355 -3.1945777 -1.1872454 6
8.8433275 -3.1750791 -1.3462906 0
9.0725803 -3.2573895 -1.5535094 3
8.2530422 -2.963145 -1.568289 4
7.5688715 -2.7175028 -1.5816998 4
7.0197639 -2.5203528 -1.5991006 5
6.4982648 -2.3331156 -1.602769 7
6.1105962 -2.1939282 -1.6217743 7
4.5887623 -1.647534 -1.6772679 7
1.6651549 -0.59785175 -0.82470387 8
6.1041722 -2.2374344 1.7161422 18
8.7207966 -3.1965365 1.7948413 28
8.7927427 -3.222908 1.3101372 21
13.783987 -5.0524077 1.2745907 25
13.795063 -5.0564675 0.75586307 28
13.820458 -5.0657763 0.4967874 29
8.7606668 -3.9555926 0.26732013 44
6.6628642 -1.9067711 0.15194653 23
6.7217627 -2.4638071 0.11471348 0
8.7745409 -3.9618568 0.0974617 43
6.6413321 -1.900609 0.029177211 1
6.7151051 -2.4613669 -0.01185846 55
8.7929697 -3.9701777 -0.07274352 41
6.6792445 -1.9114587 -0.093371607 34
6.7063489 -2.4581573 -0.13814384 0
8.8049965 -3.9756079 -0.24386895 41
6.6843014 -1.9129058 -0.21643037 46
6.6992455 -2.4555538 -0.26450029 78
8.7851152 -3.9666314 -0.41411057 49
6.6411734 -1.9005636 -0.33724219 1
6.7275648 -2.465934 -0.39244664 28
8.7989311 -3.9728694 -0.5854066 46
6.6727824 -1.9096094 -0.46184915 38
6.7275162 -2.4659162 -0.51926541 19
8.8063326 -3.9762111 -0.75705284 42
6.6792665 -1.911465 -0.58522075 1
6.7179093 -2.4623947 -0.64511049 48
8.8037472 -3.975044 -0.92772698 45
6.6951394 -1.9160075 -0.70994657 50
6.7212005 -2.4636011 -0.7720983 1
8.9470539 -3.2794695 -1.1967155 1
10.063783 -3.6887975 -1.5357811 3
9.0507774 -3.3174884 -1.5535094 2
8.2295113 -3.0164602 -1.5675849 4
7.5654225 -2.7730439 -1.5847875 4
7.0175824 -2.5722375 -1.6024548 5
6.4936233 -2.3801847 -1.6054826 9
6.1031985 -2.2370777 -1.623713 7
4.5848374 -1.6805347 -1.6798704 6
1.6679612 -0.61137754 -0.82808381 8
6.0775375 -2.2759261 1.7130795 18
5.7044458 -2.13621 1.1770819 12
8.7922878 -3.2925501 1.3134624 22
13.785698 -5.1624904 1.2780505 24
13.77439 -5.1582556 0.75668508 33
13.825938 -5.1775594 0.49827155 30
8.7510014 -4.0250101 0.26787612 41
6.6724119 -1.9600017 0.1524726 40
12.745849 -4.7730856 0.21808378 0
8.7757397 -4.0363884 0.097785629 47
6.6662803 -1.9582006 0.029346159 0
6.8363581 -2.5600903 -0.012103853 7
8.7868423 -4.0414948 -0.07292448 41
6.6964378 -1.9670593 -0.09380164 42
6.6965151 -2.5077217 -0.13829853 10
8.7988243 -4.0470061 -0.24447457 42
6.6899643 -1.9651576 -0.21705265 41
8.7862558 -4.041225 -0.41548407 48
6.6584096 -1.9558886 -0.33880261 0
12.062625 -4.517231 -0.70548517 1
8.7963734 -4.0458789 -0.58710134 44
6.6784353 -1.9617711 -0.46317708 59
12.064049 -4.5177646 -0.93357903 1
8.8037195 -4.0492573 -0.75923991 47
6.6963539 -1.9670347 -0.58790678 0
12.143823 -4.5476384 -1.169173 1
8.819191 -4.0563736 -0.93231595 41
6.6892362 -1.9649438 -0.71075791 70
12.189811 -4.5648599 -1.403932 1
11.2655 -4.2187223 -1.5107224 4
10.06745 -3.7700748 -1.5403199 4
9.0495863 -3.3889034 -1.557328 1
8.2230015 -3.0793629 -1.5704017 4
7.5569053 -2.829922 -1.5871034 4
6.973815 -2.6115656 -1.5965849 5
6.4877954 -2.4295599 -1.608196 10
6.080164 -2.2769096 -1.6217743 7
4.5729933 -1.7125019 -1.6798704 7
1.6534667 -0.6191929 -0.8230139 8
6.0506639 -2.3141544 1.7100167 20
8.7009935 -3.3278069 1.8001537 25
8.7801886 -3.3580961 1.315125 20
13.753044 -5.2600288 1.2783965 23
13.79028 -5.2742701 0.75956225 29
13.830529 -5.2896643 0.49975571 28
8.7552767 -4.1012707 0.26887688 43
6.673882 -2.0111516 0.15282331 42
12.491817 -4.7776561 0.21430273 0
8.7727013 -4.1094332 0.098069064 45
6.675426 -2.0116169 0.029447528 0
8.7910118 -4.1180105 -0.073195904 41
6.7016897 -2.0195312 -0.09407042 45
8.7993259 -4.1219053 -0.2452821 42
6.6837378 -2.0141215 -0.21730156 23
11.861348 -4.5365252 -0.4707661 0
8.7867794 -4.1160278 -0.41685757 50
6.6751957 -2.0115473 -0.340363 0
11.806966 -4.5157261 -0.69235986 0
8.7968378 -4.1207395 -0.58903819 49
6.6760411 -2.0118022 -0.46397382 71
11.760197 -4.4978385 -0.91247302 0
8.8041248 -4.1241531 -0.76173949 43
6.7129893 -2.0229363 -0.5905928 25
12.011312 -4.5938811 -1.1594748 2
8.8122911 -4.1279783 -0.93461037 45
6.6867862 -2.0150402 -0.71197498 0
12.161361 -4.651269 -1.404361 1
11.258016 -4.3057733 -1.513713 5
10.02979 -3.8360224 -1.5386178 3
9.0404615 -3.4576409 -1.5598736 2
8.1902714 -3.1324747 -1.568289 3
7.5406313 -2.8840115 -1.5878752 4
6.970026 -2.665776 -1.5999391 5
6.4852333 -2.480361 -1.611814 8
6.0713696 -2.3220735 -1.623713 7
4.557394 -1.743034 -1.6785691 7
1.6592625 -0.6346063 -0.82808381 7
6.0451684 -2.3605597 1.7130795 19
5.3704224 -2.0970802 1.1140918 1
8.7934313 -3.4337208 1.3206669 23
13.715987 -5.3559151 1.2783965 19
13.768007 -5.3762279 0.76038426 33
13.823055 -5.3977237 0.50083512 30
8.7625198 -4.1795077 0.26998886 44
6.674962 -2.0624163 0.15317403 9
12.268156 -4.7905555 0.21103436 0
8.7871199 -4.1912417 0.098554954 45
6.7070799 -2.0723403 0.029650263 47
9.4528589 -3.6912186 -0.016826013 1
8.798151 -4.1965032 -0.073497497 43
11.917257 -4.6535344 -0.24743681 0
8.7955999 -4.1952858 -0.24598867 42
6.8299489 -2.1103039 -0.22252874 0
11.643216 -4.5465245 -0.46335712 0
8.7830791 -4.1893139 -0.41805938 49
6.6915274 -2.0675347 -0.34192342 49
9.4536066 -3.6915107 -0.5558567 0
8.7930813 -4.1940851 -0.59073293 45
6.7037797 -2.0713205 -0.46689525 0
9.4578753 -3.6931775 -0.73581874 15
8.8147116 -4.204402 -0.76517636 43
6.6948948 -2.0685751 -0.59025705 40
11.845354 -4.6254573 -1.1465439 2
8.8084135 -4.2013984 -0.93728727 45
6.7029715 -2.0710707 -0.71522045 0
9.4798613 -3.7017629 -1.0976664 1
9.4642286 -3.6956584 -1.2759649 18
9.412631 -3.6755104 -1.4478439 17
9.0124235 -3.5192344 -1.5592372 2
8.1828737 -3.1953061 -1.571106 4
7.5166569 -2.9351568 -1.5871034 4
6.9621744 -2.7186389 -1.6024548 4
6.445982 -2.5170722 -1.606387 9
6.0694699 -2.3700492 -1.6275905 7
4.545114 -1.7748082 -1.6785691 7
1.6716774 -0.65276831 -0.83653361 7
6.0277023 -2.4048097 1.7130795 20
5.2783027 -2.1058297 1.0981545 5
8.7459469 -3.4892797 1.3173417 33
9.3310137 -3.7226977 0.87221587 19
9.3945589 -3.7480497 0.52034944 10
9.3942041 -3.7479079 0.34135583 19
8.7568216 -4.2558627 0.27076727 43
9.3463402 -3.7288122 0.16123973 13
8.7777452 -4.2660317 0.098797902 44
6.6955218 -2.1226587 0.02966716 45
9.3252354 -3.7203922 -0.016646942 16
8.7959337 -4.2748713 -0.073738769 44
6.691165 -2.1212773 -0.094339192 0
9.4015093 -3.7508223 -0.19576822 14
8.7933817 -4.2736311 -0.24679618 38
6.6809068 -2.1180253 -0.21817276 0
9.3633995 -3.7356181 -0.37370855 12
8.784483 -4.2693062 -0.41960457 49
6.6723833 -2.1153231 -0.34172836 59
9.3187113 -3.7177894 -0.5495128 17
8.7908297 -4.2723908 -0.59266973 19
6.6808071 -2.1179936 -0.46636409 1
9.2897396 -3.7062309 -0.72483206 29
8.7836552 -4.2689037 -0.76517636 10
6.687151 -2.1200047 -0.59092855 62
9.3652782 -3.7363679 -0.90911734 21
8.7988672 -4.2762971 -0.93958169 4
6.6989899 -2.1237581 -0.71643752 0
9.3231878 -3.7195754 -1.0826534 23
9.2857466 -3.7046378 -1.2555294 17
9.249362 -3.6901219 -1.4268525 21
9.0010548 -3.5910573 -1.561783 6
8.1702023 -3.2595809 -1.5732186 4
7.4985847 -2.9916325 -1.5878752 4
6.9565897 -2.7753983 -1.605809 5
6.4490714 -2.5729191 -1.611814 10
6.0447245 -2.4116011 -1.6256518 6
4.5249557 -1.8052745 -1.6759666 6
1.6803168 -0.67037851 -0.84329349 6
6.003603 -2.4439154 1.7110376 20
5.1907229 -2.1130123 1.0829761 5
8.761735 -3.5666814 1.3234379 20
9.1497793 -3.7246442 0.85768467 20
9.2571669 -3.7683592 0.51418418 18
9.2048912 -3.7470789 0.33541921 18
8.7555685 -4.3310761 0.27165684 36
6.6675844 -2.1651425 0.1537001 0
9.1719074 -3.7336521 0.1586763 16
8.7728453 -4.339622 0.099081337 7
6.6995625 -2.1755266 0.029751632 53
9.1212044 -3.7130122 -0.016328594 15
6.7028217 -2.176585 -0.094715469 4
9.2380428 -3.7605741 -0.19290635 22
6.7077861 -2.1781971 -0.21954179 30
9.1964064 -3.7436249 -0.36807773 24
8.7938652 -4.3500204 -0.42149314 6
6.6802526 -2.1692562 -0.34289867 66
9.1482592 -3.7240255 -0.54098135 25
8.7786827 -4.3425097 -0.59388024 14
6.692431 -2.1732109 -0.46822315 3
9.1084442 -3.707818 -0.71268886 24
9.2254553 -4.5635128 -0.80641901 0
6.6835608 -2.1703305 -0.59193581 7
9.1913729 -3.7415757 -0.89474958 25
9.2184792 -4.5600624 -0.98776537 2
6.7142792 -2.1803055 -0.71968299 32
9.1496563 -3.7245941 -1.0654956 27
9.1089449 -3.7080214 -1.2350941 20
9.0693464 -3.6919022 -1.4030243 22
8.9940548 -3.6612527 -1.564965 6
8.1581879 -3.3209925 -1.5753312 4
7.4956927 -3.0513072 -1.591735 4
6.9370446 -2.8238957 -1.605809 4
6.4309525 -2.6178784 -1.611814 8
6.042119 -2.4595942 -1.6295294 6
4.5227523 -1.8410983 -1.6798704 7
1.705817 -0.69439507 -0.85850322 3
5.9863949 -2.4857688 1.7110376 20
5.1069307 -2.1205833 1.0685567 5
8.776866 -3.6444736 1.3295342 24
8.9800205 -3.7288308 0.84419149 17
9.0756836 -3.7685535 0.50555277 16
9.0308247 -3.7499268 0.33002228 17
13.807331 -6.9504027 0.42989168 34
6.6902547 -2.2242546 0.15457688 29
8.9904823 -3.7331753 0.1559847 16
10.503665 -5.2873869 0.11904337 1
8.9583759 -3.7198434 -0.016083201 17
10.221657 -5.1454282 -0.086284913 0
6.7026439 -2.2283735 -0.094930485 33
9.0564375 -3.7605619 -0.18965772 24
11.622378 -5.8505306 -0.32845592 0
6.7113857 -2.2312799 -0.22016406 41
9.0297651 -3.7494864 -0.3624469 27
6.6270332 -2.2032359 -0.34094816 0
8.9781799 -3.7280667 -0.5324499 25
6.692245 -2.2249165 -0.46928549 47
8.9275875 -3.7070589 -0.70054567 26
9.1150084 -4.5883584 -0.79954529 0
6.713634 -2.2320273 -0.59596491 0
9.0141783 -3.7430146 -0.8800227 24
9.0583878 -4.5598559 -0.97399861 1
6.7215505 -2.2346594 -0.72211707 47
8.9765158 -3.7273755 -1.0483379 26
8.9105625 -3.6999893 -1.2116681 16
8.8641663 -3.6807241 -1.3752248 1
8.9536867 -3.717896 -1.5624193 9
8.127532 -3.3748467 -1.5739228 4
7.4850817 -3.108078 -1.5940508 4
6.9388337 -2.8812559 -1.6108402 5
6.4125199 -2.6627111 -1.611814 7
6.0391374 -2.5076692 -1.6334069 8
4.5132818 -1.8740788 -1.6811715 7
1.7812865 -0.7396549 -0.8990624 1
5.9590912 -2.5208962 1.7079749 15
5.0529666 -2.1375751 1.0602086 1
8.7488527 -3.7010593 1.32898 25
8.8009472 -3.7230973 0.8296603 25
8.8996487 -3.7648511 0.49712691 16
8.8584824 -3.7474365 0.32462534 17
13.800084 -7.0618601 0.43111485 48
6.6980734 -2.2762971 0.15510295 41
8.8218708 -3.7319486 0.15348536 14
10.486169 -5.366044 0.11924583 0
6.692049 -2.2742498 0.029853001 0
8.8340425 -3.7370975 -0.01590413 32
12.106549 -6.1952348 -0.10254062 0
6.7104392 -2.2804995 -0.095253013 43
8.8766022 -3.7551017 -0.1864091 25
10.073999 -5.1551261 -0.28565773 0
6.7153664 -2.2821741 -0.22078635 41
8.8500795 -3.7438817 -0.35622337 26
9.3848686 -4.8024802 -0.45291197 0
6.6879306 -2.27285 -0.34484917 0
8.7950859 -3.7206175 -0.52304345 35
9.1132832 -4.6635032 -0.62075377 1
6.7000155 -2.276957 -0.47087899 70
8.7962503 -3.7211101 -0.69216108 19
9.0169277 -4.6141953 -0.79360884 1
6.6986828 -2.2765043 -0.59596491 0
8.8020344 -3.723557 -0.86170387 4
8.9889555 -4.5998812 -0.96979213 0
6.7141175 -2.2817497 -0.72292846 79
8.8124161 -3.7279487 -1.032038 33
8.8127232 -3.7280788 -1.2016996 20
8.7994461 -3.7224622 -1.3689841 1
8.8451805 -3.7418094 -1.5477816 21
8.1339817 -3.440948 -1.5795565 4
7.4643035 -3.1576519 -1.5940508 4
6.9015613 -2.9195931 -1.6066475 5
6.3983073 -2.7066994 -1.6127185 7
6.0009279 -2.5385947 -1.6275905 6
4.5007534 -1.9039702 -1.6811715 6
3.3857338 -1.4322795 -1.7136265 8
5.9369011 -2.5629778 1.706954 18
8.4878159 -3.6642153 1.7864932 22
8.6923914 -3.7525315 1.3245463 23
8.755126 -3.7796142 0.82793039 35
8.7764549 -3.7888219 0.49178365 30
8.7647085 -3.7837508 0.32219672 35
13.797593 -7.1886954 0.43267164 51
6.7076454 -2.3345366 0.1557167 39
8.7906055 -3.7949305 0.15342127 25
10.499761 -5.470489 0.11985319 0
6.712975 -2.3363917 0.030021949 1
8.8100843 -3.8033395 -0.015910763 33
10.14527 -5.2857957 -0.086254753 0
6.6897645 -2.3283134 -0.095199265 9
8.7643881 -3.7836125 -0.18463008 49
10.007569 -5.2140522 -0.28485024 0
6.6569219 -2.3168828 -0.21941733 0
8.8003778 -3.7991495 -0.35533431 53
9.3139715 -4.8526802 -0.45119509 0
