# .PCD v0.7 - Point Cloud Data file format
VERSION 0.7
FIELDS x y z intensity
SIZE 4 4 4 4
TYPE F F F F
COUNT 1 1 1 1
WIDTH 1418
HEIGHT 1
VIEWPOINT 0 0 0 1 0 0 0
POINTS 1418
DATA ascii
2.3533597 3.5758433 -0.68988293 50
2.3551507 3.5785646 -0.76618701 34
2.3561764 3.5801232 -0.84295565 33
2.1114423 3.2082591 -0.82344878 13
1.2381049 1.8812549 -0.52279937 4
1.2352709 1.8769486 -0.56127155 21
1.1270362 1.7124901 -0.70525926 53
1.1360714 1.7262187 -0.96328115 16
2.3549554 3.5244398 1.1189125 17
2.376107 3.5560951 0.82646179 26
2.3835182 3.5671868 0.60020238 26
2.3910689 3.5784872 0.37365851 32
2.3769197 3.5573115 0.22010042 28
2.3920348 3.5799329 0.14531234 30
8.6570406 11.112454 0.39175075 46
2.0260277 3.5679035 0.08995796 31
2.3886454 3.5748603 0.068892173 24
8.6599445 11.116181 0.14264959 23
2.0245214 3.5652504 0.017317105 36
2.3956156 3.5852919 -0.0071495632 29
8.6453934 11.097503 -0.10606922 20
2.0283065 3.5719163 -0.055205896 28
2.3773959 3.5580244 -0.082762547 38
8.6305981 11.078511 -0.35449824 25
2.0393531 3.5913696 -0.12856387 38
2.3917537 3.5795121 -0.15958926 41
8.6867905 11.150642 -0.60725915 20
2.0181854 3.5540926 -0.19953659 34
2.3898146 3.5766103 -0.23559923 39
8.673955 11.134166 -0.85583639 28
2.0318971 3.5782394 -0.27381626 37
2.3982186 3.5891876 -0.31283137 42
8.6535339 11.107952 -1.1032412 33
2.0331402 3.5804288 -0.34683478 33
2.388154 3.5741248 -0.38756919 42
8.6329546 11.081536 -1.349143 20
2.031785 3.578042 -0.41947702 42
2.3928523 3.5811563 -0.46454579 44
2.390178 3.5771539 -0.54029137 36
2.3867989 3.5720968 -0.61556059 35
2.3892362 3.5757444 -0.69306505 47
2.3932016 3.5816793 -0.77041233 44
2.3941956 3.5831668 -0.84758729 36
2.2054944 3.3007555 -0.85112065 12
1.3291383 1.9891959 -0.55536127 1
1.2483442 1.8682791 -0.56127155 20
1.1410656 1.7077253 -0.70656049 103
1.1642085 1.7423612 -0.97680086 15
2.3773317 3.5047128 1.1178916 17
2.4096935 3.5524211 0.82949752 29
2.421706 3.5701303 0.60352761 32
2.4383628 3.594686 0.37711832 30
2.410666 3.5538547 0.22092246 33
2.432678 3.5863051 0.1462568 26
8.667469 10.967047 0.38874841 32
2.0628803 3.5744538 0.090484031 34
2.4247699 3.5746469 0.069212601 27
8.6554956 10.951896 0.14131339 32
2.0573595 3.5648875 0.017384684 42
2.436305 3.5916522 -0.0071959891 29
8.645772 10.939593 -0.10513429 30
2.06319 3.5749903 -0.055474669 31
2.4111574 3.5545793 -0.08307194 39
8.6358261 10.927008 -0.35157099 30
2.0743675 3.5943584 -0.12918615 38
2.4301484 3.582576 -0.16047834 45
8.6826525 10.986259 -0.60159349 34
2.0549304 3.5606787 -0.2007069 38
2.425936 3.5763659 -0.23669301 41
8.6722536 10.9731 -0.8480891 46
2.0687978 3.5847077 -0.27540976 42
2.4433732 3.6020725 -0.31543347 40
8.6566916 10.953409 -1.0938679 33
2.0740254 3.5937655 -0.34952083 37
2.421993 3.5705533 -0.38900596 45
8.6459169 10.939776 -1.3392003 21
2.0686493 3.58445 -0.42191112 43
2.4334221 3.5874023 -0.4675484 47
2.4284604 3.5800877 -0.54328191 36
2.4361286 3.5913923 -0.62180132 36
2.425225 3.5753179 -0.69624716 49
2.4291997 3.5811775 -0.77393341 44
2.4345748 3.5891018 -0.85299087 41
2.423888 3.5733469 -0.92575097 6
1.4107988 2.0798295 -0.58340073 0
1.2700707 1.872365 -0.56514907 19
1.1423432 1.6840664 -0.70005441 31
1.1743087 1.7311907 -0.97511089 16
2.412708 3.5039575 1.1229961 20
2.4411173 3.5452158 0.83177423 29
2.453311 3.5629249 0.60519022 29
2.456619 3.5677292 0.37608036 28
2.4490106 3.5566795 0.22215551 31
2.4667244 3.5824049 0.14679649 27
8.6637869 10.806441 0.38519007 29
2.0958765 3.5737636 0.090834737 37
2.4632757 3.5773964 0.069597118 26
8.6591864 10.800703 0.14013916 33
2.0963612 3.5745904 0.017502949 42
2.4726624 3.5910287 -0.0072291503 27
8.6493759 10.788466 -0.10425968 34
2.0961907 3.5742996 -0.055689685 33
2.4472549 3.5541294 -0.083458677 39
8.6318598 10.766618 -0.34834096 28
2.1054778 3.5901353 -0.12955952 36
2.4641678 3.578692 -0.16107105 45
8.6791468 10.8256 -0.59609944 36
2.089844 3.5634773 -0.20168215 40
2.4712305 3.5889492 -0.23866181 40
8.6837139 10.831296 -0.84179437 36
2.0998304 3.5805056 -0.27620652 46
2.472986 3.5914984 -0.31601173 40
8.663105 10.805591 -1.0851195 31
2.1051128 3.5895131 -0.35052809 34
2.4581575 3.5699635 -0.39080191 45
8.6373997 10.773528 -1.3261983 21
2.1016753 3.5836513 -0.42353383 44
2.4674292 3.5834284 -0.46926418 47
2.4623981 3.576122 -0.54527557 39
2.4768605 3.5971255 -0.62577271 35
2.4613242 3.5745623 -0.69942927 44
2.465307 3.5803466 -0.7774545 44
2.4707012 3.5881805 -0.85685056 40
2.4753926 3.5949938 -0.93581343 31
1.8362964 2.6668394 -0.75163716 0
1.2985173 1.8858268 -0.57193476 16
1.1690881 1.6978576 -0.70916289 20
1.1966466 1.7378806 -0.98356074 15
2.4371114 3.4870284 1.1229961 20
2.4860561 3.5570588 0.83860451 28
2.4803944 3.5489578 0.60574442 28
2.502012 3.5798886 0.3791942 27
2.4898002 3.5624156 0.22359407 30
2.4985442 3.5749269 0.14720127 25
8.6658573 10.655732 0.38196531 37
2.1248689 3.5659156 0.091010094 38
2.5019372 3.5797815 0.069981635 23
8.6763344 10.668615 0.13920787 46
2.1233132 3.5633047 0.017519843 38
2.511421 3.5933506 -0.0072689438 27
8.6815796 10.675066 -0.10374698 41
2.1292827 3.5733225 -0.055904705 30
2.4926264 3.5664597 -0.084154814 42
8.6714926 10.662663 -0.34692779 4
2.1345835 3.5822182 -0.12980844 35
2.4936714 3.5679545 -0.16136742 42
8.6662617 10.65623 -0.59009039 7
2.1167159 3.5522332 -0.20187719 38
2.4985137 3.574883 -0.23888056 39
8.6759853 10.668187 -0.83380497 24
2.1288621 3.5726166 -0.27673769 41
2.5071406 3.5872266 -0.31716824 38
8.667881 10.658221 -1.0763711 27
2.1342018 3.5815775 -0.3511996 36
2.4967136 3.5723073 -0.39295706 46
8.6822557 10.675897 -1.3216095 25
2.1347904 3.5825655 -0.42515656 42
2.5014989 3.5791543 -0.47097996 46
2.5054924 3.5848682 -0.549263 36
2.5019126 3.5797462 -0.62577271 32
2.4975307 3.5734763 -0.70261139 40
2.497009 3.5727303 -0.77956712 42
2.5046847 3.5837126 -0.85993832 39
2.5071514 3.5872419 -0.9383291 36
1.8370129 2.6284051 -0.74440122 0
1.3116512 1.8767155 -0.57193476 10
1.1744124 1.6803538 -0.70525926 16
1.2149807 1.738399 -0.98863065 14
2.4815345 3.4983196 1.1321841 18
2.5131004 3.5428195 0.8393634 25
2.5303216 3.5670969 0.61184067 28
2.5384712 3.5785856 0.38092411 27
2.5238543 3.5579798 0.22441611 27
2.5373185 3.5769608 0.14801081 30
8.7603912 10.61965 0.38285491 32
2.1559246 3.5612574 0.091273129 30
2.5314956 3.5687518 0.070109807 22
8.7786007 10.641723 0.13965327 39
2.1626377 3.5723464 0.017638106 39
2.5364456 3.5757303 -0.0072689438 27
8.7915277 10.657393 -0.1041692 32
2.1686759 3.5823202 -0.056280985 26
2.5336609 3.5718045 -0.084696248 37
8.8017006 10.669725 -0.34914845 30
2.1616104 3.5706491 -0.1299329 32
2.5370207 3.5765407 -0.16255285 41
8.7709599 10.632461 -0.59215063 28
2.1497395 3.5510404 -0.2026574 36
2.5418963 3.5834143 -0.24063061 36
8.7883625 10.653557 -0.83743656 36
2.1640859 3.5747385 -0.27806559 41
2.5459721 3.5891602 -0.31890297 35
8.7953672 10.662048 -1.0829324 35
2.1674101 3.5802298 -0.35254261 33
2.5308115 3.5677876 -0.39439383 44
8.8021812 10.670309 -1.3284929 24
2.1679924 3.5811911 -0.4267793 37
2.5402305 3.5810659 -0.4735536 44
2.5327547 3.5705268 -0.54976141 36
2.5428791 3.5847995 -0.62974405 31
2.5406954 3.5817213 -0.70770276 38
2.5332811 3.5712688 -0.78308821 40
2.5387256 3.5789444 -0.86302602 35
2.5502365 3.5951717 -0.94503742 29
1.8688437 2.6345847 -0.74982816 1
1.3359474 1.8833392 -0.57678163 4
1.2014335 1.6937095 -0.71436781 15
1.2270873 1.7298746 -0.98863065 15
2.510416 3.4871879 1.134226 17
2.5630128 3.5602493 0.8477115 16
2.5574772 3.5525599 0.61239487 14
2.5750339 3.5769475 0.38265401 9
2.555634 3.5499995 0.22503264 26
2.5785782 3.5818713 0.14895527 29
8.8856335 10.619563 0.38507885 36
2.1912086 3.5631518 0.091711521 29
2.568032 3.5672214 0.070430234 21
8.9065809 10.644598 0.14050357 31
2.1938109 3.5673835 0.01768879 34
2.5800431 3.5839059 -0.0073220017 24
8.9247513 10.666314 -0.10486286 32
2.202013 3.5807211 -0.056496006 26
2.5678811 3.5670121 -0.085005641 34
8.9298611 10.672421 -0.35126817 31
2.1990514 3.5759051 -0.13067964 32
2.5782754 3.5814505 -0.1635901 38
8.8911352 10.626139 -0.59524101 40
2.1828492 3.5495586 -0.2034376 33
2.5715184 3.5720644 -0.24106811 35
8.9214535 10.662373 -0.84300494 34
2.1973524 3.5731423 -0.27912793 40
2.5849526 3.5907254 -0.3206377 35
8.9284449 10.670729 -1.0901185 33
2.2027919 3.5819876 -0.3542214 33
2.5672956 3.5661986 -0.39618981 42
8.9275618 10.669673 -1.336141 22
2.2054482 3.5863068 -0.4292134 39
2.5698161 3.5696995 -0.47441149 44
2.5808077 3.5849679 -0.55474561 34
2.5678437 3.5669599 -0.62974405 22
2.5794818 3.5831263 -0.71152133 29
2.5673535 3.5662789 -0.78590506 9
2.5774076 3.580245 -0.86765766 9
2.5844138 3.589977 -0.94839162 3
1.8826381 2.6151493 -0.74801922 12
1.4873704 2.0660877 -0.63591391 0
1.2220681 1.6975597 -0.71957266 14
1.2412523 1.7242081 -0.99032062 15
2.5392628 3.4758232 1.1362678 15
5.0991578 6.9798884 1.6703788 18
5.2999697 7.254766 1.2569336 15
10.500854 14.3739 1.5454931 14
13.625217 18.650629 1.1882546 7
13.628397 18.654982 0.77972144 22
9.0087128 10.615195 0.38719162 31
2.2287419 3.5681181 0.092237592 31
13.591939 18.605076 0.36919796 17
9.0246744 10.634003 0.14119191 36
2.2292576 3.5689437 0.017773263 35
9.0481739 10.661694 -0.10543589 31
2.2375517 3.5822222 -0.056764778 27
2.5974391 3.5554569 -0.085160337 24
9.058486 10.673845 -0.35338789 34
2.2409065 3.5875931 -0.13167529 34
2.6362274 3.6085515 -0.16566461 6
9.0271635 10.636936 -0.59936154 38
2.224509 3.5613415 -0.204998 33
9.0421753 10.654626 -0.84736276 34
2.2307017 3.5712554 -0.28019026 39
9.0543289 10.668946 -1.0963675 34
2.2340798 3.576664 -0.35522866 34
2.6015298 3.5610564 -0.39762658 34
9.0585127 10.673876 -1.3445541 16
2.240972 3.5876982 -0.43124184 40
2.6087501 3.5709398 -0.47698516 19
2.6151371 3.5796824 -0.55673933 5
2.5973542 3.5553405 -0.63087875 0
2.5671608 3.5140109 -0.70133853 3
2.5921879 3.548269 -0.78590506 1
2.6069698 3.5685029 -0.86920154 1
2.6001844 3.5592146 -0.94503742 1
1.8548794 2.5390177 -0.72992927 5
1.753577 2.4003518 -0.74254578 3
1.2361206 1.6920409 -0.72087389 13
1.2703685 1.7389206 -1.0038403 14
2.5726793 3.470439 1.1403514 17
5.154778 6.9535847 1.6726555 19
5.3764377 7.2525945 1.2630298 15
10.641289 14.354663 1.5513748 19
13.57191 18.307951 1.1724303 29
13.558317 18.289614 0.76838791 29
9.1425943 10.621745 0.38974917 33
2.2643082 3.569356 0.092675984 33
13.528569 18.249487 0.36400703 25
9.1613159 10.643496 0.14216371 36
2.2648323 3.5701818 0.017857738 36
11.381639 15.353366 -0.03168888 0
9.1771822 10.661928 -0.10606922 32
2.2667906 3.5732689 -0.056872286 28
9.1901712 10.677019 -0.35560855 33
2.2723227 3.5819895 -0.13204865 34
9.1585569 10.64029 -0.60313863 38
2.2578781 3.5592196 -0.20577821 36
11.338457 15.295115 -1.0428056 0
9.1710358 10.654788 -0.85244697 37
2.2641308 3.5690761 -0.28125259 40
10.346893 13.957536 -1.2591318 1
9.1858234 10.671968 -1.1032412 39
2.2675354 3.5744431 -0.35657167 36
8.8422041 11.927772 -1.3387121 2
9.1925507 10.679784 -1.3533494 12
2.265964 3.5719659 -0.43124184 39
7.6971703 10.383167 -1.3940663 2
2.6684263 3.5995979 -0.56272042 0
2.6339016 3.5530252 -0.63371539 0
2.6410172 3.562624 -0.71470344 12
2.6520693 3.5775328 -0.79646832 14
2.645843 3.5691338 -0.87383318 3
4.3671842 5.8911529 -1.5722672 5
1.8563168 2.5040953 -0.72359776 2
1.7356255 2.3412876 -0.72800505 0
1.2569131 1.6955243 -0.72607875 12
1.2824774 1.7300094 -1.0038403 15
2.6270676 3.4925737 1.1536232 16
5.2268057 6.9488139 1.6802447 23
5.4388456 7.2307124 1.2658008 17
10.772384 14.321423 1.5558726 23
13.574526 18.046751 1.1617439 29
13.563113 18.031578 0.7615068 31
9.274375 10.623927 0.39219552 31
2.3000004 3.5702703 0.093114376 32
13.542649 18.004372 0.36099499 26
9.2880068 10.639542 0.14297353 37
2.2983665 3.567734 0.017925316 36
11.54866 15.353449 -0.031854685 0
9.3171539 10.672931 -0.1068232 25
2.3046775 3.5775306 -0.057194814 26
11.390255 15.142856 -0.36647564 0
9.2960434 10.648748 -0.35681984 6
2.3124306 3.5895655 -0.13291985 33
11.398982 15.154459 -0.70296329 0
9.2851791 10.636303 -0.60657239 41
2.2978165 3.5668802 -0.20714356 33
12.498944 16.616812 -1.138839 3
9.3029623 10.656673 -0.85777324 36
2.2997997 3.5699587 -0.28258052 41
10.43449 13.872208 -1.2579753 1
9.3125534 10.667661 -1.1094902 30
2.3140204 3.5920334 -0.35992923 32
8.9132862 11.849833 -1.3369161 2
9.2407007 10.585353 -1.3495253 5
2.3123965 3.5895126 -0.43529868 38
7.7431736 10.294217 -1.3893479 2
6.8995366 9.1726379 -1.4414415 3
6.1741433 8.2082586 -1.4716721 3
5.5690336 7.4037919 -1.4930491 3
5.1149025 6.8000436 -1.5218108 4
4.7256212 6.2825112 -1.5461906 5
4.3917484 5.8386412 -1.5663974 5
1.8831223 2.5035305 -0.72721577 1
1.7309333 2.3012016 -0.71928066 0
1.2846353 1.7078676 -0.73518723 10
1.2945238 1.7210139 -1.0038403 16
2.6631179 3.4895205 1.1587278 17
5.2775722 6.9152765 1.6810036 21
5.4939995 7.198864 1.2669092 16
8.52458 11.169876 1.2199259 1
13.598397 17.818169 1.1531124 43
13.613482 17.837934 0.75732422 34
13.673935 15.444706 0.57367074 28
2.3292475 3.5608196 0.093289733 33
13.602499 17.823544 0.35926467 23
13.644052 15.410954 0.20836639 34
2.3319764 3.5649915 0.017992895 36
8.5736237 11.234138 -0.023431731 0
13.649667 15.417295 -0.15525857 29
2.3361654 3.5713952 -0.057356078 24
11.541794 15.123373 -0.36794525 0
13.613898 15.376895 -0.51842338 27
2.3483768 3.5900633 -0.13354214 30
11.574829 15.16666 -0.70726049 0
13.695755 15.469352 -0.88762504 31
2.3270359 3.5574386 -0.20753366 34
12.503184 16.383097 -1.1287763 2
12.558423 14.184735 -1.1487818 30
2.3377755 3.5738566 -0.28417403 40
8.6020365 11.271369 -1.0275441 0
10.838039 12.241563 -1.2810221 1
2.3499506 3.5924692 -0.361608 30
9.0078812 11.803152 -1.3387121 2
9.2853413 10.48779 -1.3453189 3
2.346113 3.5866024 -0.43692142 37
7.8100262 10.233586 -1.3884901 2
6.9513659 9.1084719 -1.4389493 2
6.2192855 8.1492167 -1.4688355 2
5.6181903 7.3615928 -1.4924128 3
5.162251 6.7641692 -1.5218108 4
4.7788906 6.2618465 -1.5492784 4
4.4324021 5.8078384 -1.5663974 5
1.9147375 2.5089073 -0.73264271 1
1.8222969 2.3877809 -0.75030082 0
1.3102956 1.7168984 -0.74299455 9
1.3065071 1.7119346 -1.0038403 16
2.7063563 3.4953077 1.166895 17
5.3377433 6.8937907 1.6847982 22
5.5635252 7.1853919 1.2713429 17
8.5755157 11.075432 1.2161201 20
8.6355371 11.15295 0.72565317 20
8.654274 11.17715 0.4770886 23
13.6532 15.206059 0.56833327 29
2.3651121 3.5611281 0.093728125 32
8.6385021 11.15678 0.2260945 20
13.644418 15.196278 0.20674676 35
2.3678722 3.5652843 0.01807737 35
8.6200075 11.132895 -0.023345513 19
13.655418 15.20853 -0.15411252 29
2.3743181 3.5749898 -0.057678603 27
8.6673765 11.194071 -0.27381253 11
13.622072 15.171391 -0.51468861 29
2.3866544 3.5935643 -0.13428888 34
8.6557045 11.178997 -0.52411067 9
13.70463 15.263339 -0.88127261 34
2.360656 3.5544188 -0.20831387 31
8.6609144 11.185725 -0.77483058 19
12.571784 14.001648 -1.1410345 31
2.373709 3.5740726 -0.28550193 37
8.6438789 11.163724 -1.0232072 22
8.57341 9.5485144 -1.0054462 0
2.3815887 3.585937 -0.36261526 33
8.8071413 11.37458 -1.2970457 2
9.329071 10.390121 -1.3411124 3
2.3821025 3.5867107 -0.43894982 40
7.8861489 10.185102 -1.3893479 2
7.0050659 9.0471678 -1.4369557 2
6.268754 8.0962076 -1.4671334 2
5.671864 7.325314 -1.4930491 3
5.1997051 6.7155123 -1.518994 4
4.8176842 6.2221251 -1.5477345 5
4.475235 5.7798462 -1.5672359 4
1.9632169 2.5355296 -0.74440122 1
1.8365464 2.3719325 -0.74933147 1
1.3407753 1.7316351 -0.75340426 2
1.3361833 1.7257047 -1.0173601 15
2.7498047 3.5006602 1.1750622 17
5.3711843 6.8378277 1.6802447 24
5.64047 7.180644 1.2774391 18
8.5812397 10.924414 1.2060866 27
8.6490297 11.010715 0.72030997 38
8.6506004 11.012714 0.47263613 24
13.651344 14.992116 0.56388533 32
2.4033296 3.5644248 0.094254196 32
8.6371212 10.995554 0.22404376 22
13.658615 15.000101 0.20537007 38
2.4105942 3.5751991 0.018212527 35
8.6258631 10.981222 -0.023153178 26
13.645461 14.985655 -0.15281568 32
2.4148703 3.5815408 -0.058054887 29
8.6983757 11.073534 -0.27234292 27
13.630734 14.969481 -0.51105481 28
2.4250944 3.5967045 -0.13503562 35
8.6866226 11.058572 -0.52129525 26
2.3965805 3.554415 -0.20928912 35
8.6598434 11.02448 -0.76783037 33
2.4097588 3.5739601 -0.28682983 42
8.6501369 11.012124 -1.0148227 32
8.4921942 9.3262587 -0.9882617 1
2.4199347 3.5890522 -0.36462981 35
8.7042284 11.080986 -1.2704654 22
9.3906565 10.312963 -1.3395827 2
2.4226568 3.5930893 -0.4417896 45
7.9472351 10.11729 -1.3876321 2
7.0607009 8.9886799 -1.4354604 3
6.3300142 8.0584736 -1.468268 2
5.7204266 7.282433 -1.4924128 3
5.2586226 6.6945305 -1.5225151 5
4.8634295 6.1914268 -1.5485065 5
4.5154767 5.7484627 -1.5672359 4
2.0025322 2.5493391 -0.75254166 1
1.8674442 2.3773642 -0.75514776 5
1.3683542 1.7419938 -1.0325698 15
2.7838175 3.4934764 1.1791458 20
5.411448 6.7909493 1.6779679 24
5.7225561 7.1813664 1.2846438 18
8.6026611 10.795676 1.1984751 27
8.6510038 10.856342 0.71414471 27
8.6475487 10.852007 0.46831861 25
13.671583 14.805381 0.56043816 32
2.4371901 3.5607595 0.094604909 35
8.6364069 10.838024 0.2220571 24
13.651747 14.783899 0.20370995 37
2.4445322 3.5714862 0.018280106 38
8.6325188 10.833144 -0.022967475 25
13.657485 14.790114 -0.15179028 29
2.4533696 3.5843978 -0.058377411 33
8.6882391 10.90307 -0.26963574 35
13.637248 14.768198 -0.50742102 27
2.4524028 3.5829856 -0.13516007 37
8.6863909 10.90075 -0.5167017 38
8.5564327 9.2660265 -0.54184616 0
2.4371326 3.5606754 -0.21065447 36
8.6594362 10.866924 -0.76104897 34
8.375267 9.0698366 -0.74858451 4
2.4459226 3.5735178 -0.28815776 45
8.6497307 10.854745 -1.0058599 34
8.4975777 9.2022905 -0.98138791 2
2.4516859 3.5819383 -0.36563706 37
8.7044115 10.923365 -1.2593304 30
9.4678278 10.253004 -1.3403475 2
2.4589205 3.5925078 -0.44381803 45
8.0251083 10.070891 -1.388919 2
7.123281 8.939168 -1.4354604 3
6.3737807 7.9986033 -1.4654315 2
5.7760496 7.248497 -1.4936856 3
5.2905078 6.6391788 -1.5182897 5
4.8943052 6.1419754 -1.5446467 5
4.5579357 5.7198572 -1.5680745 4
2.0518479 2.5749109 -0.76430017 1
1.8477184 2.3187439 -0.74060702 6
1.3782228 1.7295632 -1.0308799 16
2.8251574 3.4950106 1.1862922 20
5.4537873 6.7468967 1.6764501 27
5.7800226 7.1504831 1.2863064 17
8.6252108 10.670274 1.1912096 34
8.6562681 10.708694 0.70839041 30
8.6502171 10.701209 0.46440583 25
13.676221 14.604507 0.55643505 35
2.4756799 3.5633636 0.09513098 35
8.6414604 10.690376 0.22026271 23
13.653467 14.580209 0.20221177 41
2.4853816 3.5773277 0.018398369 41
8.6400433 10.688623 -0.022788404 34
13.651045 14.577621 -0.15058392 29
2.4897437 3.5836062 -0.058646183 31
8.6862078 10.745733 -0.26723793 35
2.4887629 3.5821946 -0.13578236 39
8.6793556 10.737256 -0.51181179 36
8.492528 9.0689659 -0.53377688 0
2.4733288 3.5599797 -0.21162972 38
8.6672974 10.72234 -0.75514257 11
8.3783426 8.9470301 -0.74325824 2
2.4799194 3.5694659 -0.28922009 43
8.6425352 10.691707 -0.99631876 11
8.5943241 9.1776714 -0.98513722 3
2.4857295 3.5778286 -0.36698008 38
8.7128391 10.778679 -1.2496322 33
9.0465689 9.6606131 -1.2711313 2
2.4930229 3.5883262 -0.44544077 40
8.0877199 10.005342 -1.3876321 2
7.1780291 8.879961 -1.4339651 3
6.4244871 7.947752 -1.4642967 3
5.8240299 7.2049246 -1.4930491 3
5.3392038 6.6051445 -1.518994 4
4.9321299 6.1015525 -1.543103 5
4.5952973 5.6848559 -1.5672359 3
2.1114144 2.6120369 -0.77967662 1
1.8321462 2.2665534 -0.72800505 3
1.3993801 1.7311773 -1.0376397 15
2.8470361 3.4722116 1.1852713 21
5.4758549 6.678288 1.6688609 23
5.849896 7.1344638 1.29074 17
8.7475004 10.668348 1.1977831 31
8.7054892 10.617111 0.70633531 28
8.7272501 10.643651 0.46454075 27
13.673217 14.398497 0.55220956 32
2.5166285 3.5688705 0.095744729 33
8.7361698 10.65453 0.2207754 26
13.658523 14.383022 0.20079459 41
2.5172107 3.5696964 0.018449053 37
8.7550335 10.677535 -0.02289452 28
13.650571 14.374649 -0.14946803 30
2.5216157 3.5759432 -0.058807448 27
8.7001572 10.610609 -0.26538157 33
8.8747034 9.3454514 -0.32532683 0
2.5229266 3.5778019 -0.13628019 35
8.7262249 10.642401 -0.51018184 4
8.4593172 8.9080324 -0.52776778 1
2.5119362 3.5622165 -0.21280003 36
8.7394104 10.658482 -0.75492382 22
8.3911104 8.8362074 -0.73890036 1
2.518579 3.5716367 -0.2908136 42
8.7498512 10.671216 -1.0000774 38
8.5922813 9.048048 -0.9776386 4
2.5267258 3.58319 -0.36933035 36
8.7045183 10.615928 -1.2377789 29
9.0425034 9.5221519 -1.2611886 2
2.5317726 3.5903471 -0.44787487 38
8.1397219 9.9271088 -1.3846296 2
7.2222328 8.8081493 -1.4304762 3
6.4647532 7.8843365 -1.4608927 3
5.8666759 7.1549287 -1.4911399 3
5.3851862 6.5677094 -1.518994 5
4.9721179 6.0639362 -1.542331 5
4.6274333 5.6435633 -1.5647204 4
2.1370099 2.6062722 -0.78239006 0
1.8430037 2.2477057 -0.72606629 1
1.4183282 1.7297763 -1.0427096 14
2.8885183 3.4730656 1.1924176 19
5.5022531 6.6157403 1.6627896 23
5.9198246 7.117815 1.2951736 16
8.8701801 10.665233 1.2043568 29
8.8304853 10.617504 0.71044552 26
8.8524685 10.643936 0.4672392 31
13.673558 14.199005 0.54820639 47
2.5507915 3.5642226 0.096095443 30
8.8640442 10.657855 0.22212119 25
13.655947 14.180717 0.19929643 40
2.55371 3.5683002 0.018533526 34
8.8779583 10.674584 -0.023020532 26
13.647935 14.172397 -0.14835215 27
2.5604854 3.5777676 -0.059129976 27
8.8328371 10.620332 -0.26716059 39
8.8620672 9.2026176 -0.32250053 0
2.5618036 3.5796094 -0.13702694 30
8.8616524 10.654979 -0.5137381 36
8.4492283 8.7739143 -0.52330393 1
2.5506947 3.5640872 -0.21397032 34
8.8697929 10.664766 -0.75973648 43
8.4332075 8.7572784 -0.73720562 0
2.5550659 3.570195 -0.2921415 42
8.8828106 10.680419 -1.0067272 36
8.5888519 8.9189043 -0.97013992 3
2.5586386 3.575187 -0.37033764 32
8.8370085 10.625348 -1.2460403 41
9.1612368 9.5132847 -1.2684544 2
2.5729873 3.5952368 -0.45071465 36
8.2113695 9.8730984 -1.3850585 2
7.2911615 8.7666693 -1.4319714 3
6.5171056 7.8359675 -1.4603254 3
5.9139576 7.1107607 -1.4905034 3
5.4258699 6.5238996 -1.5175855 5
5.0042915 6.0170064 -1.5392432 5
4.6667194 5.6111202 -1.5647204 5
4.3501697 5.2305102 -1.5792521 5
12.628402 15.184002 -4.9331794 2
1.5019743 1.8059278 -0.80805534 1
1.4396425 1.7309819 -1.0494695 15
2.9276569 3.4705529 1.1985431 19
5.5483055 6.5771666 1.6627896 23
5.994915 7.1065941 1.3007157 17
8.9906721 10.657876 1.2105844 28
8.9533319 10.613612 0.71435016 32
8.9806929 10.646046 0.4700726 27
13.668988 13.997354 0.54409206 47
2.5897126 3.5657423 0.096621506 28
8.9743376 10.638512 0.22301839 25
13.656804 13.984877 0.19787924 42
2.5997138 3.5795128 0.018685579 21
9.014164 10.685724 -0.023179706 24
13.645938 13.97375 -0.14726643 29
2.5854003 3.5598049 -0.059129976 4
8.95576 10.616489 -0.26863021 37
8.8562517 9.0690022 -0.31997705 0
8.9822149 10.647851 -0.51640534 43
8.4823542 8.6861229 -0.52158701 0
2.5849059 3.559124 -0.21475053 31
9.0006866 10.669746 -0.76454908 37
8.4690332 8.6724815 -0.73502666 0
2.5986915 3.578105 -0.29426616 30
9.0137501 10.685233 -1.0130879 37
8.6035442 8.8102236 -0.96482837 4
2.5975893 3.5765877 -0.37235215 14
8.9700537 10.633433 -1.2543018 40
9.2941923 9.5174637 -1.2776322 2
2.5956857 3.5739667 -0.45030898 3
8.2544527 9.7851343 -1.3807691 2
7.3445091 8.7064533 -1.4304762 3
6.5920763 7.8144913 -1.464864 3
5.9532704 7.0572271 -1.4879578 3
5.4535103 6.4647932 -1.512656 4
5.0436454 5.9789238 -1.5384713 5
4.7007351 5.5724254 -1.5630432 3
4.3890915 5.202992 -1.5801566 5
1.9067365 2.2603159 -0.73866826 1
1.5169843 1.7982894 -0.80935657 15
1.4516919 1.7208893 -1.0494695 15
2.9694145 3.4706004 1.2056894 20
5.5813217 6.5233521 1.658995 25
6.0752859 7.1006894 1.3073661 16
9.1270351 10.667521 1.2188879 31
9.0791512 10.611555 0.71846038 29
9.1145725 10.652955 0.47317582 30
13.66509 13.799306 0.54008895 44
13.66585 18.542683 0.50502712 29
9.1185913 10.657653 0.2247487 25
13.6556 13.789723 0.19646206 39
9.1379528 10.680282 -0.02330572 28
13.65591 13.790037 -0.1463315 28
9.0842581 10.617523 -0.27025452 38
8.8546343 8.9416037 -0.31765544 0
9.1212988 10.660816 -0.52010983 40
8.5231037 8.6068163 -0.52038521 0
9.1216936 10.661278 -0.76848668 36
8.5293722 8.6131458 -0.73502666 1
9.1374063 10.679643 -1.0185813 38
8.6031094 8.6876078 -0.95795459 6
9.1062279 10.643202 -1.2629224 31
9.4472618 9.5400524 -1.289487 2
8.0151777 10.875495 -1.3772963 2
8.3251505 9.7302914 -1.381198 2
7.4128528 8.6640139 -1.4319714 3
6.6310263 7.7502289 -1.46146 2
6.0075288 7.0214958 -1.4892306 3
5.5113091 6.4415231 -1.5161771 4
5.0929174 5.9525137 -1.5407871 5
4.7471509 5.548388 -1.5655589 4
4.4202418 5.1663022 -1.5783477 5
1.9376075 2.2646422 -0.74448454 1
1.5368787 1.7962773 -0.8132602 14
1.4683845 1.7162224 -1.0528494 17
3.00878 3.4673119 1.2118149 17
5.6370225 6.4960928 1.6620307 26
6.1480765 7.085031 1.312354 17
9.2613564 10.672768 1.2268455 17
9.215847 10.620323 0.72339261 25
9.2411242 10.649452 0.4758743 30
13.667595 13.610463 0.53641939 51
13.605767 18.193823 0.49810055 34
9.2504416 10.66019 0.22615859 25
13.658008 13.600916 0.19512586 39
11.457744 15.321455 0.080807529 0
9.2699671 10.682692 -0.023451628 26
13.652651 13.595582 -0.14527594 30
11.365789 15.198494 -0.2550652 0
9.2184458 10.623318 -0.27203351 39
8.8686743 8.8316031 -0.31593949 0
11.358918 15.189304 -0.59042305 0
9.2400389 10.648202 -0.5226289 44
8.5405064 8.5048065 -0.51780993 0
11.396361 15.239375 -0.92902523 0
9.2587242 10.669735 -0.77373677 39
8.5298824 8.4942274 -0.7299425 1
10.966465 14.66451 -1.2184956 1
9.2744942 10.687908 -1.0255202 38
8.440321 8.4050398 -0.93327147 1
9.2833595 12.413838 -1.3057507 1
9.2299185 10.636539 -1.269747 33
9.8324471 9.7913475 -1.3326993 2
8.0837574 10.809713 -1.3760793 2
8.3720245 9.6479044 -1.3777665 2
7.4653544 8.6030588 -1.4304762 3
6.6823759 7.7007561 -1.4608927 3
6.0460482 6.9674535 -1.4866849 3
5.5303383 6.3731503 -1.5091349 4
5.1292048 5.9108849 -1.5392432 4
4.7857699 5.5151114 -1.5655589 4
4.4562016 5.1353173 -1.5783477 6
1.9686309 2.2686462 -0.75030082 1
1.5592976 1.7969314 -0.81846511 13
1.4922106 1.7196205 -1.0612992 16
3.0507984 3.4665453 1.2189611 18
5.6874256 6.4624782 1.6635485 23
6.2287946 7.0776224 1.3190043 15
12.629178 14.350217 1.6596665 21
9.3531046 10.627697 0.72832483 3
13.636124 15.494384 0.69660872 30
13.670987 13.425064 0.53286105 46
13.609171 17.935919 0.49362895 42
13.61043 15.465189 0.33010566 17
13.669865 13.423962 0.19395162 44
11.687737 15.403604 0.081669159 0
13.625371 15.482166 -0.03419587 19
13.664469 13.418663 -0.14440133 16
11.52964 15.195245 -0.25635532 0
9.3452272 10.618746 -0.27358049 27
8.8930235 8.7330494 -0.31462729 0
11.513015 15.173334 -0.59291214 0
9.3643265 10.640449 -0.52544433 4
8.5768614 8.422575 -0.5164364 0
11.555604 15.229463 -0.93331635 0
13.702629 15.569953 -1.1359953 18
8.5006638 8.3477478 -0.72243732 1
11.075811 14.59713 -1.2192924 1
8.4902573 8.3375282 -0.93233413 1
9.3890724 12.374128 -1.3084368 1
9.3750124 10.65259 -1.2794453 25
9.9147682 9.7364149 -1.3346114 2
8.1349716 10.721313 -1.3720225 2
8.4496841 9.6011639 -1.3794823 2
7.5095 8.532856 -1.4274856 3
6.7385898 7.6568899 -1.46146 3
6.094542 6.9250746 -1.4866849 3
5.5903044 6.3521218 -1.5133601 4
5.178124 5.8837719 -1.5415591 4
4.8138199 5.4698224 -1.5622047 4
4.4893699 5.1011577 -1.5774431 5
2.0100594 2.2839799 -0.75999463 1
1.5718044 1.7860017 -0.81846511 14
1.5185505 1.7254907 -1.071439 16
3.0929523 3.4653604 1.2261075 20
5.7350183 6.4255452 1.6643074 24
6.3308105 7.0930743 1.3300884 16
12.798045 14.338999 1.6686621 17
13.648506 15.29186 1.054468 25
13.624171 15.264595 0.69053721 44
13.678207 13.24585 0.5295251 45
13.655992 17.739071 0.49082324 50
13.611537 15.25044 0.32754225 23
13.656936 13.22525 0.19245346 41
8.6181002 11.194872 0.05967221 0
13.613265 15.252377 -0.033897419 27
8.6369171 11.219316 -0.19029102 5
13.687967 15.336072 -0.3975696 31
8.913558 8.6318073 -0.31321412 0
8.6213207 11.199057 -0.43995476 11
13.689114 15.337358 -0.76208687 28
8.6354532 8.3624926 -0.5164364 0
8.6566677 11.244971 -0.69281912 0
13.685994 15.333862 -1.1257137 20
8.5157118 8.2465363 -0.71880573 5
8.6502876 11.236684 -0.94361705 2
11.502903 12.887915 -1.2519038 0
8.5196095 8.2503109 -0.92920971 1
8.6388226 11.221791 -1.192937 5
9.7515678 10.925709 -1.3203932 4
8.9384842 8.6559458 -1.1950316 0
8.2241859 10.68318 -1.3744565 2
8.5112104 9.536006 -1.3786243 2
7.5583162 8.4683781 -1.4254919 3
6.7892437 7.6067052 -1.4608927 2
6.1532578 6.8941436 -1.4892306 3
5.6240263 6.3011894 -1.5105433 4
5.2060065 5.8328381 -1.5376993 4
4.8518887 5.4360824 -1.5622047 4
4.5248728 5.0696921 -1.5774431 5
2.0466285 2.2930539 -0.76774967 1
1.5892719 1.7806288 -0.82106751 15
1.5329736 1.7175521 -1.0731289 14
3.1210563 3.4505076 1.2281493 20
5.8012185 6.4135818 1.6711377 25
6.4042883 7.0803103 1.3356304 16
11.497451 12.711095 1.4880605 2
13.637077 15.076575 1.0458366 24
13.625887 15.064204 0.68554503 28
13.670362 13.063681 0.5258556 49
8.6630812 11.100214 0.30871537 55
13.631896 15.070847 0.32561967 23
13.669162 13.062534 0.19140069 40
8.6626244 11.099629 0.059469476 19
13.609477 15.046061 -0.03363876 24
9.8494244 9.4123135 -0.10272157 0
8.6422338 11.073502 -0.18878588 23
13.698165 15.144111 -0.39493978 33
8.9474831 8.5503998 -0.3124066 0
8.6289911 11.056533 -0.43659443 26
13.691322 15.136546 -0.75660425 33
8.702282 8.3160801 -0.51712316 14
8.6769781 11.11802 -0.688528 22
8.4717712 9.3660316 -0.69170362 0
8.5528975 8.1733255 -0.71735311 15
8.6656866 11.103553 -0.93724304 30
8.4810095 9.3762445 -0.91623163 1
8.5597248 8.1798506 -0.92764747 14
8.6517496 11.085694 -1.1845431 34
9.8024359 10.837158 -1.3175197 4
9.9686699 9.5262671 -1.3242863 0
8.3829966 10.741335 -1.3890612 2
8.5609303 9.4646015 -1.3764796 2
7.6143146 8.4180641 -1.4254919 3
6.8315754 7.5527005 -1.4591907 3
6.2014952 6.8561101 -1.4898671 3
5.6683345 6.2666707 -1.5112475 5
5.2445774 5.7981825 -1.5376993 5
4.8852119 5.4008837 -1.5613662 4
4.5531693 5.0337911 -1.5756341 5
2.1060474 2.3283567 -0.78422916 1
1.6086584 1.7784647 -0.8249712 15
1.5467634 1.7100362 -1.074819 13
3.189513 3.4770858 1.2455047 22
5.8485065 6.3758197 1.6718966 25
6.4990845 7.0850549 1.3450519 16
11.693661 12.747985 1.5018996 3
13.647487 14.877972 1.0386438 29
13.628031 14.856762 0.68041795 29
13.673931 12.885659 0.52251965 44
8.6683769 10.948541 0.3061727 27
13.625931 14.854472 0.32299215 24
13.666872 12.879008 0.19010498 38
8.6579676 10.935393 0.058911949 28
13.611438 14.838672 -0.033386737 24
9.7082129 9.1485558 -0.10058028 0
8.6473322 10.921961 -0.18722701 26
13.692717 14.927279 -0.39176849 36
8.983676 8.4657879 -0.31159911 0
8.6339989 10.90512 -0.43298519 31
8.771759 8.2660875 -0.51780993 26
8.6775055 10.960071 -0.68248147 30
8.4748545 9.2389641 -0.68667227 1
8.6097488 8.1134167 -0.71735311 33
8.673625 10.955169 -0.92980671 33
8.5085058 9.2756491 -0.91218388 1
8.6253281 8.1280975 -0.92858481 10
8.6646032 10.943774 -1.1758136 28
9.9074764 10.800755 -1.3214709 3
8.8613405 8.3505049 -1.1694102 0
8.4454308 10.66695 -1.3870327 2
8.6402378 9.4192581 -1.3786243 2
7.6755805 8.3676262 -1.4259903 2
6.8894892 7.5106592 -1.4603254 6
6.2438698 6.8068295 -1.4885942 3
5.7092843 6.2240448 -1.5105433 5
5.2955399 5.7729964 -1.5407871 5
4.9227977 5.3666472 -1.5613662 4
4.5908341 5.0047526 -1.5765387 6
2.1720936 2.3679338 -0.80264741 1
1.6287056 1.775553 -0.82887483 15
1.5733683 1.7152263 -1.0849588 13
3.2216122 3.4632294 1.2485675 21
5.8768258 6.3175807 1.6673431 27
6.5969553 7.0917192 1.3550276 17
11.871942 12.762323 1.513317 4
13.642188 14.665336 1.0304234 27
13.638842 14.661738 0.67583054 35
13.669827 12.702786 0.51896131 50
8.6769867 10.803574 0.30380538 28
13.628511 14.650634 0.32062098 24
13.65097 12.685264 0.18864731 8
8.6564512 10.778006 0.058388211 33
13.619344 14.640778 -0.033154607 25
9.6927328 9.0070419 -0.099765994 0
8.6507378 10.770892 -0.18566813 26
13.69581 14.72298 -0.3889066 42
8.9927626 8.3565903 -0.30988315 0
8.632309 10.747947 -0.42912701 19
8.608695 9.2543364 -0.46854338 0
8.6862602 10.81512 -0.6772151 38
8.544589 9.1854229 -0.68710977 2
8.6632557 8.0503941 -0.71711099 43
8.6699171 10.794772 -0.9213081 34
8.4942522 9.1313114 -0.90379936 1
8.6730995 8.0595407 -0.92764747 0
8.6684103 10.792895 -1.1660767 34
8.9352617 9.6053953 -1.1828223 0
8.834836 8.209836 -1.1583203 0
8.4997587 10.58291 -1.3837873 3
8.6868248 9.3383255 -1.3756218 3
7.7311072 8.3109312 -1.4254919 3
6.9390588 7.4594798 -1.459758 3
6.2993064 6.7717471 -1.4905034 3
5.7472329 6.1782689 -1.5091349 5
5.319675 5.7186441 -1.5361555 5
4.9468246 5.3178306 -1.5571735 4
4.6256618 4.9725809 -1.5765387 6
2.2202902 2.3868093 -0.81427997 0
1.6565189 1.780756 -0.83668214 14
1.5976509 1.7174728 -1.0934086 16
3.2681513 3.4620199 1.2567346 20
5.9202814 6.2714763 1.6665841 23
6.6949911 7.0921421 1.364449 15
12.011678 12.724217 1.5191987 5
13.656088 14.466175 1.0234361 27
13.647156 14.456714 0.6709733 31
13.671158 12.518532 0.51551419 64
8.6776114 10.643595 0.30108735 37
13.62572 14.434006 0.31805754 23
10.188959 9.3299198 0.13985573 0
8.6846743 10.652258 0.058050316 50
13.624703 14.432929 -0.032909214 21
9.6758966 8.8601151 -0.098921537 0
8.6839676 10.651391 -0.18470055 31
13.690806 14.502954 -0.38573533 48
9.0213366 8.2607412 -0.3087728 0
8.700758 10.671986 -0.42862919 7
8.5802622 9.0892487 -0.46335712 0
8.788949 8.0479469 -0.51197255 1
8.6643219 10.627295 -0.66941309 12
8.5787897 9.0876884 -0.68448472 4
8.7220354 7.9866738 -0.71711099 3
8.6731539 10.638128 -0.91334057 32
8.3829479 8.880229 -0.88500631 3
8.7290039 7.9930549 -0.92733502 3
8.6792898 10.645654 -1.1570113 14
9.0245743 9.5599184 -1.1853367 2
8.8360491 8.0910749 -1.1506721 1
8.5871639 10.532657 -1.3854101 3
8.741394 9.2599382 -1.373477 4
7.7945452 8.2569227 -1.4259903 3
6.9908338 7.4055343 -1.4591907 3
6.3379331 6.713903 -1.4879578 4
5.7896638 6.13311 -1.5084307 4
5.3668394 5.6852036 -1.5376993 4
4.9964118 5.2928023 -1.5605277 4
4.6486144 4.9243731 -1.5720161 4
4.3688946 4.6280599 -1.5897847 6
1.6877031 1.7878187 -0.84579062 12
1.6226411 1.7188972 -1.1018584 14
3.310962 3.4586759 1.263881 20
5.9693518 6.2356658 1.668102 19
6.779952 7.0824304 1.3716537 16
12.191154 12.735045 1.530616 6
13.651777 14.260833 1.0156268 25
13.64823 14.257126 0.66611606 29
13.69293 12.363832 0.51306784 38
8.7822886 10.619736 0.30213949 33
13.629356 14.237411 0.31581455 22
10.262752 9.2666025 0.13997719 0
8.7996149 10.640687 0.058320634 35
13.628321 14.236329 -0.032677084 26
9.687047 8.7467785 -0.098408833 0
8.8141928 10.658316 -0.18588313 29
13.692163 14.30302 -0.38295081 38
9.0253639 8.1493216 -0.3069559 0
8.8260088 10.672603 -0.43111834 34
8.5329418 8.9136276 -0.45742995 0
8.8330555 7.9756794 -0.51128578 0
8.7866793 10.625045 -0.67311907 36
8.5840244 8.9669886 -0.67989081 3
8.8338842 7.9764276 -0.72171098 1
8.8082552 10.651135 -0.91971457 37
8.3592157 8.732151 -0.8760435 8
8.8171501 7.961318 -0.93077195 0
8.824523 10.670806 -1.1664125 31
9.0497723 9.4535151 -1.1799488 1
8.96029 8.0905638 -1.1594676 2
8.6528788 10.46325 -1.3841929 3
8.7948265 9.1871948 -1.3717613 3
7.8382764 8.1879702 -1.4234983 3
7.0341492 7.3479681 -1.4574887 2
6.3873811 6.6723452 -1.4885942 3
5.8187256 6.07832 -1.5049096 4
5.4063988 5.6475978 -1.5376993 5
5.0224223 5.246491 -1.5571735 4
4.6936574 4.9030585 -1.5756341 4
4.3984146 4.5946436 -1.5888153 6
1.7001433 1.7759929 -0.84579062 13
1.6371088 1.7101461 -1.1035484 15
3.3458028 3.4465768 1.2679646 20
6.0182109 6.1994767 1.6696198 23
6.8733792 7.0804024 1.3805209 15
12.37969 12.752562 1.5430713 7
13.642487 14.053392 1.0076119 27
13.6444 14.055364 0.66112393 25
13.680363 12.180195 0.50939828 41
8.9050426 10.61638 0.30380538 32
13.639275 14.050083 0.3137638 23
10.112105 9.0032282 0.13706185 0
8.9276686 10.643353 0.058675423 35
13.635433 14.046126 -0.03245822 22
9.6970892 8.6337214 -0.097896136 0
8.9397936 10.657808 -0.18695824 25
9.0760651 8.0807972 -0.30675402 0
8.9491186 10.668926 -0.433483 32
8.528141 8.7850046 -0.45387363 0
8.9362764 7.9563384 -0.51403278 0
8.9068575 10.618543 -0.67662996 35
8.5407009 8.7979431 -0.67157817 1
8.9102278 7.933146 -0.72340572 0
8.9260025 10.641367 -0.9242295 38
8.3616171 8.6134653 -0.86997193 11
8.9737787 7.9897285 -0.94139504 2
8.9525948 10.67307 -1.1734632 32
8.6021929 8.8612871 -1.1134981 0
8.9630251 7.9801536 -1.1525842 2
8.6975832 10.369051 -1.3797305 2
8.8449001 9.1113043 -1.3696165 2
7.8786612 8.115963 -1.4205077 2
7.0770025 7.2901587 -1.4557867 2
6.4228039 6.6162562 -1.4860486 3
5.8665037 6.0432005 -1.506318 4
5.4484282 5.6125326 -1.5384713 4
5.0643754 5.2169123 -1.5588505 4
4.7196307 4.861784 -1.5729207 4
4.4303837 4.5638251 -1.5888153 6
1.7335776 1.7857922 -0.8562004 12
1.6616343 1.7116821 -1.1119982 14
3.4077671 3.4617212 1.2822573 19
6.0806293 6.1769018 1.6749322 21
6.9671068 7.0774145 1.3893882 15
12.535512 12.733982 1.5513748 2
13.656191 13.872404 1.0014466 27
13.644033 13.860054 0.65640163 32
13.683932 12.013167 0.50639594 33
9.0307674 10.614869 0.30555895 31
13.633215 13.849065 0.31139264 23
10.084539 8.8532486 0.13584712 0
9.0535927 10.641698 0.059013318 33
13.626527 13.842271 -0.032206196 24
9.7390919 8.5499792 -0.097715177 0
9.0735893 10.665203 -0.18819459 26
9.2079821 9.3537693 -0.25385669 0
9.1743279 8.0541716 -0.30816716 0
9.0751972 10.667092 -0.43597215 29
8.5443954 8.6796761 -0.45150277 0
9.0306454 7.9280324 -0.51626474 0
9.0273705 10.610876 -0.68014085 38
8.5626869 8.6982565 -0.66851556 4
9.121419 8.0077229 -0.73599511 1
9.0569715 10.64567 -0.93007231 37
9.0742912 7.9663491 -0.9460817 3
9.070796 10.661919 -1.1791711 29
8.4682102 8.6022844 -1.0883546 1
9.0783625 7.9699235 -1.1602323 2
8.7903881 10.332325 -1.3829759 2
8.8887634 9.0294952 -1.366614 2
7.9490499 8.0749044 -1.4229999 2
7.1305022 7.2433968 -1.456354 2
6.4605255 6.5628128 -1.4841392 3
5.9002633 5.9936795 -1.5042053 4
5.4709573 5.5575771 -1.5338397 4
5.0924416 5.173068 -1.556335 4
4.7698574 4.845377 -1.5783477 3
4.4621367 4.5327845 -1.5888153 6
1.7539629 1.7817327 -0.86010402 12
1.6938905 1.7207092 -1.125518 7
3.4427812 3.4487951 1.286341 20
6.1291537 6.1398606 1.6764501 22
7.0639248 7.0762644 1.3988097 16
13.58133 13.605054 1.669008 22
13.648283 13.672124 0.99384278 26
13.644433 13.668267 0.65181422 29
13.679793 11.841455 0.50317121 35
9.1673546 10.62423 0.30766323 29
13.641973 13.665804 0.30940598 23
10.094688 8.7381277 0.13515878 0
9.185154 10.644859 0.059385002 34
13.618273 13.642061 -0.031960804 24
9.7199135 8.4137163 -0.096931048 0
9.2026968 10.66519 -0.18932343 27
9.2363281 9.2524624 -0.25285119 0
9.2726593 8.0265665 -0.30958033 0
9.2069073 10.67007 -0.43871018 35
8.5680704 8.5830374 -0.44957644 0
9.1280737 7.9014111 -0.51866835 0
9.1638689 10.620192 -0.68482208 34
8.5865202 8.6015196 -0.66567177 3
9.1801195 7.9464617 -0.73623723 2
9.1858273 10.645638 -0.93564957 38
8.455698 8.4704685 -0.86736977 0
9.2442579 8.0019817 -0.95795459 4
9.2101078 10.673778 -1.187565 32
8.4520664 8.4668303 -1.0786564 1
9.2481785 8.0053759 -1.1747639 6
8.9656324 8.9812937 -1.3687587 2
7.99121 8.0051689 -1.4205077 3
7.1836934 7.1962419 -1.4569213 2
6.508975 6.5203452 -1.4847757 3
5.947526 5.9579153 -1.5056138 4
5.5207143 5.5303583 -1.5369275 4
5.1284318 5.1373906 -1.556335 4
4.79531 4.8036866 -1.5756341 4
4.5018978 4.5097618 -1.5917234 6
1.7743756 1.7774751 -0.86400765 12
1.7596503 1.7627242 -1.1610073 2
3.4832823 3.4409838 1.2924664 20
6.1523104 6.077601 1.6711377 13
7.1554265 7.0685358 1.4071227 16
13.573919 13.409087 1.6565528 25
13.660984 13.495094 0.98788303 29
13.654201 13.488394 0.64776653 32
13.692177 11.685962 0.50061363 31
9.296607 10.623169 0.30950448 35
13.654532 13.488721 0.30754748 26
10.094598 8.61551 0.13434896 0
9.3119287 10.640677 0.059722897 34
13.610735 13.445456 -0.031722043 22
9.7571173 8.3274775 -0.096719936 0
9.3164396 10.645831 -0.19012974 11
9.2153435 9.1034384 -0.25053072 0
9.4136324 8.0343218 -0.3124066 0
13.628186 15.572834 -0.64418834 25
8.6078758 8.5033474 -0.44853917 1
9.2772455 7.9179177 -0.52399063 0
9.3009348 10.628115 -0.68950325 46
8.4673519 8.3645306 -0.65189016 1
9.2991476 7.9366112 -0.74132138 2
9.3177481 10.647326 -0.94149238 40
8.460701 8.3579597 -0.86187649 0
9.363595 7.9916153 -0.96451592 6
9.3342724 10.666209 -1.1939443 17
8.4599552 8.3572226 -1.0721909 2
9.3856134 8.0104074 -1.185089 2
8.7870369 10.040887 -1.3602576 2
9.0167971 8.9073038 -1.3670429 2
8.0440779 7.9463954 -1.4200093 3
7.2224898 7.1347847 -1.454652 3
6.5487185 6.4691949 -1.4835029 3
5.9917765 5.9190164 -1.506318 4
5.5591888 5.4916816 -1.5369275 4
5.1697373 5.1069593 -1.558012 5
4.8259568 4.7673535 -1.5747297 4
4.52775 4.4727683 -1.5897847 6
1.8028866 1.7809936 -0.87181497 12
1.7719135 1.7503966 -1.1610073 2
3.5321529 3.4408708 1.3016545 21
6.2114697 6.0509453 1.6756911 18
7.2613511 7.0736947 1.4182068 17
13.578713 13.227796 1.6458274 24
13.6633 13.310196 0.98130673 29
13.650674 13.297897 0.64317912 33
13.690824 11.520578 0.49761128 20
13.673559 15.406316 0.45163104 32
13.642369 13.289806 0.30517632 22
10.102472 8.5010471 0.1336606 0
13.674067 15.406889 0.087007895 38
13.644101 13.291494 -0.031582765 21
9.7782898 8.2282534 -0.096358024 0
13.646406 15.375723 -0.27629825 26
9.2156506 8.9774885 -0.24882907 0
9.5306854 8.0198984 -0.31442541 0
13.625107 15.351724 -0.6389612 26
8.6469889 8.4235229 -0.44750193 1
9.3965092 7.9069915 -0.52759612 0
13.705661 15.442486 -1.0080206 32
8.5198193 8.2996397 -0.65145266 3
9.4429235 7.9460483 -0.74834239 3
12.483613 14.065577 -1.251428 5
8.4759779 8.2569323 -0.85753959 6
9.5381565 8.026185 -0.97670126 4
10.212835 11.507039 -1.2960138 2
8.4838495 8.2645988 -1.0678806 33
9.4930992 7.9882703 -1.19159 3
8.8595619 9.9822741 -1.3606633 2
9.0844593 8.8496876 -1.3679007 2
8.0908289 7.8817363 -1.418514 3
7.2522697 7.0648479 -1.4506806 3
6.5880647 6.4178081 -1.4822299 3
6.0188503 5.8633041 -1.502797 4
5.580524 5.4363055 -1.5322958 4
5.2024632 5.0680146 -1.5571735 5
4.8479576 4.7226706 -1.5711117 5
4.5560861 4.4383421 -1.5888153 5
1.8288231 1.7815604 -0.87832105 12
1.7866873 1.7405136 -1.1626972 2
3.5756121 3.4348834 1.3088008 17
6.2847152 6.0373621 1.6840392 22
7.3676934 7.0777164 1.4292909 17
13.573018 13.038813 1.6340641 26
13.66082 13.123159 0.97452492 30
13.65957 13.121958 0.63926637 33
11.185987 9.2801905 0.40420493 1
13.689819 15.209423 0.44864997 32
13.648289 13.11112 0.30325374 26
10.13387 8.4073267 0.13329619 0
13.666228 15.183213 0.086281426 38
9.8016338 8.1316948 -0.096026272 0
13.64906 15.164141 -0.27420181 27
9.2319546 8.8686037 -0.2475915 0
9.6818447 8.0323153 -0.3175545 0
13.632985 15.146281 -0.63435626 28
8.6998186 8.3574123 -0.44720554 8
9.5314493 7.9075422 -0.53205997 0
13.700876 15.221707 -0.99982852 27
8.551631 8.2150564 -0.64948386 6
9.694829 8.043087 -0.76383704 3
8.4802332 9.4215603 -0.84349221 0
8.5247841 8.1892662 -0.85667223 15
9.5878191 7.9543085 -0.97607636 2
8.4343281 9.3705597 -1.0619926 0
8.535594 8.1996508 -1.0671623 2
10.651817 8.8370295 -1.3292576 3
8.8997517 9.8876457 -1.3562008 2
9.1230755 8.7640104 -1.3644692 2
8.1427946 7.8223109 -1.4180156 3
7.3071256 7.0195322 -1.4518154 2
6.6270123 6.3661866 -1.4809572 3
6.0738344 5.8347812 -1.506318 4
5.624001 5.4026523 -1.5338397 4
5.2236147 5.018024 -1.5529808 5
4.8808093 4.6887107 -1.5711117 4
4.5729666 4.3929844 -1.5839684 6
1.8603101 1.7870922 -0.88742954 11
1.8092527 1.7380443 -1.1694571 1
3.6388128 3.4470744 1.3230935 17
6.3381147 6.0041432 1.6870749 23
7.4715676 7.0778713 1.4398208 18
13.574032 12.858781 1.6233387 26
13.668002 12.9478 0.96856517 30
13.657972 12.938299 0.63494879 29
13.636784 11.153631 0.48993862 34
13.679739 14.986477 0.4448798 29
13.643672 12.924751 0.30113891 23
10.186124 8.3313103 0.1332152 0
13.674814 14.981082 0.085673213 37
9.9458418 9.4217691 -0.022715449 0
9.8705482 8.0731983 -0.096146911 0
13.649433 14.953277 -0.2721054 29
9.2355757 8.74893 -0.24604453 0
9.7995892 8.0151606 -0.31957328 0
13.63058 14.932622 -0.62937802 11
8.7550497 8.2937241 -0.44705737 22
9.6513824 7.8939404 -0.53566539 0
8.5913763 8.1386747 -0.64817137 19
9.7074757 7.9398193 -0.76044756 0
8.4704599 9.2795897 -0.83605587 0
8.5962286 8.1432714 -0.85811788 1
9.7357197 7.9629207 -0.98544967 1
8.3974295 9.1995821 -1.0492339 1
8.6041985 8.1508207 -1.068599 2
10.713251 8.7624512 -1.3292576 3
8.9766121 9.8340902 -1.3574178 2
9.1811504 8.6973715 -1.3640403 1
8.1914425 7.7598143 -1.4170188 2
7.3588271 6.9710717 -1.4523827 2
6.6655607 6.3143353 -1.4796842 3
6.1115623 5.7895279 -1.5056138 5
5.6587319 5.360559 -1.5330677 4
5.250001 4.9733648 -1.5504651 5
4.9021087 4.6438041 -1.5674937 5
4.6091585 4.3662901 -1.5859072 6
1.872741 1.7740613 -0.88742954 11
1.8318703 1.7353444 -1.176217 1
3.688225 3.4453478 1.3322817 17
6.3913569 5.9704728 1.6901106 19
7.5729051 7.0742135 1.4497964 18
13.581933 12.687535 1.6136513 22
13.664647 12.764802 0.96198887 42
13.651561 12.752578 0.63049632 30
13.639613 10.997921 0.48726988 32
13.683516 14.782025 0.4416357 33
13.654658 12.75547 0.29940858 26
10.191106 8.2173138 0.13252686 0
13.662226 14.759027 0.084946737 36
9.8067627 9.1609669 -0.022251192 0
9.9328966 8.0091133 -0.096207231 0
13.647529 14.74315 -0.27000898 24
9.2642822 8.6542101 -0.2451937 0
9.92379 8.001771 -0.32179394 0
8.6719875 9.3681736 -0.39739054 0
8.7922897 8.2132998 -0.44602013 9
9.7995853 7.9016223 -0.54081607 0
8.4487457 9.1270094 -0.60719198 0
8.6450663 8.0757713 -0.64795262 38
9.8403721 7.9345093 -0.76650017 0
8.3696499 9.041564 -0.81985527 20
8.6849384 8.113018 -0.8612982 12
9.899725 7.9823666 -0.99638528 0
8.3937569 9.067606 -1.0408401 2
8.6550684 8.0851145 -1.0678806 1
10.764863 8.6799469 -1.3281105 2
9.0288277 9.7536602 -1.3549837 2
9.2474566 8.6384926 -1.3648982 1
8.254117 7.710566 -1.418514 2
7.4159951 6.9276366 -1.4540846 2
6.7152519 6.2730389 -1.4809572 3
6.1460767 5.7413449 -1.5042053 5
5.6960173 5.3209229 -1.5330677 3
5.2903099 4.9419322 -1.5521423 5
4.9372559 4.6121278 -1.5683981 5
4.6253486 4.3207603 -1.5810603 6
1.9071929 1.7816004 -0.89783931 11
1.8333433 1.7126138 -1.1694571 2
3.7434785 3.448339 1.3435116 17
6.4733224 5.9629593 1.7007354 20
7.6862078 7.0802193 1.4619888 17
13.579316 12.508709 1.6029259 26
13.652047 12.575706 0.62644863 30
13.628418 10.832767 0.48415631 50
13.679634 14.572426 0.43821624 34
13.649242 12.573122 0.29735786 23
10.238832 8.1385002 0.13240539 0
13.674587 14.56705 0.08438921 35
9.8028126 9.0299482 -0.022098649 0
10.073111 8.0067739 -0.09702152 0
13.648838 14.539619 -0.26802006 27
9.3009415 8.567646 -0.24457492 0
10.048277 7.9870348 -0.3240146 0
8.6304607 9.1937218 -0.39253673 0
8.8347149 8.1381769 -0.44527921 7
9.9514914 7.9101033 -0.54613835 0
8.424757 8.9745922 -0.60095036 0
8.6982975 8.0125151 -0.64773387 4
9.986167 7.9376655 -0.77352118 0
8.3670082 8.9130754 -0.81348133 27
8.7208261 8.033267 -0.85927433 5
10.030132 7.9726124 -1.003884 0
8.3695593 8.9157925 -1.0300959 1
8.6966524 8.0109987 -1.0660846 2
10.840783 8.616971 -1.3300225 3
9.0830822 9.6758833 -1.3529553 2
9.2987642 8.5656404 -1.3636113 2
8.2931499 7.6393094 -1.4160219 2
7.455441 6.8676467 -1.4523827 2
6.7559776 6.2233295 -1.4803207 3
6.1802163 5.6929622 -1.502797 5
5.7359123 5.2836871 -1.5338397 4
5.3275585 4.9075284 -1.5529808 5
4.9664688 4.5749073 -1.5674937 6
4.6639638 4.2962518 -1.5839684 5
1.9390583 1.786181 -0.90694779 9
1.8639206 1.7169672 -1.1812869 2
3.7932262 3.4455242 1.3526998 20
6.5206079 5.9229035 1.7022533 20
7.7940955 7.079658 1.4730729 17
13.589619 12.343941 1.5939304 26
13.649337 12.398185 0.94863075 49
13.674406 12.420956 0.62348032 34
13.63447 10.683106 0.48170996 50
13.681772 14.372298 0.43505982 58
10.405595 8.1531639 0.13382258 0
13.657359 14.346652 0.083662741 37
9.7945528 8.8967457 -0.021939477 0
10.323971 8.0892096 -0.098891377 0
13.656248 14.345485 -0.26619241 28
9.330925 8.4756155 -0.24380144 0
10.169891 7.9684825 -0.32613432 0
8.6034651 9.0376863 -0.38842964 0
8.8587666 8.0467377 -0.44364926 2
10.085114 7.9020562 -0.55043054 0
8.4376211 8.863472 -0.59743947 0
8.8013258 7.9945612 -0.65123391 0
10.145052 7.9490199 -0.78151059 0
8.3629847 8.7850676 -0.80710733 39
8.7944145 7.9882836 -0.86100906 1
10.176578 7.9737215 -1.0129448 0
8.3821306 8.8051805 -1.0240524 1
8.7700596 7.9661617 -1.0682398 1
10.903811 8.5435352 -1.3304049 2
9.1449242 9.606472 -1.352144 2
9.3553925 8.4978409 -1.3631824 2
8.3404036 7.5758896 -1.415025 2
7.494411 6.8074441 -1.4506806 2
6.7992592 6.1760125 -1.4803207 3
6.2343831 5.6629148 -1.506318 4
5.7842798 5.2540703 -1.5369275 3
5.3501086 4.8596969 -1.5496266 4
4.9982862 4.5401235 -1.5674937 6
4.688098 4.2583685 -1.5820297 7
1.9654799 1.7853162 -0.91345388 4
1.881229 1.7087883 -1.1846668 2
