# .PCD v0.7 - Point Cloud Data file format
VERSION 0.7
FIELDS x y z intensity
SIZE 4 4 4 4
TYPE F F F F
COUNT 1 1 1 1
WIDTH 1392
HEIGHT 1
VIEWPOINT 0 0 0 1 0 0 0
POINTS 1392
DATA ascii
1.7262982 5.525517 1.1186453 21
2.9332359 9.3886709 1.3760873 9
4.4979482 14.396985 1.3095347 19
7.3166981 23.41921 1.2622379 0
12.493764 39.98991 1.4139956 40
1.7219491 4.3669515 0.13054651 15
2.4464245 10.438579 0.23506558 38
12.500467 40.011364 0.67168272 34
1.7225264 4.3684158 0.047536369 17
2.4488161 10.448783 0.04532858 44
8.776845 28.092833 -0.048800081 0
1.7108277 4.338747 -0.035165399 23
2.4467916 10.440145 -0.14411588 32
8.4257812 26.969152 -0.54646486 5
1.7103314 4.3374887 -0.11769503 18
2.4449153 10.432139 -0.33354419 39
8.9615545 28.68405 -1.1140131 1
1.7386187 4.4092269 -0.20362154 18
2.4395435 10.409218 -0.52195495 70
6.8973517 22.076969 -1.2668108 0
1.732638 4.3940592 -0.28640863 19
2.444345 10.429706 -0.7128253 49
5.5749893 17.844366 -1.3548316 2
1.7261285 4.3775511 -0.36868441 16
1.8354797 5.8749843 -0.5549531 1
1.7161851 4.3523335 -0.44933191 21
0.59293538 2.529979 -0.2649115 1
0.78984505 2.5281277 -0.28567636 1
0.68645054 2.1971836 -0.28908578 1
0.63407499 2.0295405 -0.30465996 5
0.61590415 1.9713794 -0.33284941 18
0.61410683 1.9656267 -0.36830497 8
1.5098274 4.8326397 -0.9957993 1
1.5115594 4.8381834 -1.0867511 1
0.98368257 3.1485608 -0.82397377 1
0.99711049 3.1915407 -1.1502752 0
0.55462646 1.7752424 -0.86695302 18
1.2392031 3.8712692 1.0729717 15
1.7588447 5.4946289 1.1148506 25
3.0228631 9.4434214 1.3871714 12
4.6044221 14.38421 1.3112646 15
7.3009911 22.808289 1.232028 0
12.799453 39.985477 1.4169639 48
1.7255259 4.2880545 0.12854496 16
2.5229979 10.436793 0.23541629 41
12.812413 40.025963 0.67341298 34
1.7186387 4.2709394 0.046605077 18
2.5264015 10.450872 0.045413055 47
8.1898642 25.585127 -0.044542179 0
1.7141982 4.2599049 -0.034622539 19
2.5243163 10.442246 -0.14438465 35
8.6016626 26.871584 -0.54569137 74
1.7211651 4.2772174 -0.11638282 18
2.5252008 10.445906 -0.33453986 38
9.054348 28.285774 -1.1009732 5
1.7290778 4.2968817 -0.19898596 25
2.5159085 10.407467 -0.52273518 71
7.0099092 21.898949 -1.2593731 1
1.7289903 4.2966638 -0.28084025 21
2.5236626 10.439543 -0.71468437 42
5.6872673 17.767017 -1.3519404 1
1.7238964 4.2840052 -0.36181062 21
1.3833183 5.722322 -0.49590996 6
1.9068131 5.956882 -0.5639329 1
1.7167999 4.2663698 -0.44168371 23
0.61338848 2.5373816 -0.26612854 1
1.601614 5.0034404 -0.56663436 0
0.70298278 2.1961176 -0.28958419 1
0.6494354 2.0288355 -0.30522728 5
0.63326365 1.9783149 -0.33475867 18
0.63141561 1.9725417 -0.37041762 10
1.5447249 4.8257189 -0.99657124 0
1.5560303 4.8610368 -1.094298 1
1.0170609 3.1772974 -1.1476729 0
0.57584858 1.7989503 -0.88047278 17
1.267404 3.8661988 1.0739926 16
1.7959378 5.4784842 1.1140918 24
3.0813122 9.3995018 1.3838462 11
3.7948174 11.576039 1.0576612 2
8.3945713 25.607529 1.3863654 1
8.3871908 25.585012 0.9087081 29
1.7280865 4.2093244 0.12654339 19
2.6064329 10.461611 0.23638076 6
8.3921347 25.600096 0.43168157 33
1.7225897 4.1959352 0.045916729 23
9.0994844 36.523193 0.15897948 28
8.2386942 25.132025 -0.043852422 17
1.724148 4.1997309 -0.034230471 19
9.0987434 36.520222 -0.50583005 14
8.7890501 26.810879 -0.54569137 89
1.7130175 4.1726189 -0.11385934 19
8.3687735 25.528831 -0.99591404 1
1.7332321 4.2218585 -0.19606727 22
2.5981629 10.428416 -0.52468568 5
7.1651087 21.857067 -1.2598106 1
1.7316504 4.2180052 -0.27648237 21
2.5974469 10.425543 -0.71494997 18
5.8086786 17.719296 -1.3513621 1
1.7265015 4.2054634 -0.35618663 22
1.5118845 6.0683494 -0.52679938 4
1.9620039 5.9850669 -0.56788403 2
1.720836 4.1916633 -0.43518275 21
0.63397372 2.5446217 -0.26734561 1
0.84736526 2.5848765 -0.29339734 0
0.71582466 2.1836135 -0.28858736 1
0.66605026 2.0317774 -0.30636197 5
0.64828938 1.9775982 -0.3353951 17
0.64885074 1.9793105 -0.37253025 10
1.5795994 4.8185468 -0.99734318 0
0.98644549 3.0091388 -0.79101485 1
1.0451089 3.1880908 -1.1541789 0
0.58500534 1.784551 -0.87540287 22
1.2906728 3.8462565 1.0709299 18
1.8353901 5.4695358 1.1148506 24
3.1430767 9.3664942 1.3821836 5
3.7994747 11.322587 1.0369024 5
7.4103141 22.083033 1.1983244 0
8.505827 25.347704 0.9023667 46
1.7265441 4.1233935 0.12431943 20
9.3987875 36.632404 0.82917386 5
8.4841309 25.283049 0.42732373 17
1.719399 4.106329 0.04506642 22
9.366169 36.505272 0.15918222 23
8.4279442 25.11561 -0.043925378 28
1.7163486 4.0990443 -0.033506654 21
8.4042149 32.755989 -0.45449451 3
8.4098406 25.061661 -0.51127142 30
1.7173951 4.1015434 -0.11224432 17
8.3869944 32.688873 -1.0505397 7
8.4196272 25.090826 -0.98109609 13
1.7302506 4.1322451 -0.19246183 24
6.3535719 24.763472 -1.2481277 1
7.3086295 21.780008 -1.2582793 1
1.7317556 4.1358395 -0.27188241 23
5.9208174 17.644272 -1.34876 1
1.7219344 4.1123843 -0.34931287 23
1.5779861 6.1503067 -0.53485751 2
2.0404937 6.0807528 -0.57830065 2
1.7254517 4.1207843 -0.42906418 22
0.65765661 2.5632608 -0.26977971 1
1.6789078 5.0032125 -0.56920803 10
0.74241507 2.2124267 -0.29307318 1
0.67769903 2.0195701 -0.30522728 4
0.66207975 1.9730241 -0.3353951 16
0.66265297 1.9747324 -0.37253025 13
1.6206921 4.8297276 -1.0019748 0
1.6685423 4.9723229 -1.1244855 0
0.99785215 2.9736395 -0.72812027 0
1.9346094 5.765213 -1.5190198 0
1.0685436 3.1843026 -1.1554801 0
0.59860289 1.7838606 -0.87709284 25
1.3200051 3.8444684 1.0729717 17
1.8748052 5.4603043 1.1156096 25
3.2148221 9.3630571 1.3849546 11
3.8305464 11.156332 1.0241011 2
8.5865383 25.007992 1.3602659 47
8.5981941 25.041937 0.89359671 52
1.7301682 4.052402 0.12254026 20
8.5129738 32.243099 0.73114949 30
8.5954914 25.034067 0.42411944 47
1.7166137 4.0206547 0.044256601 24
8.5118799 32.238956 0.14083453 51
8.6056757 25.063728 -0.043938644 49
1.7245058 4.0391393 -0.03311459 20
8.5122089 32.240204 -0.44815147 21
8.5988827 25.043945 -0.51212227 39
1.7130146 4.0122252 -0.1101246 18
8.5170212 32.258427 -1.038592 34
8.601078 25.050339 -0.98183697 53
1.7402265 4.0759606 -0.19040158 23
6.480402 24.544683 -1.2393504 1
7.4397507 21.668013 -1.2547792 1
1.7323672 4.0575523 -0.26752454 27
5.1472545 19.495354 -1.3417263 1
6.0244188 17.545908 -1.3444232 1
1.7333782 4.0599208 -0.34587598 21
1.6280071 6.1661172 -0.53720778 2
2.0997138 6.1153421 -0.58297014 3
1.7260362 4.0427241 -0.4221808 20
0.67959881 2.5739973 -0.27140242 1
1.7189616 5.0064154 -0.57092381 14
0.75784254 2.2071898 -0.29307318 1
0.7007826 2.0410047 -0.30919865 4
0.67583781 1.9683539 -0.3353951 17
0.67642295 1.9700582 -0.37253025 15
1.5281894 4.450798 -0.92555296 0
1.0287102 2.9960825 -0.73535621 0
2.02144 5.887373 -1.5548869 0
1.094433 3.1874976 -1.1593838 0
0.60515523 1.7624933 -0.86864299 21
1.346812 3.8351591 1.0729717 17
1.9193856 5.46561 1.1194042 25
3.2892976 9.3665485 1.388834 11
3.8027072 10.828526 0.99642271 4
8.7834167 25.011511 1.3637594 51
8.7940016 25.041651 0.89575547 50
1.7280993 3.9705658 0.12042749 17
8.7483425 32.221478 0.73202628 54
8.7978792 25.052692 0.42546526 45
1.720698 3.9535601 0.043649238 24
8.7524624 32.236652 0.14108795 72
8.8069487 25.078518 -0.044071287 51
1.7223336 3.9573181 -0.032541566 20
8.7559423 32.249466 -0.44911903 48
8.7801371 25.002171 -0.51250899 74
1.7202383 3.9525037 -0.10881238 18
8.7577314 32.256058 -1.0404588 32
8.7956181 25.046253 -0.98405969 67
1.7351485 3.9867623 -0.18679614 24
6.623332 24.394741 -1.2340841 1
7.567018 21.547714 -1.2508416 1
1.7383449 3.9941063 -0.26413509 23
5.2727737 19.420427 -1.3390704 1
6.1375113 17.477074 -1.3423994 1
1.7298512 3.9745908 -0.33962709 19
1.6783253 6.1815276 -0.53955805 4
2.1463151 6.1118107 -0.58404773 4
1.7113154 3.9320018 -0.41185573 23
0.70380807 2.5922322 -0.27383652 1
1.7604592 5.0130539 -0.5730685 16
0.78506821 2.2355471 -0.29755899 1
0.71501422 2.0360625 -0.30919865 3
0.6934883 1.9747657 -0.33730438 16
0.68624592 1.9541425 -0.37041762 18
1.5514218 4.4178023 -0.92092133 0
1.0432007 2.9706008 -0.67502671 0
1.1266851 3.2083297 -1.1697935 0
0.61744481 1.7582256 -0.86864299 25
1.3774742 3.8365831 1.0760344 16
1.9681127 5.4816475 1.1254755 25
3.358624 9.3545418 1.3904966 12
3.8324273 10.674193 0.98465937 2
8.9807634 25.013498 1.3672531 49
8.994278 25.051136 0.89831901 51
1.7282163 3.8962691 0.11853713 19
8.9838247 32.198135 0.73290306 58
8.9955406 25.054653 0.42655471 40
1.7206872 3.8792944 0.042960893 28
8.9955788 32.240261 0.14137515 62
9.0007381 25.06913 -0.04416414 46
1.7207264 3.8793828 -0.031998705 22
8.9991465 32.253048 -0.45003286 60
8.9801474 25.01178 -0.5139786 80
1.7121207 3.8599813 -0.10659172 20
9.0031214 32.2673 -1.0428234 25
8.9905195 25.040668 -0.98628235 71
1.7386338 3.9197552 -0.18422084 23
6.7666349 24.251701 -1.2292079 1
7.6943212 21.430458 -1.2471228 1
1.7370468 3.9161775 -0.25977722 26
5.3921351 19.325478 -1.3350867 1
6.2445445 17.392496 -1.339219 1
1.7316865 3.9040928 -0.33462799 21
1.7257243 6.1850171 -0.54090112 4
2.2064319 6.1454215 -0.58871722 6
1.7290376 3.8981206 -0.40956125 21
0.73044378 2.6179194 -0.277082 1
1.804821 5.0268426 -0.57607108 15
0.80065614 2.2300119 -0.29755899 1
0.73991519 2.0608344 -0.31373736 2
0.70592344 1.9661595 -0.33666795 16
0.70519394 1.9641277 -0.37323448 18
1.5716158 4.3773122 -0.91474587 0
1.0559843 2.9411595 -0.66999549 0
1.1516123 3.2075055 -1.1723959 0
0.62970448 1.7538722 -0.86864299 23
1.4042248 3.8268733 1.0760344 16
2.0049806 5.464087 1.1247166 25
3.4347658 9.3606195 1.3949302 11
3.8272336 10.430195 0.96459252 0
9.1730595 24.998945 1.3699248 49
9.178586 25.014006 0.89926344 27
1.7224412 3.8112366 0.11631316 20
9.2227097 32.184608 0.73404288 11
9.1895227 25.04381 0.42745191 7
1.7213715 3.8088698 0.042313036 25
10.483177 36.583279 0.16073653 11
9.8934259 26.962128 -0.04761954 3
1.7247055 3.8162467 -0.031576481 20
9.1752071 25.004797 -0.5151388 69
1.7225584 3.811496 -0.10558233 21
9.3636351 32.676395 -1.0581317 6
1.7429147 3.8565383 -0.1818172 24
6.9291739 24.180826 -1.2280375 1
7.8231072 21.319977 -1.2438415 1
1.7331026 3.8348269 -0.25517726 28
5.5170245 19.252832 -1.3326964 1
6.3548193 17.318516 -1.336906 1
1.7309809 3.8301322 -0.32931641 22
1.7798414 6.2111354 -0.54425865 3
2.2561426 6.1485682 -0.59051317 5
1.7217737 3.8097599 -0.40153065 23
0.76185673 2.6586611 -0.28195021 1
1.8453506 5.0290546 -0.57778686 13
0.83397818 2.272805 -0.30403849 1
0.7651962 2.0853562 -0.31827605 1
0.71555138 1.9500613 -0.33475867 17
0.72024518 1.9628532 -0.37393871 19
0.73008758 1.9896762 -0.41684622 0
1.1726737 3.195837 -1.1710948 0
0.64568007 1.759644 -0.8737129 26
1.4336222 3.8242197 1.0780762 16
2.0444567 5.4536343 1.1254755 25
3.5055931 9.3512487 1.3971471 11
3.8593898 10.29501 0.95455909 0
10.469156 27.92671 1.5343322 15
13.446418 35.868622 1.2928345 17
1.7306135 3.7591665 0.11508998 18
11.745774 39.934448 0.91264361 37
10.137695 27.04253 0.46276316 1
1.7261759 3.7495275 0.041786656 24
10.748477 36.543736 0.16088858 0
10.064566 26.847454 -0.047539953 7
1.7211971 3.7387128 -0.031033617 22
8.24438 28.030062 -0.3926768 1
1.7106647 3.7158346 -0.10326073 22
8.2253389 27.965322 -0.9074145 0
8.6138449 22.977625 -0.90967357 2
1.7363719 3.7716746 -0.17838345 26
7.0842886 24.085867 -1.2256969 1
7.964747 21.246143 -1.2427477 1
1.7331175 3.7646055 -0.25130358 26
5.6276488 19.133438 -1.3271192 2
6.4587646 17.228901 -1.3334365 1
1.7293282 3.7563744 -0.32400486 23
1.8254088 6.2062063 -0.54493016 3
2.3060045 6.1513195 -0.59230918 1
1.7233526 3.7433946 -0.39579448 23
0.78376752 2.6647305 -0.28316727 0
1.8887907 5.0383921 -0.58036053 14
0.86932904 2.3189549 -0.31101641 1
0.77000666 2.0540102 -0.31430468 2
0.73746508 1.9672048 -0.33857721 16
0.73669511 1.965151 -0.37534714 19
0.74396026 1.9845308 -0.41684622 0
1.1883174 3.1698635 -1.1645887 0
0.65794885 1.7550935 -0.8737129 29
1.4575194 3.8068941 1.0760344 16
1.6906986 4.4159346 0.91373742 13
1.6897873 4.4135547 0.66116476 12
1.6955744 4.4286699 0.41171634 14
10.509606 27.450033 1.5121372 11
13.450641 35.131721 1.2696278 5
1.7296565 3.6890683 0.11331081 16
12.050851 39.939533 0.91466022 39
1.6845741 4.3999381 0.075493008 0
1.7319344 3.693927 0.041300762 24
11.031067 36.559719 0.16129406 1
1.704811 4.4527946 -0.0079056397 0
1.7200878 3.6686602 -0.030551072 20
8.3220186 27.581251 -0.38719383 1
8.675477 22.659472 -0.46927136 4
1.7263789 3.6820781 -0.1026551 22
8.25984 27.375177 -0.89011496 1
8.659709 22.61829 -0.89781922 2
1.7355165 3.7015672 -0.17563646 25
7.2234135 23.940201 -1.2208207 1
8.0971689 21.148991 -1.2403414 0
1.7339326 3.6981888 -0.24767204 27
5.7414875 19.028727 -1.3226043 1
6.5760341 17.17594 -1.3328582 0
1.7301171 3.6900511 -0.31931821 24
1.8779026 6.2238393 -0.54761618 2
2.3531656 6.1462321 -0.59338671 0
1.7190189 3.6663804 -0.3889111 30
1.567919 5.196476 -0.55335265 1
1.9338728 5.0510812 -0.58336312 12
0.88407809 2.309123 -0.310518 1
0.80839527 2.1114471 -0.32394943 1
0.74976867 1.9583203 -0.33794081 15
0.75462008 1.9709917 -0.37745976 16
0.74797332 1.9536312 -0.41144264 1
1.203656 3.1438284 -1.1580826 0
0.67277819 1.757229 -0.87709284 25
1.4911009 3.8146367 1.081139 18
1.6900303 4.3235517 0.8970412 11
1.6845031 4.3094115 0.64730972 13
1.6959841 4.3387828 0.40445074 12
1.7219307 4.4051614 0.24332297 14
1.7115833 4.3786898 0.15866974 11
1.7209158 3.6047363 0.11108685 20
12.356568 39.942299 0.91667682 41
1.7108821 4.3768959 0.075300753 13
1.721493 3.6059453 0.040450454 27
11.303763 36.539135 0.16154748 3
1.7052742 4.3625498 -0.0077663623 12
1.726702 3.6168563 -0.030219324 24
8.410346 27.186235 -0.38246343 55
1.7282535 4.4213367 -0.091812283 6
1.721033 3.6049817 -0.10083819 32
8.3763123 27.076221 -0.88227421 4
1.7361217 4.4414654 -0.17677808 14
1.7354902 3.6352646 -0.17306113 28
7.3809242 23.858654 -1.2192602 1
1.7288978 4.4229851 -0.2600998 15
1.7373465 3.639153 -0.24452469 26
5.8694739 18.972929 -1.3215419 1
1.7226027 4.4068804 -0.34290019 19
1.7317836 3.6275005 -0.31494397 26
1.9330871 6.2486558 -0.55097377 2
1.7375473 4.4451127 -0.43031314 0
1.7239879 3.6111715 -0.3843222 23
1.6170956 5.227221 -0.55781519 2
0.92040581 2.3546453 -0.31749594 1
0.81446695 2.0836253 -0.32054541 1
0.7662974 1.9603946 -0.33921364 14
0.76406109 1.9546735 -0.37534714 14
0.75873613 1.9410508 -0.40989879 1
1.2800843 3.2747993 -0.75384974 2
1.2269516 3.1388717 -1.1593838 0
0.68502945 1.7524893 -0.87709284 24
1.511963 3.7897654 1.0770553 15
1.6910667 4.2386923 0.88186282 13
1.693996 4.2460346 0.63955086 15
1.6907927 4.2380056 0.39614722 15
1.7156355 4.3002748 0.23818523 20
1.7169267 4.3035107 0.15637605 15
1.7355528 3.5710571 0.11041967 37
12.671371 39.969425 0.91930717 38
1.7191659 4.3091235 0.074339464 14
1.7396315 3.5794494 0.040288489 51
11.591213 36.562279 0.16200364 4
1.7090086 4.2836642 -0.0076469821 19
1.7466649 3.5939212 -0.030128848 37
8.5334558 26.917164 -0.37950695 44
1.7279567 4.3311577 -0.090187967 25
1.7514019 3.603668 -0.10114101 41
8.5590925 26.998028 -0.88165194 6
1.7315372 4.3401327 -0.17322177 21
1.7485986 3.5978997 -0.17185932 41
7.5122933 23.6961 -1.2136039 1
1.7227334 4.3180656 -0.25463092 20
1.7435123 3.5874343 -0.24186155 46
5.9933429 18.90486 -1.3196828 1
1.7193242 4.3095202 -0.33625036 23
1.7466072 3.5938022 -0.31306931 45
1.977868 6.2388077 -0.55130953 1
1.7463937 4.3773704 -0.42492524 19
1.7369734 3.5739799 -0.38164532 57
1.6607641 5.2385645 -0.56024927 2
1.735998 4.3513141 -0.5052954 22
0.96770597 2.4255743 -0.32796285 0
0.83926409 2.1036322 -0.32451674 1
0.78435475 1.9660008 -0.34112293 14
0.786443 1.971235 -0.37957242 12
0.78681231 1.9721607 -0.41761816 1
1.2971181 3.2512524 -0.75049555 0
1.2502365 3.1337428 -1.1606849 0
0.70262104 1.7611337 -0.88385272 24
1.5310925 3.7612071 1.0719508 15
1.6895214 4.1503959 0.86592555 15
1.692232 4.1570544 0.62791258 16
1.6902884 4.1522799 0.38922763 16
1.7215167 4.2289939 0.23489708 16
1.7197978 4.224771 0.15394743 17
1.7604411 3.5588536 0.11041967 39
12.977271 39.963665 0.9212361 40
1.7115086 4.2044082 0.072737321 15
1.7663518 3.5708027 0.040328979 50
8.3043118 25.573229 0.11356642 0
1.7162504 4.2160563 -0.0075474982 15
1.7681656 3.5744693 -0.03006853 35
8.7174587 26.84552 -0.37934569 37
1.7264867 4.2412028 -0.088563658 21
1.7676526 3.5734324 -0.10063632 42
8.2781382 25.492628 -0.83435833 1
1.7316527 4.2538934 -0.17025818 21
1.7683582 3.5748587 -0.17134425 52
7.6590309 23.586079 -1.210678 1
1.7227196 4.2319484 -0.25025582 20
1.7738254 3.5859113 -0.24258786 53
6.1165481 18.835983 -1.3178238 1
1.7192844 4.2235098 -0.33046788 22
1.7698858 3.5779469 -0.31275687 42
2.0423024 6.2892947 -0.55701733 0
1.7393597 4.2728257 -0.41594541 25
1.7636474 3.5653358 -0.38202772 55
1.7071279 5.2571211 -0.56349474 2
1.7393438 4.2727866 -0.49757445 31
1.7372935 4.2677498 -0.57866997 18
0.88080162 2.163734 -0.33472881 1
0.79954976 1.9641348 -0.34175932 14
0.80463934 1.9766376 -0.38168508 11
0.80648041 1.9811603 -0.42070588 1
1.2755457 3.1334431 -0.72533929 0
1.2777879 3.1389513 -1.1658899 0
0.71626586 1.7595435 -0.88554269 24
1.5587964 3.7539983 1.0729717 18
1.6928517 4.076839 0.85302395 14
1.6923482 4.0756269 0.61738271 16
1.702425 4.0998945 0.38542184 16
1.7218918 4.1467757 0.23099241 18
1.7201215 4.1425123 0.15138389 18
1.7960304 3.5679054 0.11108685 39
8.4970808 25.558062 0.59051347 37
1.7101438 4.1184835 0.071455605 13
1.7912375 3.5583842 0.040328979 47
8.3425694 25.093309 0.11169111 23
1.7210985 4.144865 -0.0074413824 15
1.7930768 3.5620379 -0.03006853 38
8.3418903 25.091269 -0.35537115 26
1.7269137 4.1588697 -0.087094039 22
1.8069402 3.5895786 -0.10144383 38
8.352479 25.123117 -0.82415289 14
1.7306499 4.1678677 -0.16729459 23
1.8022565 3.5802739 -0.17220269 47
7.8134208 23.501705 -1.2091177 1
1.7261835 4.1571112 -0.246537 20
1.8077925 3.5912716 -0.24379838 50
6.2416019 18.773888 -1.3164959 1
1.7227188 4.1487675 -0.32555279 20
1.8002003 3.5761893 -0.31369421 41
2.0861597 6.2748842 -0.55701733 0
1.7385919 4.1869936 -0.40876156 37
1.7974464 3.5707185 -0.38393977 50
1.753831 5.2752843 -0.56674021 2
1.7386284 4.1870818 -0.48899558 31
1.7396494 4.1895404 -0.56969833 24
0.91107023 2.1941006 -0.34040219 1
0.81475675 1.962152 -0.34239575 11
0.81388909 1.9600624 -0.37957242 12
0.81427127 1.9609828 -0.41761816 2
1.3168883 3.1714191 -0.73624033 0
1.3054727 3.1439273 -1.1710948 0
0.72297084 1.741107 -0.87878281 25
1.5909984 3.7572699 1.0770553 18
1.6906446 3.9925921 0.83784556 15
1.6945008 4.001699 0.60796124 15
1.6937134 3.9998395 0.37711832 15
1.7196468 4.0610833 0.22688222 15
1.7209408 4.0641394 0.14895527 19
1.8281859 3.5695155 0.11153165 38
8.5761194 25.206602 0.58376229 37
1.7185808 4.0585661 0.070622489 15
1.8269757 3.5671525 0.040571924 45
8.5330105 25.079897 0.11189385 41
1.718799 4.0590811 -0.0073087374 15
1.8270174 3.5672338 -0.030219324 38
8.5297394 25.070284 -0.35590869 44
1.7309554 4.0877895 -0.085856475 22
1.8356017 3.5839946 -0.10164571 41
8.5289545 25.067978 -0.82427734 47
1.7300907 4.0857477 -0.16447918 25
1.8272073 3.5676048 -0.17220269 48
7.9579992 23.389849 -1.2061919 1
1.7286881 4.0824351 -0.24281816 20
1.8364604 3.5856712 -0.24428259 49
6.3660879 18.710962 -1.3151679 1
1.7267505 4.0778594 -0.32092682 19
1.8305764 3.5741827 -0.31463152 39
5.2946181 15.56174 -1.3846531 2
1.7413722 4.1123896 -0.40265527 38
1.825961 3.5651712 -0.38470459 44
1.7867713 5.2516098 -0.56552315 3
1.7399045 4.1089234 -0.4812746 28
1.7379042 4.1041994 -0.55972987 20
0.93562937 2.2095635 -0.34380621 1
0.82997507 1.9600525 -0.34303218 8
0.82448238 1.947081 -0.37816399 15
0.82947206 1.9588645 -0.4183901 2
1.3511972 3.1909604 -0.74294865 0
1.2650486 2.9875133 -0.81040245 17
1.3318143 3.1451857 -1.1749984 0
0.74641776 1.7627252 -0.89230251 22
1.6141242 3.7389693 1.0750135 16
1.6904579 3.9157891 0.82418507 15
1.6988448 3.9352169 0.59964818 16
1.6994839 3.936697 0.37227461 16
1.7178738 3.9792955 0.22297755 16
1.7159976 3.9749496 0.14612187 17
1.8604513 3.5708497 0.11197644 36
8.7098198 25.025257 0.58095658 63
1.7135841 3.9693587 0.06927669 13
1.8555307 3.5614054 0.040652908 44
8.7105207 25.027271 0.11192764 56
1.7090453 3.9588454 -0.0071495632 15
1.8629657 3.5756757 -0.030400278 33
8.7111263 25.029011 -0.35617748 53
1.7309194 4.0095143 -0.084464207 21
1.8698161 3.588824 -0.1021504 38
8.7221508 25.060688 -0.82601976 46
1.7379762 4.0258608 -0.16255285 24
1.8631483 3.5760262 -0.17323282 42
8.092205 23.250711 -1.2019007 1
1.7318182 4.0115967 -0.23931807 19
1.8632928 3.5763037 -0.24452469 46
6.4768801 18.609524 -1.3111842 1
1.7267146 3.9997747 -0.31572261 21
1.8628544 3.5754621 -0.31588131 40
5.4123006 15.550749 -1.3870034 1
1.7416177 4.034296 -0.39618981 44
1.856325 3.5629299 -0.38585183 47
1.8417029 5.2916236 -0.57120275 2
1.7401751 4.0309548 -0.4735536 26
1.7319076 4.0118036 -0.54876453 23
0.9620176 2.2284248 -0.34777758 0
0.84676898 1.9614619 -0.34430504 6
0.84585845 1.9593529 -0.38168508 18
0.84312713 1.9530261 -0.4183901 5
1.8942949 4.3879585 -1.024699 0
1.3642333 3.16012 -1.1841069 0
0.75583178 1.7508143 -0.88892257 24
1.630842 3.7063699 1.0688881 15
1.6892828 3.8391869 0.81052452 16
1.6959627 3.8543682 0.5891183 17
1.7044563 3.8736713 0.36743087 16
1.7150439 3.8977334 0.21907288 15
1.7195548 3.9079854 0.14409803 18
1.8890792 3.5648403 0.11219884 39
8.8977242 25.001518 0.58183336 56
1.7187023 3.9060478 0.068379492 15
1.8972042 3.5801728 0.041017327 44
8.9118528 25.041218 0.11226553 76
1.7156986 3.8992214 -0.0070633441 15
1.8916287 3.5696516 -0.030460596 33
8.9124689 25.04295 -0.35725257 49
1.7298763 3.9314425 -0.08307194 21
1.8985697 3.5827496 -0.10235228 39
8.9183416 25.059452 -0.82801104 46
1.7274023 3.9258201 -0.15899654 23
1.8899393 3.5664632 -0.17340451 39
8.2476292 23.174831 -1.2009255 1
1.7276105 3.9262934 -0.23494297 20
1.8956926 3.5773203 -0.2454931 48
6.5986114 18.541292 -1.3095907 1
1.7256742 3.9218926 -0.31051838 20
1.8915046 3.5694172 -0.31650621 39
5.5046954 15.467523 -1.3829743 1
1.7456725 3.9673424 -0.39080191 33
1.8960686 3.5780299 -0.3889111 45
1.8759317 5.2711391 -0.57039136 2
1.7442483 3.9641056 -0.46711946 27
1.7358965 3.9451246 -0.5412882 21
1.0174189 2.3122602 -0.36196098 0
0.85726076 1.9482732 -0.34303218 2
0.85951662 1.9534 -0.38168508 19
0.85674119 1.9470923 -0.4183901 16
1.9264573 4.3782072 -1.0255375 0
1.2293551 2.7939217 -1.0500816 0
0.77533692 1.7620871 -0.89737242 22
1.655095 3.6913652 1.0678672 16
1.6967626 3.7842968 0.80141753 15
1.6936566 3.7773695 0.57914269 17
1.6988502 3.7889528 0.36051127 18
1.7258698 3.8492146 0.21701778 16
1.7189908 3.8338726 0.14180434 18
1.9271983 3.5762045 0.11297722 40
9.099391 25.013954 0.58358693 60
1.7213851 3.8392124 0.067418203 13
1.9278445 3.5774038 0.041138798 46
9.1097012 25.042295 0.11255274 66
1.7150576 3.8251004 -0.0069505959 20
1.9335812 3.5880489 -0.030732026 34
9.1116943 25.047775 -0.35822013 46
1.7327375 3.864532 -0.081911713 22
1.9273293 3.5764475 -0.10255416 39
8.423357 23.155556 -0.7670272 6
1.7351428 3.8698964 -0.15721838 26
1.9280624 3.5778079 -0.17460632 42
8.3682432 23.004051 -1.195074 1
1.7271998 3.8521812 -0.23122413 22
1.9244087 3.571028 -0.24597731 49
6.7115183 18.449764 -1.3064038 1
1.7236317 3.844223 -0.30531418 27
1.9239447 3.5701671 -0.31775597 42
5.6016431 15.39875 -1.3802882 1
1.7358395 3.8714502 -0.38254046 42
1.9210016 3.5647054 -0.3889111 52
1.9249284 5.2915707 -0.5740425 3
1.7344576 3.8683684 -0.45725375 27
1.7406635 3.8822093 -0.53431028 24
1.0497361 2.3412311 -0.36763436 0
0.88538224 1.9746718 -0.34876001 0
0.87313282 1.9473519 -0.38168508 16
0.87031347 1.9410638 -0.4183901 22
1.1637179 2.5954449 -0.97851473 0
0.78168654 1.7433988 -0.89061254 24
1.6792179 3.6762028 1.0668463 18
1.6970321 3.7152021 0.78927481 16
1.6936514 3.7078009 0.57027543 18
1.6987689 3.7190042 0.35497558 21
1.7261441 3.778935 0.21372963 16
1.712494 3.7490518 0.13910587 20
1.9501963 3.5591562 0.11286602 35
1.7232196 3.7725327 0.066456914 15
1.9527724 3.5638578 0.041138798 37
1.7134668 3.7511814 -0.0068378476 19
1.9643494 3.5849862 -0.030822504 36
1.7247802 3.7759492 -0.080287404 25
1.9657011 3.5874529 -0.10326073 36
8.4928713 22.848848 -0.75881308 2
1.7388659 3.8067861 -0.15514387 27
1.952993 3.5642605 -0.17460632 44
8.5230684 22.93009 -1.1942939 1
1.7208616 3.7673705 -0.22684903 24
1.9569664 3.5715122 -0.24694572 48
6.8179088 18.342602 -1.3021544 1
1.7321936 3.7921789 -0.30213383 23
1.9622356 3.5811286 -0.31994307 41
5.689568 15.306964 -1.3755877 1
1.7462722 3.8230002 -0.37894854 38
1.953494 3.5651746 -0.39044076 46
1.9770744 5.3190341 -0.57850504 3
1.7432454 3.8163738 -0.45253539 30
1.7347438 3.7977619 -0.52434176 25
1.7257593 3.7780926 -0.59513646 22
1.6686713 3.6531136 -0.64724255 0
0.88997847 1.948372 -0.38309351 17
0.8838433 1.9349407 -0.4183901 22
2.2670429 4.9630899 -1.3629496 0
1.1000881 2.4083514 -0.91085148 0
0.79534489 1.7411969 -0.89230251 22
1.6999474 3.6538703 1.0637835 18
1.6947644 3.64273 0.77637321 17
1.6961007 3.6456025 0.56251657 18
1.704519 3.6636965 0.35082382 18
1.7238374 3.7052195 0.21023597 17
1.7217619 3.7007587 0.13775663 18
1.9866711 3.5664134 0.11353321 38
10.378901 27.337025 0.64110386 1
1.7140857 3.6842594 0.065111116 14
1.9912301 3.5745976 0.041422237 44
10.717787 28.229614 0.12753837 1
1.712616 3.6811004 -0.0067317318 15
1.9971151 3.5851622 -0.03094314 34
8.6910782 22.89146 -0.3290852 0
1.7291681 3.7166772 -0.079281874 25
1.9906981 3.5736425 -0.10326073 39
8.5883188 22.620802 -0.75321251 2
1.7283043 3.7148209 -0.15188393 27
1.991442 3.5749781 -0.17580813 40
8.6801052 22.86256 -1.1939037 1
1.728588 3.7154305 -0.22444274 23
1.9935102 3.5786908 -0.24839835 51
6.9259639 18.242321 -1.2984362 2
1.7216018 3.7004144 -0.29577309 28
1.9891292 3.5708261 -0.32025552 39
5.7821426 15.229606 -1.3722302 1
1.7409898 3.7420871 -0.3721239 27
1.9957746 3.5827558 -0.39388245 45
2.0183971 5.3162627 -0.57972211 3
1.7379719 3.7356002 -0.44438544 32
1.732754 3.724385 -0.5158686 25
1.7303797 3.7192817 -0.5877611 22
1.6874707 3.627053 -0.64469683 1
0.91020274 1.9563916 -0.38591036 16
0.9089191 1.9536326 -0.42379364 18
0.93049622 2.0000105 -0.47293797 1
1.0961326 2.3560297 -0.89393562 0
0.81665719 1.7553246 -0.90244234 21
1.6972647 3.5824964 1.0464281 19
1.6999761 3.5882196 0.76726621 22
1.7045497 3.597873 0.55697453 30
1.702756 3.5940871 0.34528816 31
1.7205869 3.6317236 0.20674232 19
1.7201703 3.6308441 0.13559787 21
2.0194013 3.5663745 0.11397801 37
1.70569 4.3998089 0.10346042 0
1.7192165 3.6288309 0.064342089 17
2.0240202 3.5745318 0.041584201 43
1.7162056 4.4269338 0.020054054 6
1.7194346 3.6292915 -0.0066587771 21
2.0260372 3.578094 -0.031003458 32
1.7131745 4.4191151 -0.063699111 10
1.7293891 3.6503029 -0.078121655 24
2.035301 3.5944541 -0.10427012 36
1.7067189 4.402463 -0.14698347 14
1.7387937 3.6701539 -0.15055031 28
2.0222585 3.5714207 -0.17632321 40
1.7219938 3.6346931 -0.22028638 24
2.0302494 3.5855329 -0.24985097 46
1.7167617 4.4283686 -0.316044 0
1.7268962 3.645041 -0.29230362 24
2.0277638 3.5811434 -0.32244265 35
1.7202494 4.4373651 -0.4008913 6
1.7431926 3.6794384 -0.36709517 28
2.0246618 3.575665 -0.39464727 46
1.7160016 4.4264078 -0.48398072 18
1.7367655 3.6658726 -0.43752235 33
1.7332242 3.6583979 -0.50839221 27
1.7325691 3.6570151 -0.57981837 20
1.7144417 3.6187525 -0.64533329 1
0.92215282 1.9464313 -0.38520616 15
0.92757702 1.9578805 -0.42610946 14
0.93606347 1.9757932 -0.46874526 1
2.2170751 4.6796846 -1.2020768 0
1.0736874 2.2662826 -0.86270642 0
0.82578725 1.7430279 -0.8990624 21
1.7155128 3.5566261 1.0423445 24
1.7164538 3.5585773 0.7634716 34
1.7244626 3.5751812 0.55531192 38
1.729537 3.5857015 0.34563413 33
1.7302794 3.5872409 0.20489274 30
1.7333184 3.5935414 0.1346534 38
2.0542219 3.5695174 0.11453399 37
1.7260642 4.3617644 0.10284667 17
1.7340828 3.5951259 0.063957572 28
2.0569057 3.5741813 0.041746162 42
1.7191044 4.3441772 0.019733053 17
1.734303 3.5955825 -0.0066189836 29
2.0529625 3.5673292 -0.031033617 31
1.7116059 4.3252287 -0.06251651 15
1.7270314 3.5805068 -0.076884083 31
2.0663288 3.590555 -0.10457294 37
1.7065183 4.3123722 -0.14436989 18
1.7348515 3.5967195 -0.14803126 41
2.0571089 3.5745344 -0.17718163 40
1.7273654 4.3650527 -0.22918426 14
1.7403858 3.6081934 -0.21941136 41
2.0671804 3.5920348 -0.25130358 46
1.7241378 4.3568964 -0.31179467 14
1.7332355 3.5933692 -0.28912327 55
2.0606716 3.580725 -0.32369241 37
1.7189195 4.3437099 -0.39350471 33
1.7463371 3.6205316 -0.36242568 25
2.0495751 3.5614431 -0.39464727 45
1.7175765 4.3403163 -0.47586703 20
1.7398546 3.6070921 -0.4319461 33
1.7414795 3.610461 -0.50340801 40
1.7425754 3.6127331 -0.57471234 47
1.7430946 3.6138093 -0.64660615 0
0.94256127 1.954132 -0.38802302 12
0.92928702 1.9266115 -0.42070588 12
0.92604584 1.9198918 -0.45700568 2
2.2903173 4.7483196 -1.2237847 0
0.84266078 1.7470168 -0.90413231 20
1.7471188 3.5584497 1.0464281 25
1.7447174 3.5535583 0.76498944 33
1.7511259 3.5666111 0.55586612 30
1.756284 3.577117 0.34598011 33
1.7535204 3.5714881 0.20468722 31
1.7477926 3.5598218 0.13384387 34
2.0831285 3.5619926 0.11475639 39
1.7280219 4.2791538 0.10118078 17
1.7591393 3.5829322 0.063957572 25
2.0898845 3.573545 0.041908126 44
1.7299196 4.2838531 0.019513421 21
1.7593627 3.5833874 -0.0066189836 31
2.0899322 3.5736265 -0.031214571 35
1.7148023 4.246418 -0.06154893 16
1.7502232 3.5647726 -0.076806739 43
2.0974009 3.5863972 -0.10487576 37
1.7096356 4.2336235 -0.14212966 18
1.7563957 3.5773444 -0.14773491 53
2.0941181 3.5807841 -0.17821176 40
1.7308691 4.2862043 -0.22567335 18
1.7655333 3.5959554 -0.21941136 42
2.1002693 3.5913019 -0.25227201 43
1.7171507 4.2522335 -0.30515507 21
1.7653128 3.5955064 -0.29027975 43
2.0896456 3.5731363 -0.32431731 35
1.7238299 4.2687731 -0.38779688 18
1.7575245 3.5796432 -0.35955215 53
2.0824287 3.560796 -0.3961769 47
1.7225047 4.2654915 -0.46897042 22
1.7614889 3.587718 -0.43108821 58
1.7561481 3.5768399 -0.50041747 42
1.7607743 3.5862625 -0.57244301 40
1.0686266 2.1765287 -0.39076394 1
0.96138686 1.9581077 -0.39013568 9
0.9461742 1.9271232 -0.42224976 23
0.95666391 1.9484881 -0.4653911 5
2.2821977 4.648273 -1.2020768 0
0.86442369 1.7606176 -0.91427213 20
1.7753762 3.5530853 1.0484699 28
1.7712384 3.5448046 0.76574838 31
1.779524 3.5613866 0.55697453 39
1.7847764 3.5718982 0.34667206 34
1.7784111 3.5591593 0.20468722 31
1.7815365 3.5654142 0.13451847 32
2.1222429 3.5714245 0.11553477 38
1.7228184 4.181942 0.09916418 17
1.787685 3.5777194 0.064085744 25
2.1209114 3.5691838 0.042029601 37
1.7247406 4.1866078 0.019124843 19
1.7789725 3.5602829 -0.0065990868 34
2.1270897 3.579581 -0.031395525 39
1.7124124 4.1566825 -0.060420085 14
1.7786423 3.559622 -0.076961435 42
2.1285155 3.5819802 -0.10517857 39
1.708692 4.1476517 -0.13964052 18
1.7777539 3.5578442 -0.14743854 48
2.1211071 3.5695128 -0.17838345 44
1.7318352 4.2038293 -0.2219674 19
1.7905945 3.5835421 -0.21941136 40
2.1293693 3.5834172 -0.25275621 47
1.7224704 4.181097 -0.30090576 23
1.7903709 3.5830946 -0.29027975 43
2.1287994 3.5824583 -0.32650441 40
1.7262607 4.1902976 -0.3817533 18
1.7895949 3.5815415 -0.36098891 45
2.129611 3.5838237 -0.40038341 46
1.7234414 4.183454 -0.46126243 20
1.7882702 3.5788906 -0.43151715 55
1.789946 3.5822442 -0.50290954 43
1.7875378 3.5774248 -0.57301033 38
1.1314543 2.2643955 -0.40794736 0
0.97151351 1.9443038 -0.38872725 4
0.96311337 1.9274925 -0.42379364 21
0.96150243 1.9242684 -0.46119839 11
2.3145928 4.6322274 -1.2020768 0
1.2784127 2.5585053 -0.71443373 0
0.8766939 1.75454 -0.91427213 20
1.8071491 3.5543945 1.0525535 25
1.8066219 3.5533576 0.77030188 32
1.811525 3.5630014 0.55919135 32
1.8150873 3.5700078 0.34771001 34
1.8086464 3.5573397 0.20530376 33
1.8100076 3.5600169 0.13478832 35
2.1553907 3.5702136 0.11597957 38
1.7287359 4.1145101 0.097849004 21
1.8180562 3.5758474 0.064277999 25
2.1581807 3.5748351 0.042272545 44
1.7275865 4.1117744 0.018837633 20
1.818287 3.5763013 -0.0066521447 30
2.1582301 3.5749166 -0.031486001 36
1.7135025 4.0782537 -0.059452504 14
1.8088871 3.5578129 -0.077193476 43
2.1576042 3.5738797 -0.10538045 39
1.7097301 4.0692749 -0.1374003 19
1.8134184 3.5667253 -0.14832762 46
2.150106 3.5614598 -0.17872682 40
1.7332846 4.1253366 -0.21845649 21
1.8300496 3.5994365 -0.2211614 42
2.1646521 3.5855544 -0.25396672 47
1.7268819 4.1100974 -0.29665643 22
1.8279984 3.595402 -0.29230362 39
2.1599412 3.5777509 -0.32744175 37
1.7261369 4.1083245 -0.37537396 21
1.8109437 3.5618579 -0.36027053 48
2.158695 3.5756865 -0.40114823 42
1.7248595 4.1052842 -0.45396012 23
1.818619 3.5769541 -0.43280399 53
1.8185084 3.5767365 -0.50390643 43
1.8178527 3.5754468 -0.57471234 40
1.8183943 3.5765121 -0.64660615 43
1.0011243 1.969063 -0.39506519 1
0.98544019 1.9382148 -0.42765334 19
0.98023057 1.9279683 -0.463714 19
1.2610668 2.4803317 -0.69504613 5
0.89385068 1.7580719 -0.91934198 20
1.8425803 3.5623031 1.058679 26
1.8386022 3.5546122 0.77333754 30
1.8454549 3.5678606 0.56196237 28
1.8454586 3.5678678 0.34874794 35
1.8426136 3.5623674 0.2063313 34
1.8403269 3.5579467 0.13519309 34
2.1886241 3.5687129 0.11642436 35
1.7259232 4.0288224 0.096095443 22
1.8448135 3.5666206 0.064342089 27
2.189358 3.5699098 0.04239402 36
1.7278978 4.0334315 0.018533526 24
1.8560737 3.5883904 -0.0066985702 32
2.1935904 3.5768111 -0.031636797 33
1.7167323 4.0073676 -0.058592431 14
1.8391932 3.5557547 -0.077425517 40
2.197135 3.5825908 -0.10608703 38
1.7066097 3.9837389 -0.13491116 18
1.8456202 3.5681801 -0.14892034 47
2.1937203 3.5770228 -0.18027201 43
1.7290041 4.0360141 -0.21436043 21
1.8551338 3.5865729 -0.2211614 41
2.1958928 3.5805652 -0.25469303 46
1.7288152 4.035573 -0.2921415 22
1.8530543 3.5825527 -0.29230362 41
2.1932046 3.5761821 -0.32869154 37
1.7218151 4.0192327 -0.36832309 17
1.8504082 3.5774367 -0.36314407 44
2.1981761 3.5842884 -0.4038251 41
1.7237043 4.0236425 -0.44625214 21
1.8508549 3.5783005 -0.43451974 54
1.8507276 3.5780542 -0.50590008 42
1.8573225 3.5908043 -0.57925105 32
1.8451329 3.5672381 -0.64724255 59
1.8922093 3.6582518 -0.73660994 0
0.99173468 1.9173436 -0.42456558 19
0.99726009 1.928026 -0.4653911 19
1.299747 2.5128307 -0.70667869 6
1.0860913 2.0997653 -0.8132602 0
0.89944005 1.7389082 -0.91258216 21
1.8710061 3.5561979 1.0607208 25
1.8688591 3.5521166 0.77561432 31
1.8740072 3.561902 0.56307077 33
1.8814548 3.5760574 0.35082382 34
1.8692983 3.5529518 0.2065368 30
1.8762895 3.5662396 0.13600263 35
2.2198274 3.5635283 0.11675796 36
1.7268012 3.9543726 0.094604909 21
1.8808414 3.5748913 0.064726599 26
2.2290313 3.5783036 0.042677455 36
1.7272007 3.9552877 0.018229421 24
1.8829426 3.5788851 -0.0067052026 29
2.2290819 3.5783849 -0.031787593 34
1.7190571 3.9366388 -0.057732359 15
1.8695583 3.5534461 -0.077657565 42
2.2263212 3.5739532 -0.10628891 38
1.71358 3.9240963 -0.13329323 18
1.8797914 3.5728958 -0.14966124 45
2.2228651 3.5684049 -0.1806154 37
1.7347546 3.9725859 -0.21162972 20
1.8857063 3.5841382 -0.22181767 39
2.2292807 3.5787039 -0.25566146 47
1.7234048 3.9465952 -0.28656426 21
1.8891654 3.5907128 -0.29403836 42
2.2244432 3.5709381 -0.32962885 40
1.7195256 3.9377117 -0.36194375 18
1.871628 3.55738 -0.36242568 47
2.2315667 3.5823736 -0.40535474 40
1.727865 3.956809 -0.44016686 19
1.881346 3.5758505 -0.43580657 55
1.8885975 3.5896335 -0.5093891 42
1.8805021 3.5742466 -0.57868373 44
1.8773468 3.5682492 -0.64978826 58
1.1183541 2.1256416 -0.42957175 0
1.0160607 1.9312137 -0.42919722 16
1.0161591 1.9314007 -0.46790671 18
1.3407482 2.5483432 -0.71928066 0
1.0989625 2.0887842 -0.81195903 0
0.91999823 1.748629 -0.92103195 19
1.8994366 3.5498693 1.0627626 27
1.9065814 3.5632224 0.7809267 30
1.9044348 3.5592105 0.56473339 31
1.9176545 3.5839169 0.3528997 31
1.9053646 3.5609481 0.20776986 30
1.9049127 3.5601037 0.13627248 33
2.2574778 3.568218 0.11742514 34
1.7332287 3.8947246 0.09346509 22
1.9095265 3.5687263 0.064854771 26
2.2646503 3.5795555 0.042879909 41
1.7271245 3.8810079 0.017942211 24
1.9248657 3.597394 -0.006764893 29
2.2668407 3.5830173 -0.031968545 33
1.7156008 3.855113 -0.056711022 17
1.9037541 3.5579383 -0.078044303 40
2.2661831 3.5819781 -0.10699548 40
1.7165506 3.8572474 -0.13142638 18
1.9141182 3.5773077 -0.15040213 45
2.2584062 3.5696857 -0.18147382 38
1.7267098 3.8800759 -0.20733862 22
1.916335 3.5814507 -0.22247393 38
2.262749 3.5765498 -0.25662988 45
1.7265743 3.8797715 -0.28258052 24
1.9217159 3.5915072 -0.29519486 40
2.259979 3.5721714 -0.33119109 39
1.7259064 3.8782706 -0.35757893 19
1.9095739 3.568815 -0.36494002 45
2.2650366 3.5801659 -0.4068844 41
1.7263238 3.8792086 -0.43286458 19
1.9081402 3.5661356 -0.43623552 52
1.9136115 3.5763609 -0.5093891 41
1.916617 3.5819778 -0.58208776 35
1.9133902 3.5759473 -0.65360677 67
1.1536007 2.1559718 -0.43731815 1
1.0369248 1.9379156 -0.43228495 15
1.0277725 1.9208108 -0.4670682 14
1.0312562 1.9273214 -0.50742292 1
0.93047297 1.7389669 -0.91934198 20
1.9334148 3.5535088 1.0678672 28
1.9351648 3.556725 0.7824446 32
1.9405957 3.5667067 0.56805861 31
1.9407235 3.5669417 0.35255373 31
1.9339964 3.5545776 0.20818087 30
1.9488263 3.5818341 0.13762172 30
2.2931397 3.569191 0.11798114 35
1.7256974 3.8060443 0.091623843 22
1.9439515 3.5728743 0.065175205 25
2.2917469 3.567023 0.042920399 39
1.7327037 3.821497 0.017722579 23
1.9518449 3.5873823 -0.0067715254 28
2.2982852 3.5771999 -0.032059025 33
1.7176982 3.7884021 -0.055904705 16
1.9400146 3.5656388 -0.078508392 39
2.3062644 3.5896192 -0.10770205 39
1.7137195 3.7796268 -0.12918615 19
1.9428662 3.5708799 -0.1506985 46
2.2940724 3.5706429 -0.18233226 42
1.7339576 3.8242624 -0.204998 22
1.9508355 3.5855267 -0.22356771 39
2.3070858 3.5908978 -0.25880879 45
1.7239513 3.8021934 -0.27780002 21
1.948649 3.5815082 -0.29548398 38
2.2956395 3.573082 -0.3327533 37
1.7167286 3.7862637 -0.35019234 19
1.9363462 3.5588963 -0.36529922 45
2.2964323 3.5743155 -0.40803161 41
1.7320009 3.819947 -0.42759067 20
1.9462947 3.5771811 -0.43923813 54
1.9575003 3.5977764 -0.5143733 41
1.9415771 3.5685103 -0.58208776 43
1.942083 3.5694401 -0.65487963 64
1.9420611 3.5694001 -0.72675091 19
1.0541801 1.9375243 -0.43382883 11
1.0486342 1.9273311 -0.47042236 17
1.0390997 1.9098073 -0.50470942 2
0.9495213 1.7451673 -0.92610186 18
1.9681653 3.5609171 1.0739926 28
1.9625108 3.5506866 0.78396243 32
1.9661247 3.557225 0.56861281 33
1.9797595 3.5818942 0.35532156 32
1.9710556 3.5661464 0.20961945 27
1.9822083 3.5863245 0.13829634 34
2.3276787 3.570652 0.11853713 34
1.7274449 3.7436798 0.090396352 23
1.9772782 3.5774047 0.065495633 24
2.3306437 3.5752003 0.043203838 35
1.7211409 3.7300179 0.017350895 25
1.9794643 3.5813599 -0.0067847897 30
2.3306966 3.5752819 -0.032179661 36
1.7142979 3.715188 -0.054990876 17
1.9713584 3.5666943 -0.078817785 39
2.3365719 3.5842943 -0.10800487 34
1.7169728 3.7209849 -0.12756822 20
1.9781084 3.5789068 -0.15158758 43
2.3307974 3.5754364 -0.18336239 42
1.7258044 3.7401247 -0.201097 22
1.9842328 3.5899875 -0.22466148 39
2.3373919 3.5855522 -0.2595351 36
1.7257196 3.7399406 -0.27408186 26
1.9800789 3.5824721 -0.29664049 38
2.3367081 3.5845032 -0.33525285 34
1.7217623 3.7313645 -0.34616327 19
1.9772515 3.5773563 -0.36853194 42
2.3353078 3.5823553 -0.41070849 39
1.7239523 3.7361107 -0.41947702 21
1.9757478 3.5746357 -0.44052497 51
1.9832386 3.5881886 -0.51487172 40
1.9728633 3.569417 -0.58435708 34
1.9733548 3.5703063 -0.65742534 63
1.9695009 3.5633335 -0.72815937 43
1.0802972 1.9545354 -0.43923241 4
1.0557177 1.9100648 -0.46790671 20
1.0573976 1.9131043 -0.50742292 7
0.95932096 1.7356583 -0.92441189 19
1.9986603 3.5572054 1.0770553 33
1.9949462 3.5505953 0.78699809 31
2.0044937 3.5675879 0.57249224 28
2.0086212 3.574934 0.35601354 31
1.9959036 3.5522993 0.20961945 29
2.0130718 3.582855 0.1387011 33
2.3591704 3.5643175 0.11887072 35
1.728026 3.6772389 0.089081176 23
2.0061231 3.5704875 0.065623805 24
2.364377 3.5721838 0.043365803 35
1.728426 3.6780899 0.017165054 25
2.0122559 3.5814028 -0.0068113185 30
2.3666384 3.5756006 -0.032330453 34
1.7112747 3.641592 -0.054077052 18
2.0001283 3.5598183 -0.078972481 39
2.3703661 3.5812325 -0.10840863 37
1.7123009 3.6437757 -0.12532799 21
1.9991293 3.5580401 -0.15129121 42
2.362319 3.5690746 -0.18387745 41
1.7297835 3.6809788 -0.19856134 23
2.0072906 3.5725656 -0.22444274 38
2.3733852 3.5857937 -0.26074564 36
1.7297196 3.6808429 -0.27062926 26
2.0109036 3.5789959 -0.29750785 41
2.3682787 3.5780785 -0.33619019 34
1.725732 3.6723571 -0.34179845 21
1.9982747 3.556519 -0.36781356 44
2.362458 3.5692847 -0.41109091 38
1.7212213 3.6627584 -0.41258037 22
2.0162394 3.5884929 -0.44395649 53
2.0160167 3.5880961 -0.51686543 41
2.0113108 3.5797207 -0.58832842 42
2.0021007 3.5633285 -0.65869814 59
2.0097592 3.5769594 -0.73379308 46
1.1285213 2.0085366 -0.45312726 0
1.0728582 1.9094677 -0.46958381 19
1.0707277 1.9056758 -0.50742292 13
0.97674233 1.7384009 -0.9294818 19
2.0330353 3.5599577 1.0821599 35
2.0216331 3.5399919 0.78775698 32
2.0352447 3.5638268 0.57415485 33
2.0453873 3.5815868 0.35808942 31
2.0345218 3.562561 0.21105801 28
2.0380356 3.5687137 0.1387011 33
2.4040675 3.5776298 0.1198715 33
1.7277651 3.610975 0.087765999 25
2.0409176 3.5737603 0.065944232 24
2.4004121 3.5721898 0.043568257 35
1.7298913 3.6154187 0.016928528 30
2.0431604 3.5776875 -0.0068312152 31
2.4026976 3.5755911 -0.032481249 37
1.7228454 3.600693 -0.053647015 31
2.0308814 3.5561862 -0.07920453 38
2.406461 3.5811918 -0.10891332 36
1.725618 3.6064878 -0.12445679 40
2.0437431 3.5787077 -0.15277301 46
2.4005516 3.5723977 -0.18490759 37
1.7244002 3.6039424 -0.19505043 24
2.0440669 3.5792749 -0.22575526 39
2.4072683 3.5823932 -0.26171404 36
1.7209216 3.5966723 -0.26531762 27
2.0477111 3.5856562 -0.29924259 41
2.413218 3.5912471 -0.33900219 37
1.7255222 3.6062875 -0.33676213 28
2.0487385 3.587455 -0.37248307 41
2.4095261 3.5857532 -0.414915 38
1.7261394 3.6075773 -0.40771216 43
2.0491314 3.5881431 -0.44567227 50
2.0429852 3.5773807 -0.51736385 40
2.0421438 3.5759072 -0.59003043 37
2.044554 3.5801275 -0.66442597 52
2.04054 3.5730991 -0.73590571 43
1.1911751 2.085814 -0.4724257 0
1.0958605 1.9189126 -0.47377652 18
1.085938 1.9015378 -0.50832742 19
0.99424851 1.7409844 -0.93455172 18
2.0733695 3.5724375 1.090327 32
2.060097 3.5495689 0.79306942 30
2.0680292 3.5632362 0.57637167 31
2.0783429 3.5810068 0.35947332 32
2.0653591 3.5586355 0.21167454 32
2.0769472 3.5786018 0.13964556 32
2.4402511 3.5772746 0.12042749 34
1.7459275 3.584444 0.087415285 38
2.0798707 3.5836391 0.066392832 24
2.4365616 3.5718656 0.043770712 33
1.7428284 3.5780816 0.016810264 45
2.074111 3.5737152 -0.006851112 30
2.4411254 3.5785558 -0.032662202 32
1.7461895 3.5849819 -0.053593259 35
2.0636888 3.5557575 -0.079513922 41
2.4359105 3.5709112 -0.10911521 37
1.7455016 3.5835698 -0.12408342 41
2.0746968 3.5747244 -0.15321754 47
2.432189 3.5654559 -0.18542264 38
1.7407707 3.5738571 -0.19407518 45
2.083039 3.5890982 -0.22728655 39
2.445719 3.5852897 -0.26316667 39
1.7477368 3.5881586 -0.26558319 48
2.0827069 3.5885262 -0.30068821 39
2.4404778 3.5776064 -0.33931464 34
1.7489113 3.5905697 -0.33642638 40
2.0737336 3.5730648 -0.37248307 44
2.4457195 3.5852907 -0.41682705 39
1.7477977 3.5882835 -0.40690079 49
2.078124 3.5806298 -0.44653016 52
2.0838478 3.5904918 -0.52135122 39
2.0750086 3.5752618 -0.59229982 38
2.0754447 3.5760131 -0.66633523 39
2.0753176 3.5757942 -0.73942679 43
1.2687513 2.1860719 -0.49712771 1
1.1053038 1.9044501 -0.47209945 16
1.095275 1.8871704 -0.50651842 14
1.0986724 1.8930242 -0.54673082 1
1.0136579 1.7465434 -0.9413116 19
2.1002235 3.5612071 1.0913479 32
2.0967975 3.5553977 0.79762292 29
2.0988915 3.5589485 0.57803428 28
2.1053162 3.5698423 0.35981932 33
2.09624 3.5544527 0.21229106 34
2.1079717 3.5743451 0.14005034 34
2.4719944 3.5700133 0.12076109 36
1.763804 3.5578365 0.087064572 38
2.1109331 3.5793664 0.066585086 24
2.4728236 3.5712104 0.043973166 34
1.7677654 3.5658271 0.016810264 41
2.1152649 3.5867119 -0.0069041699 28
2.4774342 3.5778692 -0.032812998 36
1.769398 3.5691204 -0.053539507 31
2.0986197 3.5584877 -0.07990066 41
2.478992 3.5801189 -0.10992271 35
1.7740285 3.5784607 -0.12433234 39
2.1117854 3.5808117 -0.15410662 48
2.4752216 3.5746737 -0.18679614 40
1.7639036 3.5580375 -0.19388013 39
2.1039865 3.5675879 -0.22684903 40
2.4797812 3.5812585 -0.26413509 39
1.7709713 3.572294 -0.26531762 41
2.1137884 3.584208 -0.30155557 40
2.4790156 3.580153 -0.3411893 41
1.7774761 3.5854151 -0.33709788 39
2.1026747 3.5653634 -0.37320146 45
2.4774902 3.5779498 -0.41797429 37
1.7745733 3.5795598 -0.40730649 46
2.1131716 3.5831623 -0.44867489 51
2.1068466 3.5724373 -0.5208528 40
2.116009 3.5879731 -0.59683847 36
2.1144013 3.5852475 -0.6707902 40
2.1102314 3.578177 -0.74294788 46
2.1133864 3.5835261 -0.8182537 26
1.1265194 1.9101628 -0.47545362 12
1.1242576 1.9063276 -0.51375443 12
1.1177753 1.895336 -0.54963899 1
1.0258262 1.7394242 -0.9413116 17
2.1270223 3.5497758 1.0923688 26
2.1256049 3.5474105 0.79914075 28
2.1359034 3.5645974 0.58135951 30
2.1465731 3.5824041 0.36258715 31
2.1353765 3.5637183 0.21372963 31
2.1390386 3.5698297 0.1404551 35
2.5129514 3.575568 0.12153947 35
1.7958039 3.5597177 0.087415285 37
2.1461487 3.581696 0.066905513 23
2.5022945 3.560405 0.044054147 32
1.7980211 3.5641127 0.016860947 42
2.1361415 3.5649951 -0.0068909056 29
2.5092514 3.5703037 -0.032903474 32
1.8014777 3.5709646 -0.053754523 30
2.135745 3.5643332 -0.080364749 40
2.510823 3.5725398 -0.11022554 35
1.8079712 3.5838363 -0.12495462 37
2.1470053 3.5831256 -0.15484752 43
2.5116062 3.5736539 -0.18765458 42
1.7922992 3.5527706 -0.19427024 39
2.1534765 3.5939252 -0.2294741 38
2.5116098 3.5736592 -0.2648614 37
1.8030579 3.5740969 -0.26637992 44
2.1490121 3.5864747 -0.3030012 41
2.5177071 3.5823348 -0.34306398 39
1.8078493 3.5835946 -0.33810514 38
2.1377528 3.5676839 -0.37499744 45
2.5184345 3.5833697 -0.42065117 38
1.8084816 3.5848479 -0.4093349 44
2.1463118 3.5819681 -0.45039067 49
2.1439753 3.5780687 -0.52384335 36
2.1430414 3.57651 -0.59740585 36
2.1474988 3.5839493 -0.67333591 39
2.1513512 3.5903785 -0.74858159 41
2.1464214 3.5821512 -0.82134145 37
1.1538993 1.9257363 -0.48132342 5
1.1315308 1.8884054 -0.51104093 14
1.1329746 1.8908153 -0.55060834 7
1.1237111 1.8753555 -0.75210303 0
1.0398083 1.7353303 -0.94300157 17
2.1497412 3.5315363 1.0913479 20
2.1605289 3.549258 0.80293536 23
2.1689758 3.5631347 0.58357632 31
2.1694584 3.5639272 0.36224118 31
2.1602037 3.5487239 0.21372963 30
2.1722229 3.5684686 0.1409948 32
2.5471399 3.5709584 0.12198427 33
1.8333942 3.5719984 0.088029034 37
2.1773398 3.5768747 0.067097776 24
2.5456712 3.5688994 0.044378076 33
1.828339 3.5621493 0.016911631 41
2.1900957 3.5978293 -0.006983757 27
2.5480521 3.5722373 -0.03308443 32
1.8354956 3.5760927 -0.054023296 29
2.1668148 3.5595844 -0.080596797 41
2.5542793 3.5809674 -0.11103304 33
1.8402495 3.5853546 -0.12545244 37
2.1802816 3.5817075 -0.15544024 43
2.5480969 3.5723002 -0.18851303 39
1.8225315 3.5508347 -0.19485538 37
2.1826675 3.5856268 -0.22991161 36
2.5550458 3.582042 -0.26679823 37
1.8352556 3.5756252 -0.26744226 40
2.1822956 3.585016 -0.30415767 41
2.549602 3.5744104 -0.34400129 37
1.8401036 3.5850704 -0.33944818 38
2.1708932 3.5662842 -0.37643421 41
2.5572627 3.58515 -0.42294562 37
1.8370986 3.5792158 -0.41014627 44
2.1712661 3.5668969 -0.45039067 47
2.1730297 3.5697939 -0.52484024 35
2.1658986 3.5580795 -0.59683847 37
2.172467 3.5688698 -0.67333591 40
2.1784115 3.578635 -0.74928582 39
2.1795402 3.5804896 -0.82442915 39
1.1978199 1.9677461 -0.49390155 1
1.1527907 1.8937731 -0.51465893 16
1.1542188 1.8961192 -0.55448586 15
1.1741441 1.9288521 -0.77682614 0
1.0632082 1.7466097 -0.95314133 16
2.1763775 3.519732 1.0923688 17
2.1997128 3.5574708 0.8082478 29
2.2021317 3.561383 0.58579314 30
2.2089565 3.5724204 0.36466303 31
2.197531 3.5539424 0.21496269 27
2.2139022 3.5804186 0.14207418 32
2.5790415 3.5628061 0.12231786 34
1.8601373 3.5626569 0.088116713 33
2.2085681 3.5717921 0.06729003 24
2.5869422 3.5737205 0.044661511 31
1.8587166 3.5599356 0.016962316 40
2.2235744 3.596061 -0.0070102862 26
2.5963831 3.5867624 -0.033386018 26
1.8641187 3.5702822 -0.054130804 32
2.2000253 3.5579765 -0.08090619 40
2.5979748 3.5889614 -0.11184056 9
1.8670853 3.575964 -0.1255769 34
2.2115397 3.5765982 -0.15588477 46
2.5823474 3.567373 -0.18919978 39
1.8565222 3.5557327 -0.19583063 37
2.2223501 3.5940809 -0.2314429 35
2.5893555 3.5770543 -0.26776662 34
1.865715 3.5733395 -0.26823902 41
2.215663 3.583266 -0.30531418 41
2.5908623 3.5791359 -0.34618843 33
