# .PCD v0.7 - Point Cloud Data file format
VERSION 0.7
FIELDS x y z intensity
SIZE 4 4 4 4
TYPE F F F F
COUNT 1 1 1 1
WIDTH 1372
HEIGHT 1
VIEWPOINT 0 0 0 1 0 0 0
POINTS 1372
DATA ascii
-8.58076 1.5331006 -0.78591412 0
-7.6896091 1.9600586 -0.76214343 0
-18.328535 1.9167031 -1.8787215 38
-8.2213717 1.4688897 -0.90078133 10
-7.9154935 1.4142393 -1.0098065 11
-7.8034697 1.3942243 -1.1358086 14
-7.8216205 1.3974673 -1.2804837 14
-7.740653 1.3830011 -1.4063194 16
-7.7040668 1.3764642 -1.5392432 4
-7.8312025 1.3991792 -1.7055955 2
-7.8592548 1.4041913 -1.8533148 1
-7.7856979 1.3910491 -1.9755983 5
-5.5628705 0.99390262 -1.9440173 7
-1.5667692 0.27993032 -0.7418955 13
-2.0608976 0.38308081 0.55333078 16
-5.3091593 0.98686951 1.0435123 35
-5.234488 0.97298962 0.7448495 5
-6.4096828 1.1914356 0.56602347 3
-11.731275 2.1806159 0.61385614 17
-15.477914 2.8770435 0.53132778 23
-13.517178 3.5461621 0.38863719 9
-13.683685 1.5276165 0.30187646 16
-14.025917 2.6071455 0.22859386 12
-15.24336 3.9990172 0.15953432 21
-15.869274 1.7716109 0.067443788 11
-18.404718 3.4210796 -0.031038919 35
-18.389174 4.8243051 -0.14334576 36
-18.372198 2.0510318 -0.24845341 32
-18.350187 3.4109433 -0.36098391 73
-18.391575 4.8249354 -0.47996557 38
-18.357016 2.0493367 -0.57499039 36
-18.364601 3.4136226 -0.69244254 44
-18.349554 4.8139114 -0.81500119 58
-18.324205 2.0456741 -0.90015775 43
-8.88624 1.6517793 -0.49504277 1
-8.0869808 2.121578 -0.50696504 9
-18.329348 2.046248 -1.2272599 48
-8.4330549 1.567541 -0.62161505 0
-7.8456469 2.0582652 -0.63551193 0
-18.316938 2.0448627 -1.5525305 36
-8.3348436 1.5492854 -0.76436257 0
-7.6564822 2.0086389 -0.76023138 0
-18.314707 2.0446136 -1.8787215 40
-8.0271482 1.4920909 -0.88062096 15
-7.7259355 1.4361013 -0.98687905 2
-7.684545 1.4284077 -1.1199232 28
-7.7068453 1.4325528 -1.2633003 22
-7.6572566 1.4233352 -1.3929392 23
-7.6286716 1.4180219 -1.5261203 21
-7.6789694 1.4273711 -1.6745694 0
-7.8607521 1.4611611 -1.8560283 3
-7.7757969 1.4453696 -1.9755983 5
-5.5632339 1.0340971 -1.9466196 6
-1.5647768 0.29086161 -0.7418955 12
-2.0505781 0.39599264 0.55128896 16
-5.2944274 1.0224211 1.0419946 34
-4.9358506 0.95317531 0.70328426 22
-6.3816452 1.2323766 0.56429356 2
-11.782443 2.2753391 0.6173498 18
-15.359321 2.9660795 0.5279547 13
-13.522976 3.6487765 0.38952678 10
-13.982437 1.6598804 0.30871537 22
-14.042717 2.7118266 0.22917062 10
-15.242102 4.1126318 0.15981776 15
-15.983625 1.8974451 0.067984425 5
-18.423588 3.5578284 -0.031111876 31
-18.405249 4.966114 -0.14373782 37
-18.357431 2.179244 -0.24845341 29
-18.361267 3.5457935 -0.36168006 98
-18.392187 4.9625902 -0.48087403 35
-18.377993 2.1816847 -0.57611048 35
-18.367794 3.5470538 -0.69347978 51
-18.346369 4.9502268 -0.81637472 68
-18.313446 2.1740224 -0.90035278 41
-8.6313543 1.666824 -0.48147997 1
-8.0989571 2.1852651 -0.50865978 13
-18.326506 2.1755726 -1.2280567 48
-8.1947098 1.5825024 -0.60484588 8
-7.8156857 2.1088326 -0.63426214 0
-18.325964 2.1755083 -1.554545 35
-8.0695724 1.5583366 -0.74101502 0
-7.649961 2.0641167 -0.76099616 0
-10.835363 1.2862856 -1.1123849 1
-7.8603449 1.5179323 -0.86346322 14
-7.6572695 1.4787158 -0.97940266 27
-7.6355085 1.4745134 -1.1142498 38
-7.6307402 1.4735926 -1.2524811 30
-7.562079 1.4603332 -1.3774465 23
-7.5415144 1.456362 -1.5106815 31
-7.576653 1.4631478 -1.6544443 1
-7.8541856 1.5167428 -1.8569328 3
-7.7693272 1.5003555 -1.9765677 5
-5.552165 1.0721935 -1.9453185 7
-1.5591483 0.30109131 -0.74020553 13
-2.0439713 0.40953887 0.55026805 16
-5.3218179 1.0663023 1.0488248 40
-4.9484973 0.99150217 0.70605528 24
-6.3846083 1.2792475 0.56533152 3
-11.758438 2.3559711 0.61693877 19
-13.915346 2.7881384 0.47897753 0
-13.516438 3.7484384 0.39008278 9
-13.96654 1.7569567 0.30862769 24
-13.976384 2.8003683 0.22840159 10
-15.255416 4.2306995 0.16026315 16
-15.922366 2.0029948 0.067781687 10
-18.41791 3.6902914 -0.031145036 32
-18.400965 5.1030374 -0.14397909 40
-18.357643 2.3093467 -0.24866843 27
-18.347828 3.6762497 -0.3619121 44
-18.407188 5.104763 -0.48218623 35
-18.370247 2.3109322 -0.57635939 37
-18.354342 3.6775548 -0.69392431 47
-18.349871 5.0888677 -0.81809157 64
-18.321606 2.3048134 -0.90152311 44
-8.5020227 1.7035018 -0.47491732 1
-8.0988932 2.246021 -0.50962818 13
-18.32275 2.3049572 -1.2288535 45
-8.0309029 1.6091062 -0.59357005 18
-7.8468862 2.1761332 -0.63801152 0
-18.318239 2.3043897 -1.5552166 37
-7.9256845 1.5880241 -0.72880244 11
-7.6545486 2.1227934 -0.76290822 0
-10.265467 1.2913706 -1.0547777 6
-7.6272883 1.5282363 -0.83901346 0
-7.7012396 1.5430535 -0.98638064 5
-7.6094985 1.5246718 -1.1119804 44
-7.5931621 1.5213985 -1.2480261 52
-7.5478387 1.5123174 -1.3767422 1
-7.5427074 1.5112892 -1.5129974 157
-7.4933906 1.5014079 -1.6385121 2
-7.8777895 1.5784277 -1.8650732 2
-7.7738838 1.5576087 -1.9804453 6
-5.5445442 1.1109288 -1.9453185 7
-1.5570083 0.31196886 -0.74020553 13
-2.0524228 0.4261573 0.55333078 16
-5.31809 1.104228 1.0495838 34
-4.9414549 1.0260249 0.70605528 25
-6.3521113 1.3189284 0.56325561 4
-11.729969 2.4355664 0.61632228 11
-15.0385 3.1225371 0.5183751 6
-13.53993 3.85695 0.39152834 13
-13.973755 1.8570527 0.30906609 27
-14.062224 2.9198272 0.23013191 9
-15.260129 4.3469615 0.16062757 19
-15.979365 2.1235898 0.06808579 6
-18.395615 3.8195958 -0.031151669 34
-12.036812 3.4287758 -0.094367526 1
-18.368828 2.4411392 -0.2490447 31
-18.353045 3.8107567 -0.36253089 40
-12.021784 3.4244947 -0.31553572 6
-18.353666 2.4391243 -0.57635939 38
-18.363445 3.8129163 -0.69525796 46
-18.356174 5.2288933 -0.81998014 53
-18.312988 2.4337184 -0.90191323 62
-8.6854534 1.8034147 -0.48585507 3
-8.0676565 2.2981322 -0.50865978 11
-18.325993 2.4354467 -1.2301813 48
-7.823832 2.2286768 -0.63738662 0
-18.321459 2.4348443 -1.5568954 33
-7.6433716 2.1772714 -0.76329064 0
-10.090523 1.3409877 -1.037739 1
-7.6904173 1.5968091 -0.84716338 2
-7.6980519 1.5983944 -0.98737746 7
-7.5947924 1.5769539 -1.1114131 45
-7.5668898 1.5711603 -1.2454805 44
-7.5216756 1.5617723 -1.3739254 65
-7.4666452 1.5503459 -1.4998745 255
-7.4482613 1.5465288 -1.6309652 3
-8.4769821 1.7601285 -2.0097928 2
-7.7780194 1.6149986 -1.9843228 6
-5.5292468 1.1480719 -1.942716 6
-1.547693 0.3213571 -0.73682559 13
-2.038054 0.43803748 0.55026805 17
-5.3102512 1.1413285 1.0495838 33
-4.9457898 1.0629951 0.7077179 25
-6.3739166 1.3699414 0.56602347 4
-11.685341 2.5115221 0.61488372 5
-12.925303 2.7780261 0.44619119 7
-11.912337 3.4834116 0.34515876 16
-13.964411 1.9551172 0.30915377 28
-14.057137 3.0212905 0.23038825 7
-11.851068 3.4654953 0.12499554 19
-15.995841 2.239532 0.068220951 8
-18.399786 3.954653 -0.031204727 31
-11.793753 3.448735 -0.092648469 13
-18.367182 2.5715368 -0.24925973 33
-18.357271 3.9455152 -0.36314967 43
-11.721248 3.4275329 -0.3082681 15
-18.355988 2.5699694 -0.57698166 39
-18.363733 3.9469039 -0.6962952 44
-11.909796 3.4826684 -0.53309011 23
-18.327206 2.5659397 -0.90347362 41
-8.6140785 1.8514178 -0.48257375 2
-8.0667439 2.3588812 -0.50962818 11
-18.31645 2.5644338 -1.2307125 52
-7.8360324 1.6841928 -0.58084863 0
-7.8310466 2.2899585 -0.63926131 0
-10.168459 1.4236569 -0.86490452 5
-7.8131571 1.6792762 -0.72054106 0
-7.6241636 2.2294617 -0.76290822 0
-9.7065268 1.3589832 -0.99919909 1
-7.6751933 1.6496239 -0.84673446 3
-7.5819392 1.6295807 -0.97392005 19
-7.5913401 1.6316013 -1.1125478 38
-7.5557361 1.6239489 -1.2454805 46
-7.5028896 1.6125907 -1.372517 13
-7.4824996 1.6082083 -1.505278 35
-7.4564023 1.6025991 -1.6351579 4
-8.4302025 1.8118974 -2.0016522 2
-7.7551723 1.6668136 -1.9814146 6
-5.5247946 1.1874402 -1.9440173 6
-1.5418673 0.33139241 -0.73513561 14
-2.0538235 0.4564504 0.5553726 16
-5.3213229 1.1826333 1.0533783 36
-4.9459825 1.0992161 0.7088263 25
-6.3603077 1.4135417 0.56567746 4
-11.41405 2.5367069 0.6015256 2
-12.85096 2.8560517 0.44430226 7
-11.619641 3.4860604 0.3373749 16
-13.471692 1.9821163 0.29854468 24
-14.086458 3.1306341 0.23122136 9
-11.562241 3.4688396 0.12220167 19
-16.070837 2.3645337 0.068609528 6
-18.406872 4.0908213 -0.031264417 31
-11.505037 3.4516776 -0.090567492 16
-18.372524 2.7031853 -0.24958225 28
-18.356607 4.0796504 -0.36369112 46
-11.451909 3.4357383 -0.301808 16
-18.349466 2.6997929 -0.57735509 34
-18.355244 4.0793471 -0.69703609 43
-11.628733 3.4887881 -0.52158701 26
-18.324657 2.6961427 -0.90425378 47
-8.5658531 1.9037116 -0.48060495 2
-8.0692005 2.420877 -0.51083869 11
-18.329691 2.6968832 -1.2328372 49
-7.8162942 1.7371264 -0.58027041 0
-7.8225079 2.3468657 -0.63988614 0
-9.7323828 1.4319445 -0.82864302 0
-7.8051324 1.7346457 -0.72090024 0
-7.6541781 2.2963641 -0.76749712 0
-9.342474 1.3745766 -0.96268755 1
-7.6440792 1.6988525 -0.84458971 2
-7.6091213 1.6910833 -0.97890425 30
-7.5720344 1.6828409 -1.1114131 43
-7.5596352 1.6800853 -1.2480261 39
-7.4760747 1.6615144 -1.3697001 43
-7.4749217 1.6612582 -1.5060499 39
-7.5099378 1.6690403 -1.6494131 2
-8.4135447 1.8698617 -2.0007479 2
-7.762289 1.725124 -1.9862615 7
-5.4979086 1.2218785 -1.9375112 6
-1.5607508 0.34686786 -0.74527544 12
-2.0468171 0.46991226 0.55435169 9
-5.2976255 1.2162392 1.0503427 27
-4.9497714 1.1363782 0.71048892 24
-6.3658199 1.4614774 0.56706142 4
-10.979466 2.5206873 0.57953614 5
-12.764469 2.9304917 0.44200855 5
-11.34661 3.4906747 0.33014703 16
-13.48124 2.0797765 0.29907075 16
-14.118833 3.2414291 0.23211856 5
-11.27778 3.4694996 0.11944828 15
-16.089516 2.4821603 0.06876158 5
-18.393459 4.2228065 -0.031290945 30
-11.224513 3.4531126 -0.088546842 22
-18.365063 2.8332133 -0.24974352 34
-18.354963 4.2139683 -0.36423254 45
-11.198326 3.4450564 -0.29575166 33
-18.361782 2.8327072 -0.57835072 37
-18.369169 4.2172298 -0.6986661 44
-11.344357 3.4899812 -0.50991225 24
-18.348822 2.8307078 -0.90639937 48
-8.5328903 1.9589976 -0.47951117 2
-8.0788155 2.4853694 -0.51253343 13
-9.8297186 1.5164495 -0.66183329 6
-7.7961998 1.7898667 -0.57969213 0
-7.8554826 2.4166632 -0.64394796 0
-9.4463987 1.457314 -0.8051402 0
-7.7578869 1.7810708 -0.71766746 0
-7.6607938 2.3567691 -0.7697916 0
-9.065217 1.3985083 -0.93510103 1
-7.6320329 1.7521769 -0.84458971 2
-7.5623159 1.7361712 -0.97441846 76
-7.560101 1.7356627 -1.1114131 41
-7.5361748 1.7301697 -1.2461169 45
-7.4566174 1.7119048 -1.3682917 37
-7.4593163 1.7125243 -1.505278 39
-7.5400338 1.7310556 -1.6586372 3
-7.7538381 1.7801412 -1.9872309 8
-5.4966173 1.261924 -1.9401135 5
-1.5618248 0.35856676 -0.74696535 13
-2.0434868 0.48418933 0.55435169 11
-4.1501884 0.98335689 0.82418507 10
-4.9532819 1.1736441 0.71215153 27
-6.3593402 1.5067993 0.56740737 4
-10.677845 2.5300374 0.56453395 3
-12.735921 3.0176835 0.44173872 3
-11.173242 3.5229118 0.32581028 39
-13.497975 2.178941 0.29977217 14
-14.080293 3.3362226 0.23186222 9
-11.173175 3.5228906 0.11859798 42
-16.091539 2.5976131 0.068846054 5
-18.402454 4.3603272 -0.03135727 31
-11.184874 3.5265794 -0.088426203 44
-18.368528 2.9651811 -0.25006604 30
-18.34845 4.3475313 -0.36469662 56
-11.170188 3.5219491 -0.29565072 43
-18.373135 2.9659245 -0.57934636 36
-18.370399 4.3527322 -0.69985151 44
-11.144393 3.5138159 -0.50201464 71
-18.344391 2.9612846 -0.90717959 44
-8.4801435 2.0093081 -0.47732362 2
-8.087923 2.5501142 -0.51422817 12
-9.5982437 1.5494182 -0.64696062 0
-7.7951617 1.8470068 -0.58055949 0
-7.8498287 2.4750431 -0.6448853 0
-9.1723537 1.4806678 -0.78264463 0
-7.7452645 1.835184 -0.71766746 0
-7.6479511 2.4113913 -0.77017403 0
-8.8234501 1.4243453 -0.91116571 1
-7.6389642 1.8099968 -0.84673446 1
-7.5422878 1.7870902 -0.97342157 4
-7.5478005 1.7883964 -1.1114131 41
-7.5162277 1.7809154 -1.2448441 42
-7.4598107 1.7675478 -1.3711085 50
-7.4471798 1.764555 -1.505278 37
-7.5848527 1.7971755 -1.6712153 1
-7.8520274 1.8604807 -1.8732138 3
-7.7563272 1.8378052 -1.9911084 8
-5.4950352 1.3020085 -1.942716 6
-1.5381168 0.36444557 -0.73682559 14
-2.0362999 0.49752581 0.55333078 14
-4.0363984 0.98620665 0.80293536 4
-4.9449673 1.2081958 0.71215153 27
-6.3293099 1.5464299 0.56567746 6
-10.524101 2.5713365 0.5573411 6
-12.652407 3.0913417 0.43957993 2
-11.171206 3.6081984 0.32647747 40
-13.498207 2.2757809 0.30012289 14
-14.118822 3.4496286 0.2328876 4
-11.174953 3.6094084 0.11888141 44
-16.09668 2.7138801 0.06894742 5
-18.425964 4.5019855 -0.031450119 32
-11.18282 3.6119497 -0.088607162 45
-18.3671 3.0966702 -0.25033483 34
-18.34873 4.4831152 -0.36531541 74
-11.175772 3.609673 -0.29645824 46
-18.383518 3.0994384 -0.58034205 35
-18.362862 4.486568 -0.70074058 42
-11.14241 3.5988975 -0.50304478 72
-18.331148 3.0906088 -0.90756965 44
-8.4542694 2.0656178 -0.47666734 2
-8.1079187 2.6187842 -0.51664919 10
-9.2054367 1.5520252 -0.62119907 0
-7.816957 1.9099042 -0.58316165 0
-7.8589234 2.5383611 -0.64707237 0
-8.8748732 1.4962926 -0.75813448 0
-7.7283936 1.8882657 -0.71730828 0
-7.6498756 2.4708405 -0.77208608 0
-8.5896235 1.4481999 -0.88804173 0
-7.591372 1.8547875 -0.84287393 0
-7.5373387 1.8415856 -0.97441846 3
-7.5389776 1.8419861 -1.1119804 42
-7.51512 1.836157 -1.2467533 41
-7.447289 1.8195839 -1.3711085 48
-7.4461169 1.8192976 -1.5075938 12
-7.5569234 1.8463707 -1.6678611 1
-8.3990355 2.0521226 -2.0070794 5
-7.7395382 1.8909886 -1.990139 7
-5.4784627 1.3385438 -1.9401135 6
-1.5249693 0.37259328 -0.73175567 15
-2.0440283 0.51456219 0.5563935 16
-3.918968 0.98655814 0.7809267 6
-4.9402533 1.2436558 0.71270573 27
-6.306766 1.5876607 0.56463951 4
-10.529137 2.6505973 0.55857414 7
-13.301198 3.3484337 0.46292168 2
-11.183706 3.6986551 0.32758945 39
-13.529255 2.3782694 0.30117503 14
-14.082759 3.5451834 0.23269534 6
-11.176064 3.6961279 0.11916485 46
-16.136435 2.8365779 0.069200844 5
-18.397964 4.6314898 -0.031456754 38
-11.17632 3.6962123 -0.088757955 43
-18.376549 3.2303612 -0.25076485 44
-18.344131 4.6179385 -0.36585686 94
-11.169282 3.6938846 -0.29696292 43
-18.361433 3.2277043 -0.58034205 38
-18.36598 4.6234384 -0.70207417 46
-11.15116 3.6878915 -0.50458997 71
-18.32093 3.2205844 -0.90815485 49
-8.439642 2.1245894 -0.47666734 2
-8.1462994 2.6941292 -0.52028072 8
-8.9506617 1.5734115 -0.60473293 0
-7.8343825 1.9722217 -0.58547461 0
-7.8940163 2.6106949 -0.65144664 0
-8.5972633 1.5112885 -0.73530316 0
-7.7382021 1.9480094 -0.71946347 0
-7.6815834 2.5404394 -0.77705741 0
-8.3402281 1.4661051 -0.86329502 0
-7.6013775 1.9135652 -0.8454476 0
-7.5358443 1.8970679 -0.9759137 48
-7.5297742 1.8955399 -1.1125478 39
-7.5021176 1.8885777 -1.2467533 48
-7.4305863 1.8705704 -1.3704044 44
-7.4446526 1.8741114 -1.5099096 3
-7.6424613 1.9239076 -1.6896632 4
-8.3807259 2.1097579 -2.0061748 8
-7.7299109 1.9459221 -1.9911084 7
-5.4763203 1.3786049 -1.942716 5
-1.5434257 0.38854086 -0.7418955 14
-2.047874 0.53076029 0.55843532 17
-3.8587608 1.0000992 0.77030188 6
-4.9736328 1.2890475 0.71880198 27
-6.3225317 1.6386501 0.56706142 3
-10.533577 2.7300529 0.55980724 6
-18.451504 4.7821913 0.64331406 11
-11.180337 3.7843337 0.32825667 40
-13.535923 2.4769824 0.3017011 13
-14.162198 3.6705053 0.23442565 3
-11.187875 3.7868853 0.11956976 41
-16.151648 2.9556425 0.069352895 4
-18.407774 4.7708578 -0.031529706 31
-11.195707 3.7895365 -0.089119859 42
-18.373217 3.3621745 -0.25103363 34
-18.357901 4.7579322 -0.36678505 72
-11.169734 3.780745 -0.2976695 43
-18.369913 3.3615699 -0.58133769 36
-18.36034 4.758564 -0.70311147 46
-11.147855 3.773339 -0.50562006 75
-18.321579 3.352725 -0.90932512 35
-8.4052734 2.1784472 -0.47557357 2
-8.2294035 2.7854984 -0.52681756 6
-8.6999741 1.5920364 -0.58853233 0
-7.7663565 2.0128551 -0.58142692 2
-7.9058156 2.6759698 -0.65394616 0
-8.3826218 1.5339632 -0.71784389 0
-7.7128448 1.9989862 -0.71838588 0
-7.6862898 2.6016645 -0.77935189 0
-8.1262417 1.4870472 -0.8421995 0
-7.5878329 1.9665861 -0.8454476 0
-7.5301003 1.9516232 -0.97691053 50
-7.5278559 1.9510415 -1.1142498 38
-7.5116868 1.9468509 -1.2505718 40
-7.4249692 1.9243757 -1.3718128 41
-7.4465842 1.9299778 -1.5129974 3
-7.6212716 1.9752526 -1.6879861 4
-8.3582497 2.1662598 -2.0043659 5
-7.7048678 1.9969187 -1.9882003 6
-5.4738855 1.4187011 -1.9453185 5
-1.5617326 0.40476403 -0.75203526 14
-2.0366445 0.54305136 0.5563935 17
-3.8706586 1.0320733 0.77409649 6
-4.9606843 1.3227179 0.71824777 27
-6.3263392 1.6868564 0.56844532 3
-10.518121 2.804554 0.56001276 7
-13.36517 3.5636919 0.46683446 6
-11.168757 3.8675284 0.32870144 39
-13.612588 2.5893557 0.30380538 10
-14.155551 3.7744391 0.23474608 3
-11.195181 3.8766785 0.11993418 41
-16.209211 3.0832796 0.069690794 6
-18.401073 4.9064665 -0.031576134 35
-11.191657 3.875458 -0.089300819 43
-18.380732 3.4963412 -0.25146365 31
-18.362881 4.8962822 -0.36755851 71
-11.169518 3.8677917 -0.29837608 44
-18.365637 3.4934697 -0.58195996 35
-18.365295 4.8969259 -0.70459324 47
-11.147674 3.8602276 -0.50682187 68
-18.329124 3.4865246 -0.91088551 41
-8.266366 2.2041457 -0.46857342 4
-11.160137 3.8645434 -0.71614259 48
-8.4298706 1.6035109 -0.57100385 3
-7.794518 2.0783319 -0.58460724 7
-7.9208555 2.7428417 -0.65675819 0
-8.1171913 1.5440336 -0.69601983 4
-7.7063999 2.054836 -0.71910429 0
-7.6905146 2.663079 -0.78164631 0
-7.9201989 1.5065622 -0.82191527 9
-7.5623908 2.0164375 -0.8441608 0
-7.5239615 2.0061908 -0.97790742 51
-7.5331812 2.0086491 -1.1170865 40
-7.5017281 2.0002623 -1.2512083 39
-7.4113536 1.9761649 -1.3718128 40
-7.4518909 1.9869738 -1.516857 3
-7.6450872 2.0384877 -1.6963716 4
-8.3429222 2.2245586 -2.0043659 6
-7.6982384 2.05266 -1.990139 5
-5.4528837 1.453958 -1.9414148 5
-1.5273411 0.40725055 -0.73682559 16
-2.0402639 0.55930156 0.55843532 17
-3.8444211 1.0538788 0.77030188 6
-4.9551501 1.3583652 0.71880198 27
-6.3182521 1.7320349 0.56879127 3
-10.552222 2.8927016 0.56288987 6
-13.37081 3.6653664 0.46791384 7
-11.171638 3.9560843 0.32959104 43
-13.574562 2.6804528 0.30336699 23
-14.294715 3.9186385 0.23750177 12
-11.182925 3.9600813 0.12009614 47
-16.163746 3.1917167 0.069589421 4
-18.416523 5.0485578 -0.031662352 39
-11.186951 3.9615068 -0.089481771 41
-18.375494 3.6284518 -0.25173244 38
-18.366821 5.0349331 -0.368332 46
-11.172399 3.9563537 -0.29918358 46
-18.376101 3.6285715 -0.58308005 37
-18.365355 5.0345316 -0.70592684 45
-11.139289 3.9446287 -0.50768036 64
-18.343534 3.6221409 -0.91283602 50
-8.1814423 2.242795 -0.46463582 36
-11.162995 3.9530237 -0.71807945 48
-8.2344389 1.6259842 -0.55852145 8
-7.8105998 2.1411352 -0.58692026 2
-7.9203091 2.8047283 -0.65832037 0
-7.9615293 1.5720952 -0.68359691 11
-7.7033935 2.1117465 -0.72018182 0
-7.7017612 2.7273366 -0.78470558 0
-7.7806559 1.5363796 -0.80852771 2
-7.5711422 2.0754921 -0.84673446 0
-7.5289106 2.0639153 -0.98039955 51
-7.5304313 2.064332 -1.1187885 38
-7.5066237 2.0578055 -1.2543905 41
-7.4201612 2.0341036 -1.3760381 37
-7.4302673 2.0368741 -1.5153131 255
-7.6306696 2.0918107 -1.6963716 3
-8.3121576 2.2786283 -2.0007479 7
-7.6799779 2.1053276 -1.9891696 4
-5.4316568 1.4889909 -1.9375112 5
-1.5279573 0.41886199 -0.73851556 17
-2.0400319 0.57458013 0.55945623 17
-3.8331897 1.0796275 0.76954293 7
-4.9379201 1.3907776 0.71769357 32
-6.2983346 1.7739418 0.56809932 3
-10.535614 2.9673822 0.56309539 7
-13.360286 3.7629583 0.46845353 8
-11.170065 4.0435076 0.33036941 43
-13.755325 2.8160613 0.30783859 9
-14.193864 3.9977374 0.23628414 7
-11.181334 4.0475869 0.12037957 48
-15.952971 3.2659748 0.068778478 10
-18.419329 5.1878505 -0.031728674 29
-11.185349 4.0490403 -0.089692883 45
-18.384981 3.7638683 -0.25221622 31
-18.358168 5.1706247 -0.36887345 41
-11.182106 4.0478663 -0.30019298 43
-18.381655 3.7631874 -0.58407575 34
-18.375931 5.1756272 -0.70770502 45
-11.156571 4.0386229 -0.50974059 53
-18.341284 3.7549224 -0.91400635 42
-8.3731852 2.3583288 -0.4764486 2
-11.157652 4.0390143 -0.71953207 47
-8.0860338 1.6554146 -0.54922605 8
-7.8108211 2.1999376 -0.58807671 2
-7.9755287 2.8871014 -0.66456926 1
-7.9425502 1.6260399 -0.6829254 1
-7.6884627 2.1654749 -0.72018182 0
-7.7611561 2.8094995 -0.79273623 0
-7.7424507 1.5850744 -0.80568796 0
-7.5679517 2.1315327 -0.84802127 0
-7.5372396 2.1228826 -0.98339009 49
-7.5234575 2.1190009 -1.1199232 40
-7.4996767 2.1123028 -1.2556633 42
-7.41715 2.0890591 -1.3781507 36
-7.4385333 2.0950818 -1.5199448 255
-7.6422319 2.1524539 -1.7022413 3
-8.3035479 2.3387151 -2.0025568 5
-7.6762986 2.1620491 -1.9920778 6
-5.4356918 1.5309764 -1.942716 5
-1.5215061 0.42853603 -0.73682559 17
-2.0545473 0.59418064 0.56456071 16
-3.8255591 1.106362 0.76954293 6
-4.966145 1.4362226 0.72323561 27
-6.2781405 1.8156551 0.56740737 4
-10.572204 3.0575097 0.56617802 6
-11.947325 3.4551985 0.41974622 15
-11.182816 4.1366506 0.33159259 41
-13.868341 2.9402158 0.31081966 13
-11.883435 3.4367216 0.19821721 13
-11.179063 4.135262 0.12066301 44
-16.184128 3.4311836 0.069876634 3
-11.850362 3.4271567 -0.020453854 14
-11.194324 4.1409073 -0.089994475 44
-18.377819 3.8962665 -0.25248501 33
-11.997993 3.469852 -0.24155834 2
-11.176075 4.1341572 -0.30079862 43
-18.370583 3.894732 -0.58457357 36
-11.99584 3.4692292 -0.46291259 13
-11.158089 4.1275039 -0.51111406 49
-18.3498 3.890326 -0.91576177 44
-8.3948841 2.4278233 -0.47863615 3
-11.147905 4.1237369 -0.72074258 44
-8.0742807 1.7118216 -0.54922605 1
-7.7837749 2.2510889 -0.58720934 1
-11.137998 4.1200719 -0.9304595 40
-7.8608193 1.6665659 -0.67688185 0
-7.6961193 2.2257385 -0.72233701 0
-7.7749624 2.8760467 -0.79617792 0
-7.6961613 1.6316568 -0.80203676 0
-7.5567069 2.18542 -0.84845018 0
-7.5374856 2.1798613 -0.98538375 46
-7.5351071 2.1791732 -1.1238946 36
-7.4999218 2.1689975 -1.258209 42
-7.4212976 2.1462593 -1.3816718 30
-7.4350362 2.1502326 -1.5222607 255
-7.6458044 2.2111874 -1.706434 2
-8.2870178 2.3966279 -2.0025568 5
-7.6461062 2.2112746 -1.9882003 5
-5.417604 1.5667857 -1.9401135 5
-1.5149946 0.43814051 -0.73513561 20
-2.0429339 0.60630786 0.56251895 17
-3.8177426 1.1330407 0.76954293 6
-4.9559979 1.4708554 0.72323561 23
-6.2767735 1.862839 0.56844532 4
-10.577409 3.139194 0.56761658 6
-11.662303 3.4611719 0.41057146 16
-11.183586 4.2259274 0.33248219 40
-13.933414 3.0558107 0.31274858 13
-11.606098 3.4444914 0.19398755 12
-11.187337 4.2273445 0.12106792 40
-15.995683 3.5080976 0.069167055 2
-11.57306 3.4346862 -0.020016124 14
-11.195076 4.2302685 -0.090235747 44
-18.385332 4.0321846 -0.25296879 34
-11.76261 3.4909415 -0.2373042 14
-11.173125 4.2219744 -0.30150518 42
-18.374186 4.0297399 -0.5855692 38
-11.710751 3.4755502 -0.45283636 21
-11.151432 4.2137771 -0.51214421 49
-18.314386 4.0166249 -0.91537166 49
-8.4275074 2.5011401 -0.48147997 2
-11.144989 4.2113423 -0.72243732 45
-8.019249 1.7587438 -0.54630464 5
-7.8826108 2.3394239 -0.59588307 0
-11.157458 4.216054 -0.93452126 45
-7.8295269 1.7171348 -0.67520303 0
-7.6956711 2.2839434 -0.72377378 0
-11.140389 4.2096043 -1.1437887 39
-7.6884694 1.6861988 -0.80244249 0
-7.5641418 2.2449079 -0.85102385 0
-7.5144753 2.2301676 -0.98438692 21
-7.5348949 2.2362278 -1.1261638 34
-7.4921689 2.2235477 -1.2594818 41
-7.4136834 2.2002544 -1.3830802 21
-7.4348955 2.2065496 -1.5253483 255
-7.6789265 2.2789741 -1.7173351 1
-8.2700863 2.4544199 -2.0025568 8
-7.6304836 2.2645969 -1.9882003 5
-5.410161 1.6056433 -1.9414148 5
-1.5084234 0.44767427 -0.73344564 15
-2.0460513 0.62280792 0.56456071 17
-3.8059821 1.1585222 0.76878405 5
-4.9531879 1.5077261 0.72434402 27
-6.2826772 1.912416 0.57017523 4
-10.570521 3.2176149 0.56843859 5
-11.381616 3.4645078 0.40153158 16
-11.176193 4.3125367 0.33314937 40
-13.946842 3.160965 0.31353769 14
-11.325417 3.447401 0.18969381 11
-11.187405 4.3168631 0.12139185 48
-16.076128 3.6435544 0.06962321 4
-11.300068 3.4396851 -0.019585028 14
-11.191392 4.3184013 -0.09044686 39
-18.384041 4.1666284 -0.25334507 34
-11.473963 3.4926181 -0.23196717 21
-11.195607 4.3200278 -0.30291834 27
-18.380697 4.1658707 -0.58668929 35
-11.426167 3.4780691 -0.44276017 19
-11.155298 4.3044739 -0.5136894 48
-18.332657 4.1549826 -0.91771227 35
-8.4862595 2.5831757 -0.48585507 2
-11.148841 4.3019824 -0.72461623 43
-7.9639587 1.8049817 -0.54338318 2
-7.8622699 2.3932362 -0.59559393 0
-11.153795 4.303894 -0.93670839 47
-7.8173485 1.7717534 -0.67520303 0
-7.6757274 2.3364537 -0.7234146 0
-11.147877 4.30161 -1.1476128 37
-7.6726294 1.7389537 -0.80203676 0
-7.5558944 2.2999771 -0.85188174 0
-7.5139098 2.2871971 -0.98638064 28
-7.5418272 2.2956951 -1.1295679 35
-7.4915748 2.2803986 -1.2620275 41
-7.432044 2.2622776 -1.3894181 18
-7.4343286 2.2629731 -1.5284361 255
-7.7002449 2.3439167 -1.7257205 0
-8.2341118 2.5064232 -1.9980344 6
-7.6033497 2.3144221 -1.9852921 4
-5.3915825 1.6411712 -1.9388124 5
-1.522603 0.46347287 -0.7418955 13
-2.0490372 0.63938087 0.56660253 14
-3.7903032 1.182725 0.76726621 7
-4.953886 1.545809 0.72600663 23
-6.2919974 1.9633528 0.57225108 4
-10.597375 3.3068013 0.57111025 9
-11.200686 3.4950581 0.39599973 32
-11.808018 4.651299 0.35294262 13
-13.764786 3.2208984 0.30994287 38
-11.186535 3.4906428 0.18777123 31
-15.272954 6.0161729 0.16617483 18
-16.245037 3.8012662 0.070467949 2
-11.187955 3.491086 -0.019432487 34
-18.418024 7.2550483 -0.14925691 38
-18.370081 4.2985168 -0.2535601 33
-11.185879 3.490438 -0.22663015 32
-18.416403 7.2544093 -0.49964869 37
-18.37063 4.2986455 -0.58731163 35
-11.187922 3.4910758 -0.43446213 44
-11.191906 4.4086061 -0.51677978 2
-8.99405 2.1045675 -0.45095661 1
-8.6052761 2.6851876 -0.49373025 3
-18.369921 7.2360997 -1.1972026 46
-7.9084148 1.8505336 -0.54046178 0
-7.8682208 2.4551971 -0.59732866 0
-18.362274 7.2330875 -1.5462874 39
-7.8125505 1.8281019 -0.67587453 0
-7.6896529 2.3994768 -0.72628814 0
-18.367525 7.2351561 -1.8959894 38
-7.6486778 1.7897564 -0.80081975 0
-7.5624318 2.3597786 -0.85445541 1
-7.531857 2.3502381 -0.99086642 39
-7.548295 2.3553677 -1.1329719 35
-7.490551 2.3373492 -1.2645732 46
-7.4348631 2.3199723 -1.3929392 9
-7.4520683 2.325341 -1.5353836 182
-9.0165787 2.8135302 -2.0250802 2
-8.2238512 2.5661681 -1.9998434 6
-7.5795975 2.3651352 -1.9833534 4
-5.3763828 1.6776448 -1.9375112 5
-1.5158693 0.47301137 -0.74020553 14
-2.0371559 0.65131474 0.56456071 18
-3.7931767 1.2127455 0.76954293 9
-4.9429736 1.580356 0.72600663 22
-6.270546 2.0048044 0.57155913 4
-10.646326 3.4038186 0.57501489 8
-11.183628 3.5756035 0.39626959 35
-11.118603 4.4696479 0.33326057 7
-13.990759 3.3769679 0.31555429 31
-11.199988 3.5808342 0.18841209 26
-15.245425 6.1286192 0.1663368 17
-16.214216 3.9136467 0.070451051 2
-11.19379 3.5788524 -0.019485544 34
-18.415171 7.4028482 -0.14964899 39
-18.374615 4.4351053 -0.25404388 48
-11.15362 3.5660093 -0.22647545 65
-18.420961 7.4051762 -0.50116277 33
-18.371265 4.4342966 -0.58830726 35
-11.163278 3.5690973 -0.43446213 54
-18.357937 7.3798404 -0.85002548 35
-8.9286499 2.1551201 -0.44842094 1
-8.5216475 2.7245212 -0.49001142 2
-18.367115 7.3835297 -1.2003499 60
-7.8875437 1.9038268 -0.53993064 0
-7.9268899 2.5343668 -0.60311115 0
-10.774417 4.331286 -0.90983814 4
-7.803472 1.8835343 -0.67621028 0
-7.699276 2.4615946 -0.72880244 0
-18.353508 7.3780603 -1.8998135 35
-7.6553383 1.8477792 -0.80284816 0
-7.5647135 2.4185724 -0.85660017 2
-7.5341673 2.4088063 -0.99335855 38
-7.5392108 2.4104187 -1.1341066 34
-7.5116658 2.4016123 -1.2709374 35
-7.4597411 2.3850112 -1.4006857 4
-7.4580832 2.384481 -1.5400152 73
-8.9818163 2.8716455 -2.0217261 2
-8.2020254 2.6223326 -1.9989388 7
-7.5444188 2.4120841 -1.9785064 5
-5.3573341 1.7128345 -1.9349087 6
-1.5125302 0.48358262 -0.74020553 13
-2.0472612 0.67033482 0.56864434 19
-3.7883496 1.2404195 0.77030188 8
-5.5944157 1.8317798 0.82354641 14
-6.286694 2.0584524 0.57432699 5
-11.108241 3.637172 0.60132009 18
-11.192586 3.664789 0.39748389 36
-10.820771 4.4379201 0.32525429 8
-13.982365 3.4784212 0.31590497 27
-11.193721 3.6651604 0.18873252 25
-15.257776 6.2576685 0.16694416 19
-16.205906 4.0315762 0.070535526 2
-11.195142 3.6656258 -0.019531971 35
-18.422253 7.5555148 -0.15013154 37
-18.389782 4.5748634 -0.25468892 32
-11.147455 3.6500118 -0.22686219 65
-18.424309 7.5563579 -0.5026769 35
-18.374779 4.5711308 -0.58942735 35
-11.157083 3.6531639 -0.43520302 50
-18.372522 7.5351186 -0.85311586 43
-8.9560347 2.2280109 -0.4505665 1
-8.3467941 2.732991 -0.48104244 1
-18.374226 7.5358167 -1.2042235 52
-7.8624411 1.9559553 -0.53913385 0
-7.9507089 2.603301 -0.60629147 0
-10.522545 4.315609 -0.89109147 9
-7.7940011 1.9389293 -0.67654604 0
-7.708406 2.5239637 -0.7313168 0
-18.356812 7.5286751 -1.9055498 40
-7.6461139 1.9021391 -0.80325383 0
-7.5854392 2.4837005 -0.86088955 3
-7.5473409 2.4712262 -0.99734592 35
-7.5523028 2.4728508 -1.1386453 35
-7.5172338 2.4613681 -1.274756 36
-7.4765868 2.4480591 -1.4070235 3
-7.4487143 2.4389329 -1.5415591 20
-8.9652662 2.9354975 -2.0225646 2
-8.1724091 2.6758924 -1.9962254 7
-7.5421472 2.4695256 -1.982384 5
-5.341651 1.7490171 -1.9336075 6
-1.5160083 0.49638665 -0.74358547 12
-2.0498657 0.6870693 0.57068616 17
-3.7833216 1.268085 0.77106082 7
-5.6002717 1.8770862 0.82631743 19
-6.2797275 2.1048245 0.57501894 4
-11.116667 3.726059 0.60316968 20
-11.185681 3.7491908 0.39815852 36
-10.579267 4.4254026 0.31891602 4
-13.973237 3.579922 0.31625569 32
-11.20199 3.7546573 0.18930928 25
-15.261688 6.3841019 0.16747054 16
-16.301361 4.176384 0.071076162 1
-11.192034 3.7513204 -0.019571764 33
-18.424406 7.7070956 -0.15058392 38
-18.388391 4.7110777 -0.25511897 34
-11.148246 3.7366433 -0.22740363 81
-18.43751 7.7125764 -0.50449377 37
-18.361784 4.7042608 -0.59004968 39
-11.169207 3.743669 -0.43668482 56
-18.367397 7.683248 -0.85534781 44
-8.9209108 2.2855239 -0.44959125 1
-11.163939 3.7419035 -0.64489001 45
-18.376417 7.6870213 -1.2078551 50
-7.844728 2.0098073 -0.53886831 0
-7.9512548 2.6650832 -0.60773712 0
-10.286142 4.3027859 -0.87359458 9
-7.7686906 1.9903266 -0.67553878 0
-7.7283711 2.5903776 -0.73490876 0
-18.373596 7.6858411 -1.9128156 34
-7.632648 1.9554727 -0.80325383 0
-7.5829978 2.5416517 -0.86260533 6
-7.5637727 2.535208 -1.0018318 35
-7.5648894 2.5355823 -1.1431841 34
-7.5148444 2.5188084 -1.2773017 37
-7.4929147 2.5114579 -1.4133615 2
-7.4277844 2.4896278 -1.5407871 2
-8.9445543 2.9980152 -2.0225646 2
-7.8173385 2.6201975 -1.9139161 3
-7.5247231 2.5221195 -1.982384 6
-5.3293109 1.7862661 -1.9336075 5
-1.5056307 0.50465387 -0.74020553 13
-2.0377023 0.69885391 0.56864434 17
-3.785521 1.2982889 0.77333754 7
-5.5907779 1.9174229 0.82687163 22
-6.2573404 2.1460283 0.57432699 5
-11.139505 3.8204241 0.60584128 22
-11.204612 3.8427532 0.39977759 35
-10.492947 4.4756212 0.31724805 3
-13.990439 3.688601 0.31722015 29
-11.190637 3.8379602 0.18956563 27
-15.260897 6.5093246 0.16795644 17
-18.391357 4.8489099 0.080334477 37
-11.184491 3.8358524 -0.019604925 32
-18.417982 7.8559351 -0.15097599 35
-18.37439 4.8444366 -0.25538775 31
-11.148368 3.8234637 -0.22794506 70
-18.438387 7.8646388 -0.50600785 35
-18.367153 4.8425283 -0.59129423 37
-11.184391 3.8358181 -0.4383148 52
-18.383152 7.8410797 -0.85860986 43
-8.9008751 2.3467295 -0.44939619 1
-11.16399 3.8288214 -0.64642131 51
-18.370047 7.8354897 -1.2110025 51
-7.8305058 2.0645249 -0.53886831 0
-7.9550977 2.7282941 -0.60947186 0
-10.057778 4.2900062 -0.85672259 8
-7.758461 2.0455303 -0.67587453 0
-7.7402444 2.6546078 -0.7377823 0
-18.370764 7.8357954 -1.9181693 33
-7.5957227 2.002624 -0.80081975 0
-7.5763545 2.5983996 -0.8638922 7
-7.5721679 2.5969639 -1.0053207 36
-7.5769663 2.5986094 -1.1477227 33
-7.5232253 2.5801785 -1.2817566 36
-7.4900966 2.5688167 -1.4161783 2
-7.4510603 2.5554285 -1.5492784 1
-8.3832655 2.8751392 -1.9001373 4
-7.7988553 2.6747091 -1.9139161 4
-7.5069323 2.5745904 -1.982384 5
-5.3131323 1.822201 -1.9323063 6
-1.5089297 0.51750517 -0.74358547 14
-2.0254748 0.71050233 0.56660253 18
-3.7837772 1.3272852 0.77485538 6
-5.5884695 1.9603409 0.82853425 24
-6.2610078 2.1962559 0.5760569 5
-11.13518 3.906033 0.60707438 23
-11.196373 3.9274986 0.4004522 33
-10.641118 4.6268911 0.32269675 22
-13.999085 3.795594 0.31800926 27
-11.186214 3.9239354 0.18995015 26
-15.248093 6.6300607 0.16832085 17
-18.395664 4.9876456 0.080503426 40
-11.191409 3.9257574 -0.019664615 37
-18.403036 8.0018702 -0.15130773 39
-18.390308 4.9861932 -0.25608656 34
-11.136499 3.9064958 -0.22825445 86
-18.416035 8.0075216 -0.50691634 36
-18.371487 4.9810901 -0.59253877 37
-11.172427 3.9190989 -0.4389075 55
-18.379271 7.9915361 -0.86101347 43
-8.8611393 2.4025347 -0.44822589 1
-11.159601 3.9145997 -0.64773387 49
-18.377142 7.9906106 -1.2151182 46
-7.8274589 2.1222713 -0.53966504 0
-7.9659743 2.7943292 -0.61178482 0
-9.8301029 4.2742515 -0.8398506 6
-7.7786145 2.1090281 -0.67889637 0
-7.7553573 2.7204485 -0.74101502 0
-18.381338 7.9924355 -1.9250526 34
-7.6122832 2.0639303 -0.80406523 0
-7.5955572 2.6643932 -0.86818159 3
-7.576324 2.6576467 -1.0083113 36
-7.584795 2.6606181 -1.1516941 32
-7.5273871 2.6404805 -1.2855752 37
-7.4794121 2.6236515 -1.4175868 5
-7.4589639 2.6164787 -1.554682 1
-8.3002491 2.9115872 -1.8858821 1
-7.7947001 2.7342491 -1.9175341 4
-7.481451 2.6243668 -1.9804453 4
-5.3002815 1.8592492 -1.9323063 7
-1.4779115 0.51842636 -0.7300657 15
-2.0423081 0.73245937 0.57272798 16
-3.7633283 1.349691 0.77257866 6
-5.5970206 2.0073318 0.83185947 21
-6.2492733 2.2412577 0.57640284 6
-11.152761 3.9998589 0.60954046 21
-11.198786 4.0163651 0.40153158 35
-10.95584 4.8549619 0.33326057 24
-13.991508 3.8986006 0.31844765 27
-11.196195 4.0154357 0.19059101 24
-15.263601 6.7638993 0.16900919 16
-18.398928 5.1266861 0.080672368 45
-11.197617 4.0159459 -0.019724306 33
-18.427177 8.1658039 -0.15197124 37
-18.382021 5.1219754 -0.25646284 34
-11.1466 3.997649 -0.22902794 73
-18.425489 8.1650562 -0.50873321 37
-18.363224 5.1167378 -0.59341002 34
-11.171132 4.0064478 -0.43994477 55
-18.363222 8.1374636 -0.86290205 42
-8.8056641 2.4536147 -0.44627538 0
-11.165835 4.0045476 -0.64970261 51
-18.379314 8.1445942 -1.2189919 52
-7.8086071 2.1757941 -0.53939945 0
-7.8861861 2.8283248 -0.60715884 0
-9.6031485 4.2555313 -0.82297862 4
-7.7867389 2.1697009 -0.68091089 0
-7.7811756 2.7906635 -0.74532533 0
-18.376057 8.1431503 -1.9304063 40
-7.5938549 2.1159556 -0.8036595 0
-7.6254354 2.7348084 -0.8737579 3
-7.5912085 2.7225332 -1.0127971 36
-7.5921249 2.722862 -1.1556654 32
-7.5533762 2.7089651 -1.2932123 30
-7.4757385 2.6811206 -1.4204037 36
-7.484848 2.6843879 -1.5639452 2
-8.2760372 2.9681423 -1.8850436 3
-7.8084302 2.8004382 -1.9256746 3
-7.4483356 2.6712928 -1.9765677 6
-5.2907329 1.8974838 -1.9336075 5
-1.484494 0.53240329 -0.73513561 15
-2.0371451 0.7466985 0.57272798 17
-3.7538147 1.3759294 0.77257866 7
-5.5679941 2.0409017 0.82964265 21
-6.2634082 2.2958 0.5791707 6
-11.150823 4.0872407 0.61097902 21
-11.19675 4.104075 0.40247604 34
-10.969053 4.9527202 0.33470613 25
-13.994707 4.0049872 0.31914908 29
-11.194177 4.1031322 0.19103961 26
-15.256106 6.8883996 0.1694546 12
-18.412682 5.2693176 0.080892004 34
-11.20311 4.1064062 -0.019783996 31
-18.424402 8.3189411 -0.15242362 38
-12.020334 3.4399636 -0.16803664 5
-11.144706 4.0849991 -0.22956938 97
-18.437281 8.3247557 -0.51065105 33
-11.981006 3.4287088 -0.38793182 14
-11.161657 4.0912123 -0.44068566 55
-18.364241 8.2917767 -0.86564904 44
-9.187789 2.6293495 -0.46656063 2
-11.167608 4.0933933 -0.65145266 49
-18.369312 8.2940664 -1.2221392 48
-7.7893901 2.2291574 -0.53913385 0
-11.162583 4.0915513 -0.86158735 44
-9.3769436 4.2338543 -0.80610663 1
-7.7675705 2.2229133 -0.68057513 0
-7.8063903 2.861367 -0.74963564 0
-18.362305 8.2909031 -1.9349953 44
-7.5942016 2.1732988 -0.80528224 0
-7.6808391 2.8153474 -0.88233674 15
-7.6055551 2.7877526 -1.0172828 32
-7.6101089 2.7894218 -1.1613388 30
-7.5528202 2.7684231 -1.2963943 30
-7.4642339 2.7359526 -1.4218121 31
-7.4954066 2.7473788 -1.5701207 3
-7.9503231 2.9141245 -1.8154446 2
-7.7850318 2.8535383 -1.92477 3
-7.4076443 2.71521 -1.9707514 5
-5.2809091 1.9356731 -1.9349087 5
-1.4807411 0.54275334 -0.73513561 15
-2.0427482 0.7649712 0.5757907 17
-3.7514729 1.4048569 0.77409649 8
-5.5721593 2.0866702 0.83241367 22
-6.236032 2.335278 0.57813275 7
-11.155685 4.1775966 0.61282861 22
-11.197775 4.1933589 0.40355545 35
-13.517011 6.2171264 0.41376796 2
-11.871446 3.4872024 0.27127671 17
-11.198969 4.1938057 0.19161637 24
-15.265791 7.0214748 0.17010246 16
-11.820462 3.4722264 0.05203579 20
-11.207882 4.1971436 -0.019843686 32
-18.424025 8.4740982 -0.15290616 35
-11.738913 3.4482713 -0.16443509 14
-11.149623 4.1753263 -0.23026551 66
-18.425945 8.4749823 -0.51196331 37
-11.672913 3.428884 -0.37872201 13
-11.16277 4.1802502 -0.44187111 53
-18.367632 8.4481611 -0.86856771 45
-9.2727079 2.7238309 -0.471827 1
-11.176163 4.1852655 -0.65364021 49
-18.376261 8.4521294 -1.2264971 50
-7.7966137 2.2902324 -0.54072738 0
-11.159901 4.1791754 -0.86361122 46
-18.39724 8.4617796 -1.5865928 38
-7.7633343 2.2804568 -0.68158239 0
-7.8235326 2.9297676 -0.75322759 0
-18.365479 8.4471703 -1.9414963 35
-7.5826616 2.2273848 -0.80568796 0
-7.6833425 2.877269 -0.8849104 10
-7.6305094 2.8574839 -1.0232639 32
-7.6460705 2.8633113 -1.1698488 29
-7.5554991 2.8293941 -1.3002129 24
-7.492888 2.8059473 -1.430967 30
-7.4980974 2.8078983 -1.5747523 3
-7.9224601 2.966814 -1.8137674 2
-7.797761 2.9201167 -1.9329106 3
-7.3921423 2.7682199 -1.9717208 4
-5.2530985 1.9671876 -1.9297038 5
-1.4803112 0.55434901 -0.73682559 14
-2.0373578 0.77921367 0.5757907 15
-3.7452424 1.4324161 0.77485538 9
-5.5315557 2.1156144 0.82853425 20
-6.2046885 2.3730628 0.57674885 7
-11.159828 4.2682195 0.6146782 20
-11.198099 4.2828569 0.40463483 34
-12.640476 5.9212289 0.38819242 9
-11.582612 3.4903803 0.26522693 17
-11.195566 4.281888 0.19206497 27
-15.26711 7.1516333 0.17066933 13
-11.520185 3.4715681 0.050819371 19
-11.193252 4.281003 -0.019870214 33
-18.436859 8.6364508 -0.15350933 35
-11.469463 3.4562831 -0.1609948 13
-11.157556 4.2673502 -0.23103899 50
-18.431511 8.6339464 -0.51378018 38
-11.392213 3.4330041 -0.37038341 13
-11.178117 4.2752142 -0.44364926 50
-18.369728 8.6050043 -0.87148643 42
-9.0545483 2.7285569 -0.46168438 1
-11.169055 4.2717485 -0.65495276 49
-18.356577 8.5988445 -1.2291602 45
-7.7918992 2.3480618 -0.54152411 0
-11.163989 4.2698112 -0.86621332 50
-18.384661 8.6120005 -1.5906545 41
-7.7739396 2.3426499 -0.68393266 0
-11.136883 4.2594438 -1.0750644 30
-18.363749 8.6022034 -1.9476148 34
-7.5554967 2.2768228 -0.8044709 0
-7.7596469 2.9677765 -0.89606291 56
-7.6474438 2.9248631 -1.0282482 29
-7.6591792 2.9293516 -1.1749549 30
-7.5503154 2.8877151 -1.3027586 24
-7.5098934 2.8722551 -1.438009 30
-7.5113044 2.8727949 -1.5816998 0
-7.934432 3.0346255 -1.8213143 2
-7.7953811 2.9814436 -1.937433 4
-7.3726363 2.8197594 -1.9717208 6
-5.2392368 2.0038133 -1.9297038 5
-1.4594737 0.55819446 -0.72837573 13
-2.035471 0.7948249 0.57681161 14
-3.7461257 1.4628133 0.77713215 7
-5.5240312 2.1570623 0.82964265 22
-6.1879702 2.4163218 0.57674885 8
-11.170691 4.3620095 0.61693877 22
-11.827053 4.6183105 0.42851624 1
-12.194629 5.8165379 0.37573823 5
-11.305789 3.4932411 0.25944015 17
-14.61151 5.705605 0.25134429 1
-15.281791 7.2890382 0.17139816 15
-11.25108 3.4763372 0.049738105 17
-18.428789 7.1962023 -0.0328031 30
-18.43388 8.7925072 -0.15399188 36
-11.200486 3.4607048 -0.15755451 24
-11.161019 4.358233 -0.23173513 43
-18.446577 8.798564 -0.5158999 34
-11.184614 3.4558008 -0.36440948 42
-11.170339 4.3618717 -0.44453833 24
-18.37413 8.7640076 -0.87457681 43
-8.8329687 2.7291937 -0.4513467 1
-11.168723 4.3612409 -0.65670282 4
-18.371777 8.7628851 -1.2342445 50
-7.794384 2.4082937 -0.54285204 0
-11.163637 4.3592553 -0.86852628 8
-18.378078 8.7658911 -1.5953412 36
-7.7688198 2.4003952 -0.68493992 0
-11.125429 4.3443356 -1.0768604 51
-18.371529 8.7627668 -1.9548806 34
-7.5736356 2.3400874 -0.80812204 0
-7.731329 3.0189834 -0.89520508 2
-7.6933832 3.0041659 -1.0372199 23
-7.6975555 3.0057952 -1.1840323 26
-7.5888281 2.9633386 -1.3129413 23
-7.5483432 2.9475298 -1.4492766 255
-7.4983773 2.9280188 -1.5832437 0
-8.7109156 3.401499 -2.0049551 3
-7.7925248 3.0428793 -1.9419554 4
-7.3527708 2.8711612 -1.9717208 4
-5.2356896 2.0444686 -1.9336075 5
-1.4690498 0.57364482 -0.73513561 7
-2.0370576 0.81187958 0.57885343 14
-3.7431185 1.4918388 0.77864999 7
-5.519877 2.1999748 0.83130527 21
-6.2227759 2.4801185 0.58159256 8
-11.833895 4.7164583 0.65536904 24
-11.059222 4.4077086 0.40180144 18
-12.070997 5.8613601 0.37318066 3
-11.170564 3.5370767 0.25689748 42
-12.672814 5.0508142 0.21859647 3
-15.273709 7.4165134 0.17188406 13
-11.176962 3.5391026 0.049518473 50
-18.411543 7.3380127 -0.03286279 47
-18.415224 8.9419508 -0.1543538 34
-11.179866 3.5400221 -0.15760826 35
-18.378405 7.3248053 -0.3826414 46
-18.424273 8.9463444 -0.51701021 37
-11.17165 3.5374207 -0.36478287 42
-18.380363 7.3255863 -0.73348826 42
-18.387993 8.9287271 -0.87818223 44
-8.6575365 2.7413452 -0.44334963 0
-18.376593 7.3240838 -1.0834939 40
-18.389168 8.9292984 -1.2395707 44
-7.8040152 2.4710839 -0.54471111 0
-10.869803 4.3322148 -0.84799856 10
-18.384594 8.9270773 -1.6012776 39
-7.7784724 2.462996 -0.68729025 0
-18.340885 7.3098526 -1.7801602 46
-18.385122 8.9273338 -1.9629112 37
-7.5912571 2.4037158 -0.81177318 0
-18.327566 7.3045435 -2.1279886 41
-18.319689 7.301404 -2.4766676 3
-7.6193128 3.0367153 -1.3218513 19
-7.6226816 3.038058 -1.4675862 2
-7.5470252 3.007905 -1.5979105 0
-8.6942225 3.4651263 -2.0066323 5
-7.7964272 3.1073053 -1.948287 4
-7.3361521 2.9238603 -1.9726901 5
-5.2177749 2.0795705 -1.9323063 5
-1.4279629 0.56912184 -0.716546 4
-2.0313401 0.82608116 0.57885343 14
-3.7362504 1.5194137 0.77940887 5
-5.526401 2.247411 0.83463049 22
-6.2016182 2.5220001 0.58124655 8
-11.81548 4.8049788 0.65619105 27
-11.442942 4.6534791 0.41691285 12
-12.226934 6.0429273 0.37929657 3
-11.176029 3.6248457 0.25759891 40
-14.156233 5.7568879 0.24487163 9
-15.268174 7.5460014 0.17241044 13
-11.178616 3.6256847 0.049636737 42
-18.415443 7.4889731 -0.032962274 34
-18.441996 9.1146011 -0.15510777 35
-11.177706 3.6253896 -0.15793079 34
-18.363867 7.467998 -0.38341489 41
-18.429476 9.1084146 -0.51892805 38
-11.1695 3.6227283 -0.3655296 43
-18.376909 7.4733024 -0.73541456 46
-18.36462 9.0763597 -0.88007081 43
-11.127414 3.6090779 -0.57110769 62
-18.38051 7.4747667 -1.0867753 39
-18.383652 9.0857658 -1.2434443 46
-7.8093519 2.5328941 -0.54630464 0
-10.606469 4.3133125 -0.8297838 5
-18.382597 9.0852442 -1.6065892 39
-7.7724619 2.5209291 -0.68829751 0
-18.348452 7.461729 -1.7859073 44
-18.383032 9.0854597 -1.9694122 27
-7.5894327 2.461565 -0.81339592 0
-18.3277 7.45329 -2.1339939 43
-16.624897 6.7608151 -2.2538722 2
-13.941561 5.6695876 -2.1564479 1
-12.163267 4.9464126 -2.1161077 2
-10.68703 4.3460741 -2.0633528 5
-9.5872688 3.8988361 -2.035599 4
-8.6770658 3.5286856 -2.0083094 4
-7.7817636 3.1645947 -1.950096 3
-7.3047762 2.9706192 -1.969782 5
-5.199626 2.114522 -1.9310051 5
-1.3299201 0.54083604 -0.66922688 2
-2.0576746 0.85357964 0.58804154 12
-3.718297 1.5424511 0.77789104 5
-5.5105767 2.2859378 0.83463049 21
-6.205946 2.5743957 0.58332247 9
-11.811167 4.8995943 0.65783513 17
-11.159078 4.6290903 0.40773806 9
-12.088 6.0796318 0.3762942 17
-11.177017 3.7116029 0.25821266 40
-13.890349 5.7620959 0.2409624 4
-15.283013 7.6865559 0.17317976 12
-11.179604 3.7124619 0.049755 46
-18.443996 7.651073 -0.033108182 30
-18.431513 9.2700863 -0.15556015 36
-11.171103 3.7096388 -0.15819956 33
-18.366693 7.6190057 -0.38457513 43
-18.433311 9.2709913 -0.52084595 32
-11.178085 3.7119575 -0.36664972 44
-18.372286 7.621326 -0.73734093 43
-18.379349 9.2438507 -0.88384795 40
-11.143655 3.7005239 -0.57325321 41
-18.379528 7.6243296 -1.0898379 40
-18.380411 9.2443848 -1.2475601 45
-7.8255692 2.5986724 -0.54869485 0
-10.340255 4.2894201 -0.81127989 1
-18.386408 9.2474012 -1.6125257 37
-7.7811527 2.5839226 -0.69064778 0
-18.325352 7.6018558 -1.7887808 60
-8.2631826 4.1559486 -0.88833874 3
-7.609828 2.5270302 -0.81745279 0
-18.333992 7.6054406 -2.140857 50
-16.613953 6.891921 -2.2588565 1
-13.883353 5.7591939 -2.1536112 1
-12.102905 5.0206156 -2.1116526 2
-10.652792 4.4190688 -2.0626488 5
-9.5634413 3.9671764 -2.036371 4
-8.6449947 3.5861797 -2.0066323 4
-7.781075 3.2278025 -1.955523 3
-7.2838597 3.0215437 -1.969782 4
-5.1812439 2.1493213 -1.9297038 6
-1.2390441 0.51398933 -0.62528777 0
-2.1870184 0.92518294 0.626836 7
-3.725523 1.5760226 0.78168565 7
-5.527319 2.3382435 0.83961833 22
-6.1878219 2.6176586 0.58332247 10
-11.817142 4.9990525 0.66009575 14
-10.993943 4.6508112 0.40288082 11
-12.016788 6.1493025 0.37540463 24
-11.173553 3.7972581 0.25873873 39
-15.25318 6.4526124 0.26537907 1
-12.038621 6.1604748 0.13689989 25
-11.179927 3.7994239 0.049873263 45
-18.430656 7.796793 -0.033181135 39
-12.003288 6.1423945 -0.10166601 22
-11.171442 3.7965407 -0.15857585 34
-18.368301 7.7704153 -0.38573533 53
-11.982008 6.1315045 -0.33976111 22
-11.174614 3.7976184 -0.36739644 44
-18.388578 7.7789931 -0.74015629 44
-12.074391 6.1787796 -0.58270782 7
-11.151595 3.7897959 -0.57500869 42
-18.388384 7.7789106 -1.0935568 39
-12.042046 6.1622276 -0.82024717 23
-7.8601422 2.6712172 -0.55241305 0
-18.371449 7.7717462 -1.4456164 39
-12.009553 6.1456003 -1.0569994 21
-7.8082123 2.6535692 -0.69467682 0
-18.330538 7.7544398 -1.7945279 56
-8.1028204 4.1464238 -0.87418956 7
-7.6221447 2.5903354 -0.82069826 0
-18.331728 7.7549429 -2.146862 49
-16.517914 6.9876385 -2.252377 1
-13.820929 5.8467216 -2.150207 1
-12.060287 5.1019106 -2.1103799 2
-10.614428 4.490263 -2.0612402 5
-9.5210533 4.0277286 -2.0332832 4
-8.6269512 3.6494932 -2.0083094 4
-7.7798824 3.2911541 -1.9609499 3
-7.2590137 3.0708091 -1.9688126 4
-5.1695957 2.1869144 -1.9310051 5
-1.2254086 0.5183894 -0.62021786 0
-2.1307881 0.91898465 0.61254328 5
-5.2939644 2.2832265 1.1140918 19
-5.5217738 2.3814783 0.84128094 21
-6.1876931 2.6686816 0.58505237 10
-11.822307 5.0988264 0.66235632 22
-10.788678 4.6530342 0.39653942 15
-11.881351 6.1850419 0.37251347 22
-11.173212 3.8843639 0.25935248 39
-16.80162 7.2463479 0.29319227 3
-11.832117 6.1594129 0.1350373 22
-11.179576 3.8865764 0.049991526 47
-18.423527 7.9458575 -0.033267356 50
-11.807551 6.1466246 -0.10036917 24
-11.171111 3.8836334 -0.15895213 34
-18.361351 7.9190416 -0.38674086 43
-11.782845 6.1337638 -0.33531979 21
-11.181816 3.8873549 -0.36851656 41
-18.374203 7.9245844 -0.7417863 40
-11.878535 6.1835766 -0.57532525 25
-11.13996 3.8728039 -0.57578886 42
-18.392313 7.9323955 -1.0970569 41
-11.849986 6.168715 -0.8100788 27
-7.89785 2.7456853 -0.55639678 1
-18.397341 7.9345641 -1.451977 36
-11.814257 6.150115 -1.0435643 23
-7.8271451 2.7211046 -0.69803441 0
-18.349121 7.9137669 -1.8017118 51
-7.9500628 4.1385422 -0.86080521 10
-7.6564965 2.6617787 -0.82637781 0
-18.335573 7.9079242 -2.1537251 56
-16.465088 7.1012049 -2.2518785 1
-13.779777 5.9430609 -2.150207 1
-11.995368 5.1734657 -2.1052885 2
-10.571977 4.5595732 -2.0591276 4
-9.4818926 4.0894322 -2.0309675 4
-8.5833073 3.7018828 -2.0041165 4
-7.7924953 3.3608146 -1.9699949 5
-7.2480903 3.1260188 -1.9717208 4
-5.1472569 2.2199533 -1.9284027 5
-1.2483922 0.5384174 -0.63373756 0
-2.0853746 0.91671765 0.60131335 6
-5.2814903 2.3217103 1.1148506 30
-5.5303988 2.431129 0.84516037 19
-6.2053924 2.7278519 0.58851218 10
-11.822991 5.1973128 0.66441143 24
-10.591243 4.6558442 0.39046788 9
-11.682399 6.1855149 0.36762077 22
-11.175966 3.9729893 0.2600539 38
-15.34833 6.7470303 0.26864743 2
-11.633293 6.1595149 0.13325569 22
-11.178552 3.9739084 0.050109793 43
-18.448164 8.1096983 -0.033413265 37
-11.608814 6.1465535 -0.099042177 24
-11.18518 3.9762645 -0.15954342 33
-18.364197 8.0727863 -0.38797843 42
-11.580709 6.1316729 -0.33077753 22
-11.169473 3.9706807 -0.36901438 41
-18.376978 8.0784054 -0.74415714 46
-11.679677 6.1840739 -0.56777102 24
-11.131474 3.9571726 -0.57676411 44
-18.380362 8.0798922 -1.0996819 37
-11.654903 6.1709566 -0.79966837 30
-7.9160953 2.8141246 -0.55905259 0
-18.385326 8.0820751 -1.4554465 36
-11.615966 6.1503401 -1.0298167 22
-7.853025 2.7917035 -0.70206344 0
-18.322601 8.0545015 -1.8045853 54
-7.8048539 4.1324596 -0.84818566 9
-7.6752219 2.7284956 -0.83043462 0
-18.338169 8.0613451 -2.1605883 52
-16.360611 7.1920228 -2.2444022 1
-13.716201 6.0295563 -2.1468031 1
-11.948112 5.2523155 -2.1033792 2
-10.521864 4.6253457 -2.0556066 3
-9.4638901 4.1602674 -2.0332832 4
-8.5608349 3.7632895 -2.0049551 5
-7.811646 3.4339509 -1.9808489 9
-7.2047739 3.1671736 -1.9659045 4
-5.1316333 2.2558339 -1.9284027 6
-1.2777923 0.56170952 -0.65063727 0
-2.0542169 0.9201864 0.59416699 13
-5.2866588 2.3681588 1.1194042 31
