# .PCD v0.7 - Point Cloud Data file format
VERSION 0.7
FIELDS x y z intensity
SIZE 4 4 4 4
TYPE F F F F
COUNT 1 1 1 1
WIDTH 1385
HEIGHT 1
VIEWPOINT 0 0 0 1 0 0 0
POINTS 1385
DATA ascii
13.800065 -7.3129287 0.43433958 76
8.7748814 -3.8610394 0.15361352 23
10.493122 -5.5605135 0.12021761 0
6.7228794 -2.3925879 0.030140212 37
8.8052845 -3.8744173 -0.015950557 33
10.242425 -5.4276643 -0.087400801 0
6.7072601 -2.3870292 -0.095683053 1
8.7743664 -3.8608129 -0.18540357 49
9.9815245 -5.2894082 -0.28515306 0
6.7196846 -2.3914509 -0.22203092 0
8.7955942 -3.8701537 -0.35622337 50
9.2904596 -4.9231992 -0.45171016 0
6.6885943 -2.3803864 -0.34660462 32
8.8030863 -3.8734503 -0.52676225 49
9.0244417 -4.7822309 -0.61930114 44
6.6103406 -2.3525367 -0.46689525 0
8.8151302 -3.8787494 -0.69794357 49
8.9746342 -4.755837 -0.79579592 10
6.7067242 -2.3868384 -0.59965819 41
8.7879553 -3.8667924 -0.865655 53
8.8307314 -4.6795802 -0.95984948 8
6.7107677 -2.3882775 -0.72617394 0
8.8200445 -3.8809118 -1.03933 55
8.8274889 -3.8841875 -1.2111697 46
8.8322535 -3.8862841 -1.3826002 39
8.8196421 -3.8807349 -1.552873 27
8.1055288 -3.5665176 -1.5837818 4
7.4363127 -3.2720554 -1.5979105 3
6.8626523 -3.0196388 -1.607486 4
6.362483 -2.7995591 -1.613623 4
5.9817438 -2.63203 -1.6324375 7
4.4695826 -1.9666631 -1.6798704 6
3.3648896 -1.4805866 -1.7136265 8
5.9155793 -2.6498849 1.7110376 20
8.4299803 -3.776211 1.7849754 31
7.2666993 -3.2551193 1.1139491 1
8.7646885 -3.9261439 0.83381206 37
8.7495832 -3.9193776 0.49322224 32
8.7707624 -3.9288647 0.32435548 34
13.81111 -7.4365163 0.43622997 72
6.7090707 -2.4379246 0.15650581 0
8.7782803 -3.9322324 0.15412621 27
10.512362 -5.6603227 0.12086546 0
6.7219014 -2.4425871 0.03020779 57
8.7976475 -3.9409077 -0.015983718 33
11.280355 -6.0738449 -0.096599296 0
6.7100768 -2.4382904 -0.095951825 1
8.7704659 -3.9287317 -0.18586765 47
10.0096 -5.3896136 -0.28696996 0
6.7074342 -2.43733 -0.22215538 0
8.7916203 -3.9382079 -0.35711247 51
9.2259359 -4.9676542 -0.45016497 0
6.7027001 -2.4356098 -0.34816504 41
8.7954283 -3.9399135 -0.52785605 49
8.9644032 -4.8268332 -0.61736429 10
6.7071285 -2.4372189 -0.47486272 0
8.8219795 -3.9518073 -0.70054567 49
8.9464073 -4.8171434 -0.79610837 12
6.7057314 -2.4367113 -0.6010012 51
8.8093815 -3.9461639 -0.87032449 48
8.8030081 -4.7399306 -0.96023184 26
6.7284412 -2.4449635 -0.72982508 3
8.8122587 -3.9474528 -1.0414748 54
8.819644 -3.9507613 -1.2136618 45
8.8351936 -3.9577267 -1.387139 41
8.8153334 -3.9488304 -1.5566915 25
8.0781031 -3.6185877 -1.5830775 4
7.4037018 -3.3164895 -1.5955946 4
6.8531818 -3.0698843 -1.6100017 4
6.3579988 -2.8480668 -1.617241 4
5.9606147 -2.6700585 -1.6314681 7
4.4633446 -1.9993562 -1.6824727 7
3.3583047 -1.5043533 -1.7153164 10
5.8889604 -2.6899624 1.7089958 19
8.2806139 -3.7824235 1.7591722 32
7.1201305 -3.252337 1.0951061 8
8.7501717 -3.9969082 0.83519596 50
8.7351532 -3.9900477 0.49404427 24
8.7671814 -4.0046778 0.32529995 37
13.794801 -7.558692 0.43745315 56
6.7022648 -2.4912188 0.15676884 0
8.7819614 -4.0114293 0.15470299 27
10.523203 -5.7660599 0.12147284 0
6.7338104 -2.5029442 0.030342948 54
8.8049068 -4.0219102 -0.016050041 34
11.165373 -6.1179295 -0.095996119 0
6.7445097 -2.5069211 -0.096704386 30
8.7705326 -4.0062089 -0.18648644 50
9.9487829 -5.4513135 -0.28636432 0
12.108354 -4.5006514 -0.4021199 0
8.7843313 -4.0125117 -0.35800153 53
9.199789 -5.0409117 -0.45068005 0
6.7033911 -2.4916372 -0.34914029 42
8.7990074 -4.0192151 -0.52982485 52
8.9077721 -4.8809047 -0.61591166 52
6.7077885 -2.4932718 -0.47619066 10
8.821806 -4.0296292 -0.70285869 50
8.9073582 -4.8806777 -0.79579592 5
12.168607 -4.523047 -1.0935537 2
8.80196 -4.0205641 -0.87247962 51
8.7715178 -4.8062458 -0.96061426 14
12.089054 -4.4934773 -1.314821 1
8.8120251 -4.0251613 -1.0449064 55
8.822937 -4.0301461 -1.2181476 47
8.8275547 -4.0322552 -1.390543 44
8.8220711 -4.0297503 -1.5630558 23
8.0656872 -3.6842487 -1.5858945 4
7.3791919 -3.3706713 -1.5955946 4
6.8304949 -3.1200371 -1.6100017 5
6.3582163 -2.9043093 -1.622668 5
5.9408822 -2.7136793 -1.6314681 6
4.4485693 -2.0320196 -1.6824727 6
3.3438895 -1.5274236 -1.7136265 10
5.8630242 -2.727746 1.706954 19
8.1329384 -3.7838135 1.733369 31
6.9895 -3.2518339 1.07848 2
8.7690268 -4.0797505 0.83969373 34
8.5875616 -3.9953249 0.48726246 16
8.7643833 -4.07759 0.32624441 37
13.797584 -7.6859469 0.43923232 80
13.773194 -5.2291946 0.32300693 18
8.7936316 -4.091198 0.15540794 28
10.538599 -5.8705287 0.12212069 0
8.8056278 -4.0967793 -0.016103098 35
10.203385 -5.6837978 -0.088064298 0
12.268358 -4.6578617 -0.17636859 0
8.7713594 -4.0808358 -0.18710522 53
9.9593887 -5.5478792 -0.28777745 0
11.912178 -4.5226326 -0.39664379 0
8.7887239 -4.0889144 -0.35933515 55
9.1678629 -5.1069598 -0.45085174 0
8.8033266 -4.0957084 -0.53179365 49
8.8769674 -4.9449167 -0.61615378 3
8.8151627 -4.1012154 -0.70459342 52
8.9009371 -4.9582691 -0.7982955 23
12.024942 -4.5654454 -1.083481 2
8.7953491 -4.0919971 -0.8746348 52
8.7412281 -4.8693032 -0.96099669 9
12.109472 -4.5975385 -1.3205006 2
8.8053446 -4.0966473 -1.04748 55
8.8233747 -4.1050358 -1.2221351 46
8.8315001 -4.1088161 -1.395649 42
8.8223677 -4.1045675 -1.5681472 21
8.0504808 -3.7454503 -1.5880071 4
7.376832 -3.4320383 -1.6002263 4
6.8404622 -3.1824944 -1.6175485 4
6.3307199 -2.9453392 -1.620859 5
5.9393854 -2.7632725 -1.636315 6
4.4411335 -2.0662174 -1.6850752 7
3.3495805 -1.5583774 -1.7220763 10
5.8238301 -2.7566433 1.7008286 21
8.0082703 -3.7906229 1.7121192 26
8.0670128 -3.818428 1.2486205 17
8.7777939 -4.1548681 0.84315354 40
8.6114235 -4.0761189 0.49013957 16
8.7624397 -4.1476007 0.32718888 36
13.801987 -7.8087897 0.44101149 54
8.7988386 -4.1648297 0.1559847 24
10.596908 -5.9954429 0.12325443 0
12.200891 -4.7250667 0.055262685 0
8.8108025 -4.1704922 -0.016162788 33
10.200278 -5.7710409 -0.08836589 0
12.005953 -4.6495724 -0.17303582 1
8.765789 -4.1491861 -0.18756932 53
9.9571781 -5.6335015 -0.28878686 0
11.66941 -4.5192385 -0.38954976 0
8.8011532 -4.165925 -0.36096513 51
9.1477041 -5.1755228 -0.45153847 0
11.735687 -4.5449057 -0.61440885 0
8.801239 -4.1659656 -0.5333249 48
8.8405018 -5.0017166 -0.61591166 1
11.686519 -4.5258641 -0.83393121 0
8.8238277 -4.1766577 -0.70748466 50
8.8470325 -5.0054111 -0.79642081 5
11.763952 -4.5558519 -1.0626642 1
8.7968235 -4.1638756 -0.87750834 50
8.7295341 -4.9389338 -0.96329117 4
9.4885626 -3.6746571 -1.0373334 3
8.8283052 -4.1787772 -1.0534852 57
8.8318272 -4.1804442 -1.2271193 46
8.8362646 -4.1825447 -1.400755 39
8.8199368 -4.1748161 -1.5726022 16
8.0183439 -3.7953913 -1.5865986 4
7.3680978 -3.4876046 -1.603314 4
6.8050637 -3.2210989 -1.6141944 4
6.3321772 -2.9972634 -1.626286 5
5.9279432 -2.8059239 -1.6382537 6
4.4273319 -2.0956268 -1.6850752 7
3.3227866 -1.5728029 -1.7136265 9
5.7939906 -2.792197 1.6977658 19
7.8613214 -3.7884696 1.686316 29
7.9759235 -3.8436978 1.2386448 20
8.7629328 -4.2229676 0.84453744 33
8.7554922 -4.2193818 0.50000405 31
8.7728853 -4.2277637 0.32867303 35
13.799129 -7.9348502 0.44267944 75
12.365618 -4.8884063 0.29153043 0
8.7911654 -4.2365732 0.15636921 25
10.617208 -6.1051645 0.12398327 0
9.4446821 -3.7336948 0.042895738 3
8.7958851 -4.2388477 -0.016189318 32
10.232559 -5.8839812 -0.088999227 0
9.4141579 -3.7216277 -0.1360527 16
8.7798424 -4.2311163 -0.1884975 49
9.9834709 -5.7407494 -0.2907047 0
9.3583965 -3.699584 -0.31325775 13
8.7970619 -4.2394147 -0.36200237 50
9.1459942 -5.2591786 -0.45325536 0
9.4446774 -3.7336926 -0.4958182 5
8.7971258 -4.2394457 -0.5348562 42
8.8261356 -5.0752521 -0.61736429 2
9.3979435 -3.7152178 -0.67245662 22
8.798048 -4.2398896 -0.70777375 19
8.7738476 -5.0451851 -0.79298395 1
9.352128 -3.6971059 -0.84710956 21
8.799839 -4.2407532 -0.88074106 50
8.7017469 -5.0037251 -0.96405596 4
9.3072481 -3.6793642 -1.0202947 22
8.8060818 -4.2437615 -1.0543431 43
8.8024273 -4.2420001 -1.2271193 19
8.8032827 -4.2424126 -1.4001876 15
8.7941341 -4.2380037 -1.5732385 12
8.0164824 -3.8632436 -1.5915282 4
7.3435702 -3.5389588 -1.603314 4
6.7788873 -3.2668309 -1.6133558 4
6.2935476 -3.0329397 -1.6217635 4
5.9012175 -2.8438709 -1.636315 5
4.4091864 -2.1248424 -1.683774 7
3.3149915 -1.5975361 -1.7153164 8
5.7604675 -2.8257656 1.6936822 18
7.7465324 -3.8000188 1.6673431 30
7.8706503 -3.8609042 1.2264524 18
8.7725925 -4.3033466 0.84834325 20
8.7545137 -4.2944784 0.50164813 30
8.76828 -4.3012319 0.3296175 32
13.805538 -8.0673046 0.44468102 54
9.3234911 -3.7612579 0.2204233 15
8.7793283 -4.3066511 0.15668964 14
13.823981 -8.0780821 0.16208525 35
9.2662964 -3.7381847 0.042203054 22
8.8055811 -4.3195291 -0.016262272 1
10.426068 -6.0925026 -0.091050036 0
9.2284508 -3.7229171 -0.13374126 20
8.7680416 -4.3011146 -0.18888424 46
9.9776745 -5.830482 -0.2917141 0
9.1803236 -3.7035015 -0.30815503 19
8.7959604 -4.3148103 -0.36318782 38
9.1366587 -5.3390322 -0.45462885 0
9.2664719 -3.7382553 -0.48782113 21
8.7995872 -4.3165889 -0.536825 7
8.8042784 -5.1448045 -0.61833274 2
9.2200222 -3.7195168 -0.66156775 25
8.8040524 -4.318779 -0.71066499 11
8.7349682 -5.1043034 -0.7926715 15
9.193017 -3.7086222 -0.83502239 21
8.7521353 -4.2933116 -0.87894511 3
8.6666021 -5.064353 -0.96405596 3
9.1447897 -3.6891668 -1.0052843 22
8.811944 -4.3226509 -1.0586325 11
8.826045 -4.3295679 -1.2345957 6
9.2533598 -4.5391846 -1.4767781 1
8.7678785 -4.3010345 -1.573875 5
7.9893165 -3.9191151 -1.5915282 4
7.3222075 -3.5918686 -1.6040859 4
6.7804952 -3.3261344 -1.6192256 4
6.2932096 -3.0870993 -1.6271905 4
5.8847041 -2.8867092 -1.6372844 5
4.3942447 -2.1555727 -1.683774 6
3.3070126 -1.6222367 -1.7170064 8
5.7292199 -2.8627298 1.6906195 20
7.60956 -3.8022826 1.6438166 6
7.7783508 -3.8866227 1.2164767 19
13.628109 -6.8095822 1.3226819 16
13.804248 -6.8975935 0.79388225 30
13.825366 -6.9081454 0.5216133 31
13.801028 -8.2009687 0.44646019 76
9.1440697 -3.7670462 0.21682848 21
13.833164 -8.2200651 0.16289507 38
9.1018047 -3.7496345 0.04157795 22
12.183681 -6.087842 -0.022582805 0
10.350181 -6.1503754 -0.090778604 0
9.0529881 -3.7295239 -0.13159107 17
9.9759178 -5.9279776 -0.29292536 0
9.0124559 -3.7128258 -0.30342567 21
9.1385021 -5.4303608 -0.45668909 0
9.0873642 -3.7436855 -0.47982407 21
9.2929134 -4.6434069 -0.56898201 0
8.7869215 -5.2214422 -0.61978537 2
9.0633497 -3.7337925 -0.65227228 23
8.7350273 -5.1906047 -0.79610837 1
9.0144835 -3.7136612 -0.8212564 21
9.2549868 -4.6244564 -0.93282408 2
8.6908579 -5.1643581 -0.97093934 1
8.9740067 -3.696986 -0.98946267 25
9.182025 -4.5879989 -1.1071031 2
9.1846037 -4.5892873 -1.2894223 2
9.2517157 -4.6228213 -1.4818842 2
8.7255163 -4.3598948 -1.5719657 5
7.9603734 -3.9775741 -1.5915282 4
7.3062148 -3.6507096 -1.6064018 4
6.766427 -3.3809929 -1.6217413 4
6.2494979 -3.1226981 -1.6217635 5
5.8599138 -2.9280338 -1.636315 5
4.39186 -2.1944885 -1.6889788 6
3.2982752 -1.6480552 -1.7186964 9
5.6608305 -2.8781168 1.6763269 11
3.9699588 -2.0184326 0.86061311 4
7.6909981 -3.9103081 1.2070552 20
13.640628 -6.9352579 1.3285636 22
13.791368 -7.0118985 0.79593736 45
13.83382 -7.0334826 0.52377206 29
13.805053 -8.3343153 0.44846174 62
8.9811354 -3.7734776 0.21358439 20
10.706152 -5.4432926 0.1924495 0
13.8405 -8.3557158 0.1636644 35
8.9242105 -3.7495601 0.040885266 23
10.415132 -5.29533 -0.019372797 0
13.875058 -8.3765783 -0.12220429 27
8.8829231 -3.7322128 -0.12949465 17
10.05314 -5.1112838 -0.21812184 0
10.146531 -6.1256118 -0.29918358 0
8.8499365 -3.7183533 -0.29882076 24
9.5884695 -4.8750334 -0.39875087 0
9.1311588 -5.5126162 -0.45823428 0
8.9210405 -3.7482283 -0.47241214 22
9.1819458 -4.6683455 -0.56416941 0
8.7912722 -5.3074217 -0.62269062 2
8.8788404 -3.7304976 -0.64085221 15
9.061409 -4.6070614 -0.73668611 1
8.7429571 -5.2782531 -0.80017018 2
8.8082771 -3.70085 -0.80480444 9
9.059123 -4.6058993 -0.91630119 1
8.6648178 -5.2310791 -0.97208655 2
8.8232422 -3.7071376 -0.97566944 36
9.0682354 -4.6105323 -1.0972375 1
9.1417284 -4.6478977 -1.287927 2
9.275691 -4.7160077 -1.4909616 1
8.7230291 -4.43502 -1.577057 4
7.9148622 -4.0241265 -1.5880071 4
7.2875481 -3.7051835 -1.6079457 4
6.7461457 -3.42992 -1.6225798 4
6.2483854 -3.1768456 -1.6271905 5
5.8427901 -2.9706299 -1.6372844 6
4.3798051 -2.2268093 -1.6902801 7
3.2737629 -1.6644682 -1.7119365 9
5.6715159 -2.9335582 1.6855149 18
3.952282 -2.0442944 0.85985422 1
7.6564741 -3.9602661 1.2059468 19
13.737 -7.105382 1.3427488 15
13.788206 -7.1318684 0.79860896 35
13.830542 -7.1537657 0.52552605 31
8.7928324 -3.7667959 0.20972654 27
10.742491 -5.5564895 0.19379529 0
13.843204 -8.4897728 0.16439323 38
8.8022203 -3.7708175 0.040446002 49
10.456073 -5.4083419 -0.019518705 0
13.874208 -8.5087862 -0.12271699 36
8.7904739 -3.7657857 -0.12852706 35
10.059837 -5.2033916 -0.21905002 0
10.10352 -6.1962957 -0.29918358 0
8.7870111 -3.7643023 -0.29757619 40
9.5222483 -4.9253263 -0.39741728 0
9.1094856 -5.5866733 -0.45909274 0
8.784482 -3.7632189 -0.46656063 37
9.0994644 -4.7066441 -0.5611068 0
8.75741 -5.3707519 -0.62293267 2
8.7718697 -3.7578156 -0.63500941 3
9.0290251 -4.6702099 -0.73668611 1
8.8622694 -5.4350605 -0.81454259 3
8.8005457 -3.7701001 -0.80648321 5
8.9984388 -4.6543894 -0.91342765 0
8.6756077 -5.3205838 -0.9774403 1
8.8081207 -3.7733452 -0.97688651 18
8.9581137 -4.6335316 -1.0878006 1
9.1266823 -4.7207227 -1.2904191 2
9.6751251 -5.0044012 -1.560744 1
8.6953621 -4.4976244 -1.5776935 3
7.9215493 -4.0973744 -1.5950493 3
7.2649894 -3.7577727 -1.6087176 4
6.7324576 -3.4823241 -1.6250954 4
6.2295156 -3.2221801 -1.6280949 4
5.8356962 -3.0184793 -1.6411619 6
4.364152 -2.2573318 -1.6902801 6
3.2685034 -1.6906141 -1.7153164 9
5.6485114 -2.9693091 1.684494 20
3.976876 -2.0905638 0.86820233 1
7.6545854 -4.0238619 1.2098262 19
13.774228 -7.2408352 1.3510523 26
13.78657 -7.2473226 0.80128062 62
13.821715 -7.2657981 0.5270102 30
13.809129 -8.5954247 0.45235369 50
8.7713213 -3.8266284 0.20981422 44
10.765584 -5.6592517 0.19488475 0
13.840925 -8.6152163 0.16504109 35
8.7916822 -3.835511 0.040513579 50
10.34916 -5.4403462 -0.019386061 0
13.868407 -8.6323233 -0.12316938 33
8.7799692 -3.8304009 -0.12874208 32
9.9967861 -5.2551098 -0.21843123 0
10.231943 -6.3688235 -0.30423054 9
8.7984972 -3.8384845 -0.29882076 42
9.4893723 -4.9883723 -0.39741728 0
9.1095533 -5.6701975 -0.46098128 0
8.7703161 -3.8261898 -0.4671458 37
9.0185547 -4.7408729 -0.55804425 0
8.7588835 -5.4519248 -0.62559581 2
8.786993 -3.8334656 -0.63793081 46
8.9625387 -4.7114267 -0.73379487 1
8.7447758 -5.4431434 -0.80704391 2
8.804574 -3.8411355 -0.80916923 48
8.8897924 -4.6731858 -0.90552539 1
8.673933 -5.3990474 -0.98126441 1
8.8157272 -3.8460011 -0.98053765 48
8.881424 -4.6687865 -1.0822244 3
9.0178871 -4.7405219 -1.2794538 1
9.6627512 -5.079514 -1.5641481 1
8.675827 -4.5607085 -1.5796027 3
7.887229 -4.1461577 -1.5936408 3
7.2503285 -3.811352 -1.6110334 4
6.7161374 -3.5305386 -1.6267725 4
6.2218032 -3.2706771 -1.6317129 4
5.8121133 -3.0553112 -1.6401925 6
4.3423886 -2.2827065 -1.6876776 4
3.2732639 -1.7206892 -1.7237662 10
5.5969481 -2.99226 1.675306 18
3.9517937 -2.1127217 0.86592555 1
7.6053457 -4.0659966 1.206501 30
13.818228 -7.3875494 1.3603938 26
13.792003 -7.373529 0.80456877 45
13.820011 -7.3885026 0.52889913 26
13.826518 -8.7407627 0.45491123 32
8.7663183 -3.8975174 0.21034029 45
10.859841 -5.8059263 0.19732 0
13.85144 -8.7565174 0.16589139 35
8.7829666 -3.9049189 0.040598053 47
10.374422 -5.5464101 -0.019505441 0
13.875423 -8.7716789 -0.12377256 32
8.7895613 -3.9078512 -0.12927963 35
10.044498 -5.3700252 -0.22028759 0
13.884919 -8.7776823 -0.41465795 32
8.7970591 -3.9111845 -0.29969195 43
9.4684162 -5.0620379 -0.39800999 0
9.1204157 -5.7656875 -0.46355662 0
8.7725973 -3.9003088 -0.46870619 45
8.9746704 -4.79807 -0.55738801 1
8.7611074 -5.5385423 -0.62850106 2
8.7855453 -3.9060657 -0.63978988 50
8.9188738 -4.7682395 -0.7329275 6
8.7234163 -5.5147152 -0.80860615 2
8.7957544 -3.9106047 -0.810848 42
8.8358717 -4.7238646 -0.90337026 8
8.679781 -5.4871297 -0.98623574 1
8.8141165 -3.9187684 -0.9833774 49
8.8310766 -4.7213016 -1.0800797 13
8.9460716 -4.7827802 -1.2739711 1
9.634038 -5.1505833 -1.5652827 1
8.6437759 -4.6211662 -1.5796027 2
7.8719807 -4.2085462 -1.5964577 3
7.2200828 -3.8600259 -1.6102614 4
6.7085714 -3.5865602 -1.6309652 4
6.2056904 -3.317708 -1.6335219 4
5.794064 -3.0976429 -1.6411619 6
4.3296819 -2.3147497 -1.6889788 6
3.2547772 -1.7400805 -1.7203863 9
5.2453322 -2.8539121 1.5762781 14
3.9362011 -2.1416321 0.86592555 2
7.5788174 -4.123529 1.2070552 22
13.826714 -7.522922 1.3666214 28
13.78671 -7.5011563 0.80744588 42
13.825178 -7.5220866 0.53119284 27
13.819263 -8.878623 0.45680159 32
8.7666492 -3.9748838 0.21104172 44
10.915359 -5.9388947 0.19911441 1
13.840722 -8.8924112 0.16653925 31
8.7796068 -3.9807587 0.040716317 44
11.183779 -6.084938 -0.021110445 0
13.864595 -8.9077492 -0.12425511 32
8.7934637 -3.9870417 -0.12976342 34
9.9978409 -5.4396853 -0.2201329 0
13.897579 -8.9289408 -0.41697955 33
8.7936411 -3.9871221 -0.30056316 43
9.4486122 -5.1408582 -0.39875087 0
9.1148891 -5.8561497 -0.46544516 0
8.7692413 -3.976059 -0.47007155 44
8.9427681 -4.8656349 -0.55760676 1
8.760581 -5.6285133 -0.63140631 2
8.7784872 -3.9802511 -0.64138341 53
8.9082127 -4.8468342 -0.73495132 5
8.7834063 -5.643178 -0.81797951 2
8.792263 -3.9864974 -0.81319833 40
8.7940092 -4.7846975 -0.90265185 81
8.8034687 -5.6560674 -1.0049739 1
8.8250198 -4.0013494 -0.98783994 50
8.8067122 -4.7916093 -1.0813665 4
8.9003143 -4.8425369 -1.2724758 1
9.6134148 -5.230525 -1.5681194 1
8.6200771 -4.6900635 -1.581512 3
7.8478384 -4.2698994 -1.5978661 3
7.2260704 -3.9316041 -1.6179808 4
6.675231 -3.6319001 -1.6292881 4
6.1948953 -3.3705559 -1.6371399 4
5.7746115 -3.1418855 -1.6421313 6
4.3159213 -2.3482325 -1.6902801 6
3.2387502 -1.7621588 -1.7186964 9
5.5772419 -3.0851562 1.6824522 20
3.9349 -2.1766639 0.86896122 3
7.5013146 -4.1494932 1.1992964 19
13.798265 -7.6327696 1.3690432 20
13.789934 -7.628161 0.81073403 55
13.831796 -7.6513176 0.53348655 32
13.823918 -9.0185785 0.45902556 34
8.7640991 -4.0477271 0.21165547 43
10.870131 -6.0130177 0.19905032 1
13.835254 -9.0259743 0.1672276 30
8.780652 -4.0553722 0.040851474 46
10.339487 -5.7194815 -0.019591661 0
13.87242 -9.0502214 -0.12488844 35
8.7944622 -4.0617504 -0.13019346 33
11.355927 -6.2817445 -0.25099483 1
13.895188 -9.0650749 -0.41879645 34
8.7873688 -4.0584745 -0.30130988 43
9.4229851 -5.212501 -0.3991954 0
9.1340303 -5.9589453 -0.46853554 0
8.7739134 -4.0522594 -0.471827 46
8.912076 -4.929882 -0.55782551 1
8.7846088 -5.7309871 -0.6360063 2
8.7867193 -4.0581741 -0.64403921 46
8.8811407 -4.9127698 -0.7355296 5
8.8005743 -5.7414021 -0.82329106 1
8.7967844 -4.0628228 -0.8162201 43
8.7534189 -4.8421178 -0.90193349 41
8.7704372 -5.7217412 -1.0057386 0
8.8257713 -4.0762105 -0.99108541 48
8.811326 -4.8741503 -1.086085 2
8.8107233 -4.873817 -1.2645011 1
9.587059 -5.3032618 -1.5698214 1
8.5836687 -4.7482176 -1.5808756 3
7.8247275 -4.3283949 -1.5992745 3
7.1950111 -3.9800556 -1.617209 4
6.6599798 -3.684093 -1.6318038 4
6.1643939 -3.4099503 -1.6353309 4
5.762723 -3.1877587 -1.6450394 7
4.3027315 -2.3801367 -1.6915812 7
3.2295415 -1.7864815 -1.7203863 9
5.5690527 -3.1316001 1.6865358 21
3.9230318 -2.2060065 0.86972016 4
7.4825225 -4.2075863 1.200959 19
13.657805 -7.6800828 1.3603938 24
13.78161 -7.7497005 0.81340563 44
13.833796 -7.7790461 0.53564531 28
13.813956 -9.1501932 0.46080473 31
8.7790527 -4.1292386 0.21270761 43
13.860814 -7.794239 0.25480491 28
13.838597 -9.1665144 0.16803741 33
8.7847033 -4.1318965 0.041003529 48
10.323712 -5.8052492 -0.019638086 0
13.875593 -9.191021 -0.12549162 38
8.7912273 -4.1349645 -0.13056974 38
10.091726 -5.6747985 -0.22392295 0
13.901573 -9.2082291 -0.42091617 33
8.7986183 -4.1384411 -0.30267891 41
9.4177237 -5.2957921 -0.40052903 0
9.1921587 -6.0887718 -0.47368619 1
8.7851772 -4.1321192 -0.47397256 47
8.8844042 -4.9958949 -0.558263 1
8.8209457 -5.8428845 -0.64157468 2
8.790679 -4.134707 -0.64642948 49
8.8118525 -4.9550977 -0.73263836 1
8.7270327 -5.7806778 -0.82016659 1
8.8042755 -4.1411018 -0.81957763 43
8.736764 -4.9128737 -0.90372944 23
8.809947 -5.8355994 -1.0149165 1
8.8187056 -4.1478891 -0.99351954 49
8.8152142 -4.9569879 -1.0908033 2
8.7557278 -4.9235373 -1.2615105 2
9.5359964 -5.3622994 -1.5675521 1
8.5640793 -4.8157692 -1.5834213 3
7.7908878 -4.3809867 -1.5985703 3
7.1773129 -4.0359602 -1.6195247 4
6.637507 -3.7324154 -1.6326423 4
6.1608157 -3.4643614 -1.6407579 4
5.743711 -3.2298145 -1.6460088 7
4.2860103 -2.4101174 -1.6915812 7
3.2106707 -1.8054304 -1.7170064 10
5.5313678 -3.1588769 1.6814313 19
3.9287767 -2.2436624 0.87427366 5
7.4441314 -4.2512264 1.1992964 3
13.485452 -7.7013288 1.3482845 22
13.799285 -7.8805542 0.81751585 73
13.8305 -7.8983803 0.53753424 31
13.835936 -9.2973633 0.46358469 34
8.773118 -4.1977267 0.21323368 45
13.850492 -7.9097972 0.25557396 28
13.850535 -9.3071737 0.16892822 30
8.7859726 -4.2038774 0.041138686 50
10.476025 -5.9826927 -0.020002861 0
13.87741 -9.3252325 -0.12606464 31
8.788866 -4.2052617 -0.13094603 36
10.005246 -5.7138386 -0.22284009 0
13.913213 -9.3492908 -0.42313683 31
8.8070431 -4.2139587 -0.30392349 41
9.4344587 -5.3878708 -0.40275171 0
9.2743025 -6.2320728 -0.48003861 0
8.7828074 -4.2023625 -0.47533789 45
8.8614798 -5.0606513 -0.55891925 1
8.8151398 -5.9235277 -0.6439957 1
8.7918653 -4.206697 -0.64855415 49
8.7926521 -5.0213451 -0.73379487 2
8.7348394 -5.8695683 -0.82454079 1
8.8017864 -4.2114439 -0.82192791 40
8.7178259 -4.9786129 -0.90516621 7
8.7512207 -5.8805766 -1.012622 1
8.8304873 -4.2251768 -0.99798203 32
8.7096214 -4.9739275 -1.0817955 4
8.7504511 -4.9972444 -1.2654979 1
9.5036602 -5.4273906 -1.5681194 1
8.5388098 -4.8763795 -1.5846941 3
7.7787566 -4.4423251 -1.6020914 3
7.1435719 -4.0795813 -1.6179808 4
6.6160026 -3.7782948 -1.6334808 4
6.1377034 -3.5051455 -1.6407579 4
5.7356434 -3.2755353 -1.6498864 6
4.2732158 -2.4403663 -1.6928825 7
3.1986258 -1.8266847 -1.7170064 9
3.9292049 -2.2822635 0.87806827 5
8.7932444 -5.1075215 1.4226404 18
13.304586 -7.7279167 1.3358291 21
13.799872 -8.0156021 0.82100952 57
13.84137 -8.0397053 0.54023272 29
13.833458 -9.4436235 0.46580863 34
8.7708683 -4.2759438 0.21393511 43
13.83364 -8.0352163 0.25634298 25
13.834792 -9.4445343 0.16957608 35
8.7800894 -4.2804389 0.041256949 46
10.48723 -6.0914669 -0.020108975 0
13.871448 -9.4695578 -0.12663767 32
8.7829695 -4.2818432 -0.13132229 32
10.014968 -5.8171549 -0.2240003 0
13.890541 -9.4825926 -0.42455 34
8.7974787 -4.2889166 -0.30467021 26
9.4465599 -5.4869971 -0.4049744 1
13.859058 -9.4610996 -0.72091639 35
8.7697229 -4.2753849 -0.47631314 38
8.8552294 -5.1435251 -0.56088805 1
8.8638124 -6.0510182 -0.6507746 1
8.7787304 -4.2797766 -0.64988208 18
8.7728586 -5.0956807 -0.73524046 1
8.7772102 -5.9918981 -0.83266437 0
8.7778435 -4.2793441 -0.82259941 1
8.6879873 -5.0463834 -0.90588456 5
8.7999563 -6.0074263 -1.0233295 1
8.8278942 -4.3037448 -1.0012275 11
8.6729288 -5.0376368 -1.0817955 3
8.8748846 -5.154942 -1.2889239 1
9.4704695 -5.5008855 -1.569254 1
8.5096645 -4.9428058 -1.5859669 3
7.7527943 -4.50318 -1.6034999 4
7.1236572 -4.1377487 -1.6202967 4
6.5915117 -3.8286538 -1.6343194 4
6.1219535 -3.5559127 -1.6434715 4
5.7316136 -3.3291852 -1.6557026 6
4.2584839 -2.4735239 -1.6941837 6
3.2008252 -1.8591868 -1.7254562 8
3.0075846 -1.7751397 0.92187768 10
3.9300871 -2.3196199 0.88186282 4
8.8153687 -5.2030158 1.4320619 26
13.198833 -7.7902288 1.3306395 16
13.78142 -8.1340837 0.82327008 49
13.829662 -8.1625576 0.5419867 29
13.826348 -9.5809622 0.46781021 33
8.7587147 -4.3459587 0.2143735 22
13.842649 -8.1702223 0.25756061 25
13.85071 -9.5978432 0.17058834 32
10.427225 -6.1543674 -0.020075815 0
13.877328 -9.6162882 -0.12730116 33
10.018887 -5.9133573 -0.22500584 0
13.909457 -9.6385517 -0.42717442 32
9.942029 -4.933104 -0.34549206 1
9.4493313 -5.5771942 -0.40675256 0
13.851794 -9.5985947 -0.72400677 37
8.757556 -4.3453841 -0.47728842 18
8.8328629 -5.2133417 -0.56176311 1
9.0477924 -6.2696638 -0.66747975 31
8.855896 -4.3941789 -0.65784955 0
8.7645559 -5.1730251 -0.73755348 2
8.7941647 -6.0939121 -0.83828837 0
9.2440557 -4.5867791 -0.86926937 1
8.6594076 -5.1109643 -0.90660298 4
8.8788929 -6.1526246 -1.0374787 1
9.1897478 -4.5598321 -1.0458528 2
8.6306973 -5.0940189 -1.0809376 1
8.7703228 -5.1764288 -1.2789553 1
9.4522953 -5.5789433 -1.5726581 1
8.4851532 -5.0081158 -1.5878762 2
7.738122 -4.5672021 -1.607021 4
7.101357 -4.19137 -1.6218406 4
6.5679903 -3.8765659 -1.6351579 4
6.1070461 -3.6045067 -1.6461849 4
5.6848373 -3.3553104 -1.648917 6
4.2378545 -2.5012705 -1.6928825 7
3.1627901 -1.8667451 -1.7119365 9
3.0017521 -1.8000712 0.9239195 13
3.9239018 -2.35306 0.8841396 5
8.8060083 -5.2807302 1.4364955 26
13.092861 -7.8514423 1.3254498 17
13.796242 -8.273241 0.82758582 47
13.84091 -8.3000269 0.54468518 31
13.837619 -9.7324581 0.47047895 36
13.811555 -6.9736948 0.33922741 25
13.840152 -8.2995729 0.25858599 24
13.855345 -9.7449255 0.17147915 34
10.433369 -5.2679896 0.049366422 0
13.879644 -8.3232555 -0.026834074 31
13.875293 -9.758955 -0.12790434 31
10.125471 -5.1125269 -0.15244783 0
10.042525 -6.0222368 -0.22647545 0
13.903975 -9.7791281 -0.42909226 32
9.9109154 -5.0041943 -0.34561652 0
9.4135923 -5.6450825 -0.40690073 0
13.866169 -9.7525377 -0.72829896 34
8.8133783 -5.2851496 -0.56285685 1
13.902499 -9.7780905 -1.0306352 31
9.1492157 -4.6195984 -0.68201762 0
8.7453356 -5.2443457 -0.73899907 3
8.8525238 -6.2262745 -0.84797418 0
9.0801601 -4.5847311 -0.85684645 1
8.6679316 -5.1979289 -0.91127247 2
8.8943472 -6.2556906 -1.0443621 2
9.06178 -4.5754504 -1.0348992 1
8.6187992 -5.1684656 -1.0839401 1
8.8496971 -5.3069291 -1.2959018 0
9.4368868 -5.6590514 -1.5766294 2
8.460144 -5.0733242 -1.5897856 2
7.706048 -4.6211128 -1.607021 4
7.0786543 -4.2448816 -1.6233844 4
6.557538 -3.9323819 -1.6393507 4
6.0884156 -3.6510615 -1.6479939 4
5.6579461 -3.3929205 -1.6479475 6
4.2267766 -2.5346861 -1.6954849 6
3.1745546 -1.9036963 -1.7254562 9
2.9963548 -1.8239621 0.92596126 4
3.9249825 -2.3892429 0.88793421 5
8.8215485 -5.369915 1.4448086 25
12.94519 -7.8800869 1.3157624 11
13.788838 -8.3936386 0.83046293 37
13.829948 -8.418663 0.54643917 30
13.834615 -9.8681345 0.47259173 35
13.818369 -7.0925322 0.34054258 35
13.84288 -8.4265347 0.25967544 27
13.845767 -9.8760891 0.17216749 30
10.355499 -5.3151503 0.049163684 0
13.882222 -8.4504843 -0.026946824 27
13.881904 -9.901866 -0.12856784 29
10.105576 -5.1868725 -0.15266284 0
10.190249 -6.2030797 -0.23072959 0
13.900664 -9.9152479 -0.4310101 31
9.8881807 -5.0752907 -0.34598988 0
9.3861895 -5.7136269 -0.40734529 0
13.872758 -9.8953419 -0.73207605 38
9.1774321 -4.7104859 -0.50362021 0
8.7951908 -5.3538704 -0.56395066 1
13.899102 -9.9141331 -1.0352352 40
9.0686665 -4.6546602 -0.67829949 1
8.8160028 -5.366539 -0.74796188 3
13.9178 -9.9274702 -1.3394492 25
8.9928179 -4.6157293 -0.85147434 0
8.6400728 -5.2594457 -0.91199088 1
12.713344 -9.0683403 -1.4998126 5
8.9639702 -4.6009231 -1.0271913 1
8.6183014 -5.2461925 -1.0882297 1
8.810915 -5.3634419 -1.2954034 0
9.3687067 -5.7029848 -1.5715234 2
8.4296837 -5.1313758 -1.5904219 2
7.6819572 -4.6762147 -1.6084293 4
7.0604029 -4.2978578 -1.6257002 4
6.5413351 -3.9818873 -1.6418662 5
6.0574107 -3.6873095 -1.6461849 4
5.6552086 -3.4424782 -1.6537639 6
4.2066422 -2.5606966 -1.6941837 6
3.161859 -1.924709 -1.7254562 9
3.0065749 -1.8590735 0.93310761 5
3.9282498 -2.4289784 0.8924877 5
8.8175402 -5.4522023 1.4503506 21
12.764456 -7.8927226 1.3029611 9
13.791064 -8.5275116 0.83416212 32
13.832046 -8.5528517 0.54886776 27
13.833404 -10.013715 0.47492689 36
11.52103 -6.0153699 0.28495455 2
13.834743 -8.5545197 0.26063672 24
13.863961 -10.035834 0.17326075 39
10.360689 -5.4095316 0.049366422 0
13.873923 -8.5787458 -0.027046308 28
13.883718 -10.050137 -0.12923133 30
10.125846 -5.2869148 -0.15352292 0
10.126287 -6.2614484 -0.23026551 1
13.925039 -10.080048 -0.43393734 32
9.8383322 -5.1367979 -0.34549206 1
9.3970709 -5.8105474 -0.40956798 0
13.871318 -10.041161 -0.73568153 33
9.1159916 -4.7596493 -0.50205982 0
8.8017626 -5.4424467 -0.56679446 1
13.903937 -10.064773 -1.0408036 43
9.0253353 -4.7123156 -0.67750269 2
8.7715378 -5.4237576 -0.74738365 2
13.93537 -10.087526 -1.3478853 30
8.9003096 -4.647037 -0.84576654 1
8.6539717 -5.3510623 -0.91737878 1
12.69488 -9.1895609 -1.5051663 3
8.8751917 -4.6339226 -1.0207003 3
8.6085272 -5.3229628 -1.0916612 8
8.877903 -5.4895267 -1.3108544 0
9.3421364 -5.7765794 -1.5737928 2
8.4037313 -5.1963296 -1.5923312 2
7.6558228 -4.733871 -1.6098378 4
7.033566 -4.3491073 -1.6264721 3
6.5133781 -4.0274563 -1.6418662 3
6.0414639 -3.7356546 -1.6488984 5
5.647542 -3.4920788 -1.6586107 6
4.1886635 -2.5900013 -1.6941837 7
3.1421783 -1.942922 -1.7220763 8
3.0033484 -1.8861889 0.93617034 9
3.9311516 -2.4688759 0.8970412 4
8.809453 -5.532589 1.4553384 24
12.611177 -7.9201808 1.2929276 6
13.798853 -8.6660748 0.83827227 31
13.832936 -8.68748 0.55129641 29
13.827605 -10.157388 0.47715086 36
11.323349 -6.0131292 0.2810967 2
13.866131 -8.7083273 0.26236704 26
13.861255 -10.182105 0.17411105 31
10.38626 -5.5154991 0.049670529 0
13.867892 -8.7094336 -0.027152423 28
13.893807 -10.206017 -0.12998532 32
10.120481 -5.3743606 -0.1540067 0
10.207638 -6.4106894 -0.23312739 2
13.922004 -10.22673 -0.43605706 33
9.8375397 -5.2241082 -0.34673664 0
9.4341316 -5.9249053 -0.41297612 0
13.881399 -10.196903 -0.73997372 43
9.0613689 -4.8119316 -0.50088954 0
8.8075218 -5.5313764 -0.56963825 0
13.900908 -10.211233 -1.0458878 42
9.0450926 -4.803288 -0.68148649 111
8.7064304 -5.4678879 -0.74507064 6
13.938526 -10.238867 -1.3550714 28
8.8500481 -4.6997123 -0.84408772 1
8.6467657 -5.4304166 -0.9206115 1
12.717057 -9.341609 -1.5154914 4
8.8531685 -4.7013693 -1.0219173 5
8.5980988 -5.3998528 -1.0950928 15
8.8628893 -5.5661488 -1.3143435 0
9.3384657 -5.8648238 -1.5800334 2
8.3973475 -5.2737751 -1.5980591 3
7.6259222 -4.7892976 -1.6105421 4
7.01965 -4.4085417 -1.6303319 4
6.4884143 -4.0749102 -1.6427048 3
6.0053377 -3.7715244 -1.6461849 4
5.6197386 -3.529357 -1.6576414 6
4.1832919 -2.6272273 -1.6993886 7
3.1285374 -1.9648112 -1.7220763 9
2.9868462 -1.9050304 0.93514943 3
3.9436202 -2.5152671 0.90387148 5
8.8240519 -5.6280389 1.4642056 27
12.515259 -7.9823146 1.2887759 3
13.798639 -8.8008633 0.84197146 34
13.839358 -8.8268347 0.55399483 29
13.842918 -10.318192 0.4801532 34
11.143862 -6.0179267 0.27767724 0
13.86232 -8.8414803 0.26345649 24
13.857181 -10.328822 0.17496137 32
10.365099 -5.5973778 0.049755 0
13.884315 -8.8555088 -0.027304964 29
13.895981 -10.357743 -0.13067897 36
10.107348 -5.4581866 -0.15438299 0
13.824417 -8.8173046 -0.3171275 39
13.9176 -10.373857 -0.43817678 31
9.8254547 -5.3059578 -0.34760782 0
9.4599409 -6.0336132 -0.41593969 0
13.877162 -10.343716 -0.74357915 36
9.020524 -4.8712778 -0.50049943 0
8.815835 -5.622798 -0.57270086 0
13.906113 -10.365294 -1.0516982 38
8.9340782 -4.8245955 -0.67564362 13
8.8732252 -5.6594019 -0.76270717 4
13.946641 -10.395504 -1.3628825 30
8.8029938 -4.7538071 -0.84274471 1
8.6388721 -5.5099301 -0.92384422 1
12.686649 -9.4563351 -1.5196979 4
8.8936605 -4.8027692 -1.0304368 42
8.6071329 -5.4896865 -1.1010979 18
8.9308901 -5.6961813 -1.3302931 0
9.3173227 -5.9426503 -1.5834374 2
8.3669834 -5.3365178 -1.5993319 3
7.6188579 -4.8593583 -1.6161758 4
6.9986281 -4.4637713 -1.6326476 4
6.466403 -4.1243148 -1.6443819 3
5.9952865 -3.8238332 -1.6507074 4
5.6113214 -3.578938 -1.6624882 6
4.1584702 -2.6522999 -1.6967862 7
3.1025176 -1.9788063 -1.7153164 9
3.281116 -2.1267133 1.0321355 6
3.9283724 -2.5462439 0.90463036 5
8.8191252 -5.7162724 1.4703019 23
13.817419 -8.9560041 1.4295897 30
13.790741 -8.9387131 0.84546512 35
13.834666 -8.9671841 0.55642349 31
13.830674 -10.467647 0.48237714 35
10.973282 -6.0301175 0.27452081 0
13.84748 -8.9754896 0.26441777 26
13.857638 -10.488054 0.17593315 32
10.733939 -5.898592 0.051731687 0
13.879448 -8.9962091 -0.027424345 28
13.893038 -10.514846 -0.13137263 34
11.192252 -6.1504478 -0.17163819 0
13.826532 -8.9619112 -0.31867447 40
13.920894 -10.535929 -0.44070026 31
9.800313 -5.3855391 -0.34810564 0
9.5898809 -6.2158508 -0.42364502 1
13.87107 -10.49822 -0.74735624 40
8.9810734 -4.9353447 -0.50030434 0
8.8246536 -5.7198553 -0.57598215 0
13.902981 -10.522371 -1.0572666 38
8.9719286 -4.9303193 -0.68122089 217
8.8214579 -5.7177844 -0.76183981 2
13.930478 -10.543182 -1.368819 27
8.7748976 -4.8220458 -0.84341621 1
8.6383677 -5.5991106 -0.92815453 0
12.648739 -9.5731068 -1.523522 3
8.9314547 -4.9080782 -1.038956 6
8.593358 -5.5699372 -1.1045295 24
8.9588346 -5.8068271 -1.3407599 1
9.2668657 -6.0064831 -1.5823028 3
8.3243265 -5.3955593 -1.5986954 3
7.5863371 -4.9172182 -1.6168799 4
6.9723063 -4.5192237 -1.6341915 4
6.4524064 -4.1822414 -1.6485746 3
5.960556 -3.8634398 -1.6488984 4
5.5849357 -3.6199751 -1.6624882 6
4.1452641 -2.6868265 -1.6993886 7
3.1000979 -2.0093832 -1.7220763 9
3.237113 -2.1304324 1.0229473 7
3.9465871 -2.5973566 0.91297847 1
8.8120947 -5.79948 1.4758439 24
13.837777 -9.1070185 1.4382393 30
13.79474 -9.0786943 0.84957528 34
13.838516 -9.1075048 0.55912197 29
13.833372 -10.622395 0.48504591 34
13.800673 -7.7097745 0.3465924 37
13.841277 -9.1093225 0.26550725 26
13.853872 -10.638136 0.17682396 37
10.517898 -5.8758445 0.050886948 0
13.886472 -9.1390657 -0.027563622 27
13.895432 -10.670049 -0.13209644 32
10.112003 -5.6490908 -0.1556731 0
13.830443 -9.1021919 -0.32022142 39
13.919945 -10.688872 -0.44302186 31
9.8427544 -5.4986744 -0.35096815 0
13.873619 -9.1306067 -0.61568558 40
13.873511 -10.653216 -0.75147676 40
8.9743023 -5.0135117 -0.50186479 0
8.824542 -5.807672 -0.5786072 1
13.905185 -10.677538 -1.0630771 37
8.8710871 -4.9558506 -0.67617482 14
8.8313141 -5.812129 -0.76617664 1
13.935604 -10.700896 -1.3766301 26
8.765378 -4.8967962 -0.84576654 1
8.6323452 -5.6811819 -0.93174648 0
12.606861 -9.6805792 -1.5265813 3
8.7684326 -4.8985028 -1.0239458 3
8.6007729 -5.6604033 -1.1105347 30
9.2628651 -6.0961442 -1.392596 1
9.237937 -6.0797386 -1.5845722 2
8.3062477 -5.4665685 -1.602514 3
7.5518236 -4.9700613 -1.6168799 4
6.9471436 -4.5721045 -1.6357354 4
6.4034495 -4.2142849 -1.6435434 3
5.9464579 -3.9135263 -1.6525164 4
5.5627694 -3.6610105 -1.6634576 6
4.1295657 -2.7177799 -1.7006898 7
3.0859942 -2.030977 -1.7220763 9
3.1900041 -2.1314924 1.0127382 8
5.6917119 -3.8030796 1.3227943 20
8.8208008 -5.8938699 1.484157 23
13.826879 -9.2388229 1.4437749 31
13.790812 -9.2147245 0.85327446 35
13.834431 -9.2438698 0.56155056 27
13.837732 -10.780143 0.48782587 34
13.812585 -7.8434525 0.34825829 46
13.833879 -9.2435017 0.2665967 24
13.848683 -10.788673 0.17771475 31
10.549664 -5.9906082 0.051241737 0
13.88885 -9.2802315 -0.027696267 26
13.883709 -10.81596 -0.13269962 28
10.1384 -5.7570729 -0.15669444 0
13.823092 -9.2362938 -0.32153636 40
13.930155 -10.852142 -0.4457472 31
9.838892 -5.5869975 -0.35221273 0
13.872688 -9.269433 -0.61850101 37
13.874461 -10.808756 -0.75559729 36
8.9495049 -5.0819607 -0.50244993 0
8.8601646 -5.9201717 -0.58363861 0
13.912195 -10.838151 -1.0693718 33
8.8050365 -4.9999251 -0.67378455 3
8.7739391 -5.8625579 -0.76473105 0
13.939205 -10.859193 -1.3844413 26
8.7379103 -4.9618073 -0.84643805 1
8.6554108 -5.78336 -0.93857116 0
12.53583 -9.7659082 -1.5261989 3
8.7686253 -4.9792485 -1.0280026 2
8.6040344 -5.7490311 -1.1161109 39
9.1969824 -6.1452265 -1.389107 1
9.2018538 -6.1484814 -1.5857068 2
8.2547493 -5.5156465 -1.5999683 2
7.5234914 -5.0270357 -1.6182884 4
6.9150558 -4.620492 -1.6357354 4
6.3771253 -4.2610583 -1.6443819 2
5.9319515 -3.9636025 -1.6561344 4
5.5338492 -3.6975994 -1.6624882 6
4.113637 -2.7486439 -1.701991 7
3.0747552 -2.0544853 -1.7237662 9
3.1469846 -2.1330726 1.0035501 6
5.6078467 -3.8010814 1.3091338 4
8.827425 -5.9833589 1.4919158 20
13.821377 -9.3683329 1.4496566 28
13.805446 -9.3575354 0.85800117 31
13.839001 -9.3802795 0.56424904 31
13.856934 -10.943543 0.4910506 37
13.808763 -7.9628568 0.34948578 44
13.858347 -9.3933926 0.26826292 25
13.86472 -10.949694 0.17884851 32
10.554748 -6.086421 0.051461369 0
13.893217 -9.4170275 -0.027828913 28
13.890148 -10.969775 -0.13345361 31
10.151967 -5.854157 -0.15750076 0
13.83767 -9.3793774 -0.32331535 45
13.923777 -10.996333 -0.44786692 32
9.7946949 -5.6481347 -0.35196382 0
13.870464 -9.4016056 -0.6211682 38
13.871469 -10.955024 -0.75937438 36
8.9363689 -5.1531792 -0.50362021 0
8.8901339 -6.0258641 -0.58823246 0
13.90581 -10.982144 -1.074456 37
8.7751398 -5.0602059 -0.67405015 1
8.8009109 -5.9653878 -0.77051353 0
13.957635 -11.023073 -1.3935021 23
8.7220745 -5.0296059 -0.84811682 1
8.6630316 -5.8719306 -0.94359982 0
12.470787 -9.8488312 -1.5261989 3
8.7560921 -5.049222 -1.0304368 1
8.6052189 -5.8327446 -1.1212583 3
9.2282991 -6.2550778 -1.4000723 1
9.2002039 -6.2360339 -1.5925149 1
8.2277927 -5.5769196 -1.6018776 3
7.4932446 -5.0790319 -1.6189926 4
6.8907571 -4.6706567 -1.6372793 4
6.3519616 -4.3054538 -1.6452204 3
5.8990827 -3.9984853 -1.6543254 4
5.5156288 -3.7385747 -1.664427 6
4.0921855 -2.7737439 -1.7006898 7
3.0610616 -2.0748327 -1.7237662 9
3.1128993 -2.1418374 0.99742466 3
5.5196996 -3.7978418 1.2947143 17
8.8246002 -6.0717864 1.4985663 27
13.831143 -9.5165501 1.4576142 31
13.805602 -9.4989758 0.86211133 35
13.845633 -9.5265188 0.56721735 27
13.833244 -11.082518 0.49294096 36
13.814941 -8.0954552 0.351064 32
13.858328 -9.5352535 0.26954463 24
13.865977 -11.108743 0.17986077 36
10.498196 -6.1518664 0.051393792 1
13.893042 -9.5591383 -0.027961558 28
13.891267 -11.129003 -0.13420758 32
10.152261 -5.9491515 -0.15814582 0
13.837747 -9.5210924 -0.32486233 43
13.915325 -11.148276 -0.45008758 30
9.7343292 -5.704246 -0.35121706 0
13.880231 -9.5503244 -0.62457633 36
13.87886 -11.119062 -0.76400995 33
8.9139643 -5.2235184 -0.50440043 0
8.9399796 -6.1511731 -0.59435761 0
13.903584 -11.138871 -1.0802665 38
8.7637043 -5.1354675 -0.67590922 3
8.9562531 -6.1623697 -0.78786093 8
13.945696 -11.172608 -1.4000634 22
8.7108221 -5.1044788 -0.85046709 1
8.7071581 -5.9909801 -0.95293885 0
12.426584 -9.9555712 -1.5292581 3
8.7309294 -5.1162615 -1.0316538 1
8.6396446 -5.9445271 -1.131124 2
9.2269115 -6.348597 -1.4065518 1
9.1466579 -6.2933784 -1.5908129 1
8.2016716 -5.6431789 -1.6044233 3
7.4738221 -5.1423802 -1.6225137 4
6.8806152 -4.7342229 -1.6426829 4
6.3314157 -4.3563452 -1.6477361 3
5.8678141 -4.0373626 -1.6534209 4
5.4989858 -3.7835896 -1.6673352 7
4.0820699 -2.8086774 -1.7045934 7
3.0494888 -2.0982077 -1.7254562 9
5.2254763 -3.6494129 1.6824522 16
5.4415336 -3.8003049 1.2825716 23
8.8177214 -6.1581955 1.5046625 23
13.849315 -9.6722021 1.4666097 31
13.804452 -9.640871 0.86622155 30
13.847616 -9.6710167 0.57005072 27
13.839317 -11.246907 0.49594331 36
13.816501 -8.2264843 0.35255453 32
13.876675 -9.6913109 0.27121088 24
13.871895 -11.273383 0.18095402 41
13.843757 -8.242713 0.068052001 30
13.888276 -9.6994133 -0.028087569 30
13.893939 -11.291298 -0.13499171 33
10.326986 -6.1487923 -0.16153234 0
13.839794 -9.665554 -0.32648665 67
13.936458 -11.325851 -0.45331764 30
9.7664089 -5.8150187 -0.35383067 0
13.86893 -9.6859016 -0.6270954 41
13.878429 -11.278693 -0.76830214 35
8.8978777 -5.2978864 -0.50557071 0
13.900255 -9.7077789 -0.92861539 30
13.915339 -11.308688 -1.0872875 43
8.8030834 -5.2414451 -0.68175203 4
9.0045967 -6.2887073 -0.79595637 44
13.963292 -11.347659 -1.4097493 25
8.7023726 -5.1814809 -0.85315311 1
8.7304449 -6.0972428 -0.9601227 0
12.375318 -10.057148 -1.5315526 3
8.8796349 -5.2870245 -1.0535607 2
8.6761856 -6.0593486 -1.1414186 0
10.204073 -7.1264081 -1.5630569 1
9.102499 -6.3570809 -1.5908129 1
8.175025 -5.7093439 -1.606969 2
7.4345117 -5.1921778 -1.6218095 4
6.8377433 -4.7754016 -1.640367 4
6.3104677 -4.4071584 -1.6502516 4
5.8650408 -4.0960774 -1.6606569 4
5.4756188 -3.8241093 -1.6683046 7
4.0592608 -2.8349411 -1.7032923 7
3.0377386 -2.1215217 -1.7271461 9
5.2030272 -3.6880398 1.6834731 21
5.3764224 -3.8109465 1.2734646 29
8.8262262 -6.2562561 1.5135298 22
13.843225 -9.8124342 1.4731833 31
13.805251 -9.7855177 0.87053722 32
13.841732 -9.8113756 0.57261425 27
13.825253 -11.396661 0.49827847 33
13.810059 -8.3537893 0.35386971 32
13.867414 -9.8295794 0.27236441 25
13.86384 -11.428469 0.18188532 33
13.844056 -8.3743544 0.068339214 38
13.892018 -9.8470201 -0.02823348 29
13.89502 -11.454172 -0.13577585 37
10.242742 -6.1958971 -0.16088729 1
13.847025 -9.8151274 -0.32826564 39
13.875562 -11.438132 -0.45392329 39
9.7939911 -5.9244456 -0.35631979 0
13.885763 -9.8425865 -0.63094807 38
13.885694 -11.446485 -0.77310944 41
8.9016962 -5.3846903 -0.50791132 0
13.916866 -9.8646326 -0.93430305 37
13.903829 -11.461433 -1.0926138 54
8.7935972 -5.3193011 -0.68387669 4
13.92405 -9.8697252 -1.2368693 34
13.899117 -11.457549 -1.4113114 36
8.6830387 -5.2524233 -0.85483187 1
8.7819214 -6.2248516 -0.97053933 0
12.341674 -10.173692 -1.5361415 3
8.8561277 -5.3571262 -1.0551834 1
8.8380775 -6.264657 -1.168442 0
10.170264 -7.2089448 -1.565549 1
9.0675888 -6.4273405 -1.5925149 1
8.1639643 -5.786828 -1.6126968 3
7.4012957 -5.2462287 -1.6225137 4
6.8074408 -4.8252892 -1.641139 4
6.2955012 -4.4624133 -1.6544443 4
5.8331242 -4.1346684 -1.6597524 4
5.4582872 -3.8689744 -1.6712127 6
4.0331993 -2.8588357 -1.7006898 6
3.0258117 -2.1447732 -1.7288362 10
5.1884079 -3.7351191 1.6875567 23
5.2814083 -3.8020697 1.2575274 22
8.8251381 -6.3531895 1.5212886 23
13.848543 -9.9695234 1.4814868 30
13.810957 -9.9424658 0.87546945 32
13.844062 -9.9662971 0.57571751 28
13.781206 -11.531055 0.49972406 35
13.816581 -8.4966936 0.35562328 34
13.863151 -9.9800396 0.27371022 26
13.810368 -11.555456 0.18229023 43
13.833405 -8.507041 0.06859263 40
13.897373 -10.004676 -0.028392654 26
13.844428 -11.583955 -0.13610759 42
13.86635 -8.5273008 -0.21878091 32
13.836371 -9.9607611 -0.32973525 41
13.87108 -11.606256 -0.45654771 37
9.8422527 -6.0526271 -0.35968015 0
13.88461 -9.9954882 -0.63420802 40
13.825933 -11.56848 -0.77448291 53
8.8960171 -5.470727 -0.50986183 0
13.902526 -10.008386 -0.93824059 38
13.862308 -11.598916 -1.0960032 51
8.7441692 -5.3773456 -0.68307996 3
13.932273 -10.0298 -1.2440975 32
13.882038 -11.615425 -1.4181852 31
8.6714649 -5.3326354 -0.85751796 1
12.738732 -9.1705742 -1.4152201 44
12.294249 -10.286883 -1.5395832 3
8.8403482 -5.4364924 -1.0580232 1
11.474034 -8.2601223 -1.5248941 4
10.12681 -7.2902594 -1.5670443 1
9.0041628 -6.482069 -1.5896782 2
8.1213255 -5.8465176 -1.6126968 3
7.3658357 -5.3026423 -1.6232179 4
6.7846284 -4.884233 -1.6442267 4
6.278492 -4.5198669 -1.6586372 5
5.7994962 -4.1750398 -1.6588479 4
5.4297795 -3.9088814 -1.6712127 7
4.0244136 -2.8971629 -1.7058947 6
3.0100083 -2.1668959 -1.7288362 10
5.1434684 -3.7575617 1.6814313 22
5.2166815 -3.8110476 1.2484202 26
8.8285503 -6.4496984 1.5296017 22
13.839745 -10.110627 1.4880605 29
13.812173 -10.090485 0.87999064 32
13.848393 -10.116946 0.57882077 29
13.779635 -11.69425 0.50261521 41
13.811193 -8.6268415 0.35702613 48
13.873877 -10.135563 0.27531236 24
13.808652 -11.718876 0.18334299 36
13.841531 -8.6457911 0.068930529 41
13.898248 -10.153367 -0.028538562 26
13.833365 -11.739849 -0.13680126 42
13.864149 -8.6599197 -0.21969473 30
13.853687 -10.120813 -0.33182365 41
13.872036 -11.772668 -0.45927304 36
9.9455671 -6.2122679 -0.36503178 1
13.885499 -10.144053 -0.63746798 43
13.82101 -11.729363 -0.7787751 49
8.8948822 -5.5559821 -0.51200742 0
13.919393 -10.168815 -0.94414699 37
13.860147 -11.762577 -1.1022979 53
8.7199564 -5.4467187 -0.68414229 3
13.936006 -10.180951 -1.2507472 31
13.882705 -11.781721 -1.4266212 30
8.6813536 -5.4226065 -0.8622185 1
12.745171 -9.3109865 -1.4231224 179
12.22517 -10.375035 -1.5399656 4
8.8595552 -5.533916 -1.0649198 1
11.454624 -8.3681774 -1.5300415 3
10.098101 -7.3771687 -1.5705333 2
8.9746771 -6.5564513 -1.5925149 2
8.0930672 -5.9123912 -1.6152425 2
7.3445339 -5.3655505 -1.626739 3
6.734519 -4.9199038 -1.640367 4
6.2278357 -4.5497465 -1.6536058 4
5.7639155 -4.2108293 -1.6570389 4
5.4054914 -3.9489827 -1.6721821 7
4.0101981 -2.9296508 -1.708497 7
2.9977348 -2.1899955 -1.7305261 9
5.1215415 -3.7938938 1.6824522 21
5.1250191 -3.7964699 1.232483 28
8.8365107 -6.5458384 1.538469 23
13.833224 -10.247263 1.494634 28
13.805936 -10.227049 0.88389534 33
13.851662 -10.260921 0.58178908 27
13.780585 -11.853174 0.50550634 40
13.80434 -8.7503643 0.35834131 56
13.854556 -10.263065 0.27627364 27
13.806435 -11.875408 0.18435527 39
13.834562 -8.7695217 0.069183946 40
13.910955 -10.304844 -0.028704369 25
13.840107 -11.90437 -0.13764571 37
13.863839 -8.7880802 -0.22060856 27
13.837675 -10.250561 -0.33306122 35
13.866407 -11.926992 -0.46169558 34
13.902275 -8.8124447 -0.51238865 31
13.888578 -10.288268 -0.64072788 38
13.833805 -11.898951 -0.78392571 45
8.8780842 -5.6276846 -0.51317769 0
13.906202 -10.301324 -0.94786584 35
13.854476 -11.91673 -1.1081084 44
8.703867 -5.5172505 -0.68573576 2
13.945115 -10.330149 -1.2576863 31
13.88891 -11.946348 -1.4353696 27
8.6586657 -5.4885983 -0.86356151 0
12.734356 -9.4332523 -1.4288695 112
12.165147 -10.463677 -1.5411129 3
8.8461866 -5.6074653 -1.0677596 1
11.414849 -8.4557991 -1.5321862 2
10.061707 -7.4534292 -1.5725269 2
8.9659939 -6.6417556 -1.5987556 3
8.0505028 -5.9635859 -1.614606 2
7.3024592 -5.4094563 -1.6253306 4
6.7206635 -4.9784784 -1.6449987 3
6.2069521 -4.5979352 -1.6561215 4
5.7671704 -4.2721577 -1.6660838 4
5.3698268 -3.9778166 -1.669274 5
3.9937189 -2.9584346 -1.7097983 7
2.9918838 -2.2163033 -1.7355961 9
5.0812316 -3.8220341 1.6783687 22
5.0656672 -3.8103268 1.2248938 30
8.8294477 -6.6413922 1.5456736 24
13.830986 -10.403482 1.5025916 27
13.813603 -10.390407 0.8892386 31
13.852753 -10.419855 0.58502722 33
13.783694 -12.032759 0.50884229 41
13.803701 -8.8924685 0.3600072 45
13.871646 -10.434066 0.27813214 23
13.800369 -12.047316 0.18544853 37
13.840521 -8.9161882 0.069538735 35
13.911767 -10.464244 -0.028863544 25
13.842869 -12.084416 -0.13855048 30
13.852845 -8.9241276 -0.22146864 26
13.829284 -10.402202 -0.33468553 36
13.923202 -12.154545 -0.46654066 31
13.891082 -8.94876 -0.51437992 32
13.879875 -10.440256 -0.64383966 38
13.818463 -12.063111 -0.78804624 43
8.8869734 -5.7250681 -0.51610345 0
13.916501 -10.467805 -0.95377225 35
13.872024 -12.109867 -1.116582 43
8.8007545 -5.6695251 -0.6966247 2
13.939162 -10.484851 -1.2640469 30
13.954178 -12.181585 -1.4513043 25
8.6584091 -5.5778251 -0.86759061 0
12.725359 -9.5718441 -1.4356942 68
12.106115 -10.568281 -1.5434073 3
8.8784409 -5.7195711 -1.0766847 2
11.377987 -8.5583696 -1.5356177 1
10.006803 -7.5269828 -1.5725269 2
8.9202328 -6.7096796 -1.5993229 3
8.0160408 -6.0295582 -1.6165153 2
7.2814913 -5.4770398 -1.6295558 4
6.6871266 -5.0299668 -1.6457705 2
6.1793332 -4.6480117 -1.6577985 4
5.7263589 -4.3072906 -1.6633704 4
5.3591332 -4.0310678 -1.6750902 5
3.9658804 -2.9830821 -1.7071959 6
2.9784553 -2.2403541 -1.737286 8
5.0083075 -3.8222189 1.6630551 26
5.0077224 -3.8217723 1.2173046 28
8.8301039 -6.7389212 1.5539867 22
13.834047 -10.55781 1.5108951 28
13.81059 -10.539907 0.89375979 31
13.849586 -10.569668 0.58799553 28
13.828084 -12.242664 0.51362383 33
13.811563 -9.0345926 0.36184844 38
13.862051 -10.579181 0.27941385 25
13.853685 -12.26533 0.18731111 40
13.848232 -9.0585785 0.069893532 35
13.901969 -10.609646 -0.028996188 28
13.880955 -12.289474 -0.13978699 31
13.873883 -9.0753574 -0.2228125 26
13.838984 -10.561578 -0.33669659 38
13.93082 -12.333622 -0.46966979 32
13.901876 -9.0936699 -0.51711798 32
13.87338 -10.587828 -0.64695144 37
13.874541 -12.283795 -0.79611558 41
8.8869095 -5.8132162 -0.51844406 0
13.916107 -10.620436 -0.95880359 36
13.90672 -12.312284 -1.1262662 39
8.8043795 -5.7592311 -0.7000773 1
13.932225 -10.632736 -1.2701185 32
13.961352 -12.360654 -1.4609901 23
8.6692924 -5.670866 -0.8726269 0
12.73423 -9.7184563 -1.4443148 63
12.049927 -10.668377 -1.5457017 3
8.8349638 -5.7792373 -1.076279 1
11.355899 -8.6665468 -1.540765 1
9.9729404 -7.6111069 -1.5755175 2
8.8763208 -6.7741928 -1.5998902 2
7.9831691 -6.0925612 -1.6184245 2
7.2430768 -5.5277405 -1.6295558 4
6.6643276 -5.0860534 -1.6488583 2
6.1498423 -4.6934104 -1.6586372 5
5.7023439 -4.3518906 -1.6651794 4
5.3246903 -4.0636744 -1.6731515 6
3.9599922 -3.0221701 -1.713702 7
2.9627421 -2.2610929 -1.737286 9
4.9448056 -3.8286777 1.6508042 22
4.9250236 -3.8133607 1.2036442 14
8.8266935 -6.8343563 1.5617455 23
13.841927 -10.717566 1.5198907 29
13.812476 -10.694762 0.89869201 31
