# .PCD v0.7 - Point Cloud Data file format
VERSION 0.7
FIELDS x y z intensity
SIZE 4 4 4 4
TYPE F F F F
COUNT 1 1 1 1
WIDTH 1377
HEIGHT 1
VIEWPOINT 0 0 0 1 0 0 0
POINTS 1377
DATA ascii
13.914753 -12.341074 -0.578973 29
12.17663 -12.490933 -0.64665508 0
10.556466 -12.536209 -0.70409095 0
13.869064 -12.300552 -0.90503401 32
12.175123 -12.489388 -0.95530349 1
10.500539 -12.469794 -0.98850918 0
13.905704 -12.333048 -1.2368209 39
12.11692 -12.429682 -1.2579753 2
10.505665 -12.475881 -1.2778977 0
12.04956 -12.360583 -1.556383 2
10.740933 -12.755271 -1.6015337 1
11.40249 -10.112933 -1.5537688 3
10.329723 -10.596354 -1.5960987 2
9.0481291 -9.2816792 -1.627852 2
7.9960618 -8.2024565 -1.6413059 2
7.1754146 -7.3606267 -1.65661 3
6.494823 -6.6624675 -1.6640624 3
5.9423537 -6.0957379 -1.6743323 3
5.4766183 -5.617981 -1.6821163 4
5.0670633 -5.197854 -1.6850783 4
4.7379146 -4.8602095 -1.6954472 6
3.5195129 -3.6103587 -1.7345214 6
2.6192982 -2.6869075 -1.7491157 11
3.6961193 -3.8448634 1.4078287 19
3.8431063 -3.9977655 1.0715923 26
3.9972467 -4.1581092 0.80692029 1
7.4952779 -7.7969127 0.93899 2
13.822804 -14.379081 1.0261078 26
13.880307 -14.438897 0.67596549 31
13.861014 -16.695669 0.60347182 56
13.819736 -12.430253 0.40752885 36
13.894743 -14.453914 0.32126182 24
13.896322 -16.738197 0.22023024 44
13.858623 -12.46523 0.078729473 45
13.954721 -14.516306 -0.033386737 24
9.5429211 -11.494502 -0.11264389 0
13.893179 -12.496311 -0.25114113 30
12.211579 -12.703013 -0.34079605 0
9.5529242 -11.506551 -0.37751237 21
13.920405 -12.520801 -0.58283114 28
12.025416 -12.509359 -0.64324695 0
10.407427 -12.535804 -0.69997048 0
13.871964 -12.47723 -0.91088551 36
11.963077 -12.44451 -0.94545954 0
9.5690527 -11.525978 -0.90837288 6
13.905318 -12.50723 -1.2445228 35
11.963492 -12.444943 -1.2510364 0
9.5395069 -11.49039 -1.1701044 27
13.323826 -11.984203 -1.5095539 7
11.968495 -12.450148 -1.5571014 1
9.5172834 -11.463622 -1.4309788 33
11.349362 -10.208259 -1.5562029 3
10.25274 -10.665344 -1.5956697 2
8.9913616 -9.3532038 -1.6293472 3
7.9578118 -8.2780609 -1.6452773 2
7.1183791 -7.4048467 -1.6553371 2
6.4536099 -6.7133245 -1.6654708 3
5.9050927 -6.1427336 -1.6758761 3
5.4399748 -5.6588974 -1.6829548 4
5.0333519 -5.2359109 -1.6859828 4
4.711937 -4.9015608 -1.6983553 5
3.4916008 -3.6321144 -1.7332202 6
2.6004763 -2.705128 -1.7491157 11
3.6319363 -3.8312783 1.393536 22
3.8015931 -4.0102468 1.0677978 24
3.9681203 -4.185914 0.80692029 1
7.4927526 -7.9039989 0.94556361 1
13.823769 -14.582498 1.0337116 26
13.867176 -14.628288 0.68028301 31
9.4463911 -11.541234 0.41476873 60
13.827168 -12.612668 0.41033453 36
13.909062 -14.672473 0.32395345 24
9.4419584 -11.535818 0.15090975 40
13.862876 -12.645239 0.079253212 44
13.95761 -14.723685 -0.03363876 25
9.4295073 -11.520605 -0.11225182 33
13.900162 -12.67925 -0.25286129 30
12.018045 -12.677666 -0.33785683 0
9.4141083 -11.501792 -0.37519076 38
13.921271 -12.698505 -0.58656484 33
11.860791 -12.511781 -0.63909793 0
9.4413347 -11.535056 -0.64039487 29
13.870121 -12.651848 -0.91654199 33
11.798968 -12.446565 -0.93933439 0
9.4226017 -11.51217 -0.90207821 44
13.900229 -12.679312 -1.2519592 30
11.799467 -12.44709 -1.2429409 0
9.4060154 -11.491904 -1.163543 46
13.310515 -12.141395 -1.517612 4
11.89773 -12.550747 -1.5592566 1
9.3941479 -11.477406 -1.4244778 39
11.289581 -10.297968 -1.5578256 3
10.205392 -10.765524 -1.5999593 1
8.9558792 -9.4474306 -1.6348299 3
7.899826 -8.333415 -1.6452773 2
7.0828109 -7.4715571 -1.6591557 2
6.4201293 -6.7725034 -1.6689919 3
5.8566642 -6.178112 -1.6743323 3
5.4003353 -5.6967373 -1.6829548 4
5.0073981 -5.2822337 -1.6896008 4
4.6802726 -4.9371533 -1.6993247 6
3.468761 -3.659147 -1.7345214 6
2.5765388 -2.7179544 -1.7457359 6
3.5892549 -3.8395882 1.3874105 20
3.7681406 -4.0309505 1.0662799 26
3.9496222 -4.2250896 0.80913711 0
7.4945388 -8.0172472 0.95282924 0
13.833476 -14.798295 1.0421375 27
13.868458 -14.835716 0.68541008 32
9.3153706 -11.544665 0.41254479 56
13.809236 -12.774067 0.41243881 33
13.910078 -14.880239 0.32638869 24
9.3159828 -11.545424 0.15018091 45
13.874094 -12.834064 0.079827636 42
13.930966 -14.902585 -0.033824466 23
9.3011246 -11.52701 -0.1116788 39
13.896453 -12.854746 -0.25442016 31
11.871896 -12.699903 -0.33623251 0
9.2808495 -11.501884 -0.37307104 39
13.929132 -12.884976 -0.59067196 29
11.685806 -12.500834 -0.6343562 0
9.3053646 -11.532266 -0.63661772 44
13.878242 -12.837901 -0.92297864 36
11.646331 -12.458607 -0.93408424 0
9.2993793 -11.524847 -0.89796245 42
13.905129 -12.862773 -1.2604578 31
11.649623 -12.462129 -1.2362911 0
9.285491 -11.507635 -1.1585439 44
13.234206 -12.242144 -1.5186193 4
11.85063 -12.677155 -1.5646445 1
9.2612848 -11.477636 -1.4164472 39
11.246625 -10.403555 -1.5618825 3
10.146283 -10.853937 -1.6025329 2
8.90868 -9.5300179 -1.6383189 3
7.8360491 -8.382576 -1.6441425 2
7.0304785 -7.5208206 -1.6591557 2
6.3834486 -6.8286638 -1.6718088 4
5.8401937 -6.247519 -1.6820517 4
5.3657761 -5.7400131 -1.6846319 5
4.9624176 -5.3085227 -1.6868873 5
4.6483417 -4.9725413 -1.7002941 6
3.4457145 -3.6860366 -1.7358227 7
2.5649292 -2.7438207 -1.7508057 7
3.5387702 -3.8389592 1.3782225 20
3.7452314 -4.0629339 1.0677978 29
7.0667925 -7.6662588 1.4586636 22
9.1156693 -9.888938 1.1676829 16
13.827299 -15.00025 1.0495358 28
13.864801 -15.040933 0.69040227 28
9.189743 -11.553092 0.4105432 37
13.824717 -12.968658 0.41559523 35
13.906155 -15.085794 0.32875988 25
9.1803751 -11.541314 0.14929011 44
13.880426 -13.020919 0.080385163 42
13.948586 -15.131826 -0.034122914 24
9.1681347 -11.525926 -0.11104546 44
13.890965 -13.030805 -0.25597903 30
11.698917 -12.69132 -0.33383471 0
9.1505394 -11.503806 -0.37105224 42
13.926317 -13.063968 -0.59440565 28
11.549483 -12.52921 -0.63168895 0
9.1773605 -11.537525 -0.63335568 47
13.866953 -13.008279 -0.92824501 37
11.483273 -12.457382 -0.92795914 0
9.1590424 -11.514496 -0.89215195 44
13.91105 -13.049645 -1.269222 38
11.470402 -12.443419 -1.2264609 0
9.14783 -11.5004 -1.1513577 43
13.165859 -12.350598 -1.5206338 5
11.759138 -12.756649 -1.5642853 1
9.1239214 -11.470343 -1.4076517 41
11.185329 -10.492708 -1.5635052 2
10.091825 -10.947901 -1.6059644 1
8.879591 -9.6328344 -1.6452968 3
7.7880716 -8.4487228 -1.6464119 2
6.9885092 -7.5813346 -1.6617013 2
6.3543015 -6.8933282 -1.6767383 4
5.7911158 -6.2823677 -1.6805078 3
5.3441286 -5.7974639 -1.6905017 5
4.9490047 -5.3688221 -1.6950277 5
4.6082535 -4.9991651 -1.6983553 6
3.4173338 -3.7072215 -1.7345214 7
2.540797 -2.7563293 -1.7474258 6
3.4845307 -3.8361685 1.3680134 22
3.7100668 -4.0844646 1.0662799 28
6.9651265 -7.6680055 1.4492422 14
9.0402555 -9.9525442 1.1673369 15
13.827093 -15.222441 1.0579617 27
13.859004 -15.257571 0.69566429 30
9.0554848 -11.557198 0.40831923 40
13.824864 -13.160642 0.41848862 34
13.894695 -15.296865 0.33113104 24
9.0461864 -11.545331 0.1484803 43
13.868623 -13.202297 0.080875106 39
13.936801 -15.34322 -0.03436831 24
9.0414591 -11.539297 -0.11053275 42
13.89067 -13.223286 -0.25775293 28
11.538347 -12.702728 -0.33190101 0
9.0166407 -11.507622 -0.36903346 40
13.917051 -13.2484 -0.59813935 9
11.387452 -12.536606 -0.62783629 0
9.048173 -11.547866 -0.6302653 44
13.860929 -13.194974 -0.9342916 27
11.321826 -12.464356 -0.92227149 0
9.032527 -11.527898 -0.88803619 45
13.890178 -13.222817 -1.2761272 14
11.322548 -12.465152 -1.2203894 0
9.0190105 -11.510646 -1.1457337 38
12.826694 -12.210429 -1.4917589 2
11.748348 -12.933921 -1.5754203 1
8.9953899 -11.4805 -1.4007683 21
11.131171 -10.596369 -1.5667506 2
10.024672 -11.036302 -1.6081091 1
8.8274193 -9.7182302 -1.6487858 2
7.7392421 -8.5202398 -1.6492486 2
6.9460235 -7.6469746 -1.6648835 2
6.2983055 -6.9338932 -1.6753299 4
5.7449079 -6.3246498 -1.6805078 4
5.3067474 -5.8422728 -1.6921788 4
4.9042768 -5.3991871 -1.6932188 4
4.5714841 -5.0328107 -1.6983553 6
3.3900669 -3.732172 -1.7345214 6
2.5180862 -2.7721963 -1.7457359 7
3.42928 -3.8287117 1.3567834 20
3.6788411 -4.1073408 1.065521 27
3.9856317 -4.4498653 0.8357389 1
8.9572592 -10.000572 1.165607 10
13.827091 -15.437628 1.066182 26
13.874839 -15.490936 0.70187074 33
8.9257021 -11.556842 0.4060953 38
13.836226 -13.356825 0.42164505 32
13.902305 -15.521601 0.33388674 24
8.911581 -11.538558 0.14758949 40
13.868205 -13.387695 0.081415735 41
13.949437 -15.574224 -0.034666762 24
8.9068947 -11.532491 -0.10986926 39
13.88722 -13.406053 -0.25941932 27
11.361332 -12.684665 -0.3293485 0
8.9043112 -11.529145 -0.36772126 46
11.232979 -12.541361 -0.6241318 0
8.9184818 -11.547493 -0.62683153 26
11.157255 -12.456817 -0.91592759 0
8.8908176 -11.511675 -0.88198358 11
11.142087 -12.439882 -1.21027 9
8.8848085 -11.503894 -1.1388599 23
12.775549 -12.332898 -1.495788 3
11.668397 -13.027495 -1.576857 2
8.9198923 -11.54932 -1.4015331 6
11.036882 -10.654473 -1.5639108 2
9.9845257 -11.147492 -1.6141143 1
8.7540627 -9.7737083 -1.6477889 2
7.6927791 -8.58881 -1.6520853 2
6.9003725 -7.7041059 -1.6667928 2
6.2523713 -6.980628 -1.6760341 4
5.713706 -6.3792205 -1.6843674 3
5.2684402 -5.882092 -1.6930174 4
4.8690634 -5.4361963 -1.6941233 4
4.5543609 -5.0848389 -1.7051411 6
3.366452 -3.7585659 -1.7358227 6
2.5083466 -2.8005109 -1.7524956 6
3.3794255 -3.8264697 1.3475952 19
3.6474769 -4.1299801 1.0647621 25
3.9518466 -4.4746127 0.83518469 2
8.7843437 -9.946373 1.1521138 22
13.830043 -15.659537 1.0748135 25
13.877501 -15.713272 0.70753753 28
8.8036299 -11.564788 0.40420493 47
13.828374 -13.537015 0.4242754 40
13.907448 -15.747182 0.33664241 23
8.8090048 -11.571849 0.14722507 36
13.863015 -13.570927 0.081939474 37
13.956875 -15.803147 -0.034958579 20
8.8576612 -11.635765 -0.11026133 30
13.890469 -13.597801 -0.26124698 25
11.222199 -12.706717 -0.32787889 0
8.8841572 -11.670572 -0.37024474 26
12.796483 -12.526865 -0.55744195 0
11.094876 -12.562551 -0.62131637 0
8.8449087 -11.619014 -0.62734663 7
12.770322 -12.501256 -0.8724606 0
11.011851 -12.468543 -0.91111499 0
8.8634386 -11.643355 -0.88730991 28
12.76017 -12.491318 -1.1882192 2
11.017996 -12.475501 -1.2062223 0
8.8888197 -11.676697 -1.1497954 31
12.768893 -12.499857 -1.5051891 3
11.600899 -13.135512 -1.5800897 2
8.9186335 -11.71586 -1.4141527 31
10.993514 -10.761885 -1.5683734 1
9.9617434 -11.279523 -1.6231221 1
8.7013788 -9.8524332 -1.6507795 2
7.6326303 -8.6423054 -1.6520853 2
6.8673325 -7.7757711 -1.6718842 2
6.2139111 -7.0359125 -1.678851 3
5.6768255 -6.4277792 -1.6866833 3
5.2246585 -5.9157972 -1.6921788 4
4.8309927 -5.4700561 -1.6941233 4
4.5238891 -5.1223273 -1.7070798 6
3.342634 -3.7848113 -1.7371238 6
2.4887342 -2.8179541 -1.7524956 7
3.3272316 -3.820802 1.3373863 19
3.6159773 -4.1523809 1.0640032 27
3.9569342 -4.5439162 0.84294355 2
8.6414175 -9.9233084 1.1424264 9
13.822699 -15.873195 1.0828283 26
13.880358 -15.939406 0.71333921 30
8.7898674 -11.715521 0.40731847 25
13.830026 -13.729015 0.42725646 52
13.904865 -15.967549 0.33926994 24
8.8264208 -11.764241 0.14888521 29
13.870131 -13.768826 0.082547687 40
13.94866 -16.017841 -0.035217237 24
8.8482275 -11.793305 -0.1111661 27
13.900226 -13.798702 -0.2632359 23
11.080692 -12.724431 -0.32633194 0
8.884057 -11.841061 -0.37367666 29
12.632107 -12.539845 -0.55408162 0
10.941278 -12.564337 -0.61761189 0
8.8307304 -11.769985 -0.63215387 35
12.626027 -12.533811 -0.8685596 1
10.869458 -12.481862 -0.90652114 0
8.858614 -11.807149 -0.8950572 40
12.562186 -12.470435 -1.1778615 2
10.852036 -12.461855 -1.1975486 0
8.8812742 -11.837352 -1.1594813 27
12.525734 -12.43425 -1.4867226 2
11.514148 -13.222187 -1.5808082 2
8.9154797 -11.882941 -1.4267722 27
10.946355 -10.866406 -1.5724303 1
9.8801451 -11.345792 -1.6226932 3
8.6402063 -9.921917 -1.6522747 2
7.5799131 -8.7043371 -1.6537873 2
6.8180685 -7.8294787 -1.673157 2
6.1620555 -7.0761509 -1.6781467 3
5.6343923 -6.4702129 -1.6874552 3
5.190938 -5.9609752 -1.6946944 4
4.7901297 -5.50071 -1.6932188 4
4.4905682 -5.1567111 -1.7080492 6
3.3235826 -3.8166115 -1.7410275 7
2.4713821 -2.8379934 -1.7541857 6
2.5633197 -2.9832921 1.0382609 12
3.5857987 -4.1732931 1.0632442 27
3.9602723 -4.6091204 0.8501482 3
8.4949055 -9.8867044 1.1317009 13
13.823856 -16.088747 1.0912541 25
13.888972 -16.164532 0.71927583 35
8.7952194 -11.886054 0.41121039 25
13.842982 -13.925375 0.43050057 48
13.905522 -16.183794 0.34189746 27
8.8243399 -11.925408 0.15018091 32
13.874387 -13.956966 0.083122104 40
13.962031 -16.249561 -0.035522319 26
8.8530922 -11.964264 -0.11222166 28
13.924012 -14.006887 -0.26543984 24
10.897017 -12.682375 -0.32339272 0
8.8933382 -12.018653 -0.37741143 29
12.441552 -12.515603 -0.54935229 0
10.805607 -12.57599 -0.61464834 0
8.8332996 -11.937516 -0.63799125 33
12.587687 -12.662609 -0.87168038 3
10.716158 -12.471885 -0.90061474 0
8.8751106 -11.994021 -0.90474135 31
12.386346 -12.460069 -1.1690972 1
10.706747 -12.460932 -1.1906096 0
8.8927107 -12.017805 -1.1713542 27
12.330588 -12.403979 -1.4732924 1
11.446973 -13.322436 -1.5836817 3
8.8933172 -12.018625 -1.43595 8
10.907711 -10.972633 -1.5772984 2
9.8202305 -11.42917 -1.6252669 5
8.6026621 -10.012115 -1.6577574 2
7.5271778 -8.7604256 -1.654922 2
6.7582707 -7.865541 -1.6712477 2
6.1457815 -7.1527019 -1.6865973 3
5.6015873 -6.5193472 -1.6905429 2
5.1538382 -5.998239 -1.6955329 4
4.7662382 -5.5471354 -1.6977413 4
4.4461522 -5.1746063 -1.7041717 6
3.2957318 -3.8357019 -1.7397263 6
2.4525054 -2.854322 -1.7541857 7
2.5599294 -3.0217714 1.0454072 16
3.5388057 -4.177249 1.0579319 33
3.953604 -4.666882 0.85569024 3
8.3432474 -9.8484697 1.1206295 10
13.824813 -16.318975 1.1002966 27
13.879148 -16.383114 0.72467279 27
8.8039036 -12.073164 0.41554713 28
13.835014 -14.113058 0.43330625 53
13.92146 -16.43306 0.34510174 25
8.8233528 -12.099835 0.1515981 21
13.883018 -14.162026 0.083764106 39
13.959426 -16.477875 -0.035807505 29
13.909887 -14.189435 -0.26705247 27
10.805625 -12.75509 -0.32331535 0
12.267114 -12.513647 -0.54549414 0
10.660704 -12.584023 -0.61138839 0
8.8180285 -12.092533 -0.6429702 17
12.417874 -12.667438 -0.8660239 2
10.561701 -12.467159 -0.89492708 0
12.27112 -12.517734 -1.1664413 1
10.58081 -12.489716 -1.1862727 0
12.19626 -12.44137 -1.4675845 2
11.384586 -13.438502 -1.587992 3
9.1540546 -12.553341 -1.4921644 1
10.825273 -11.04283 -1.5764871 1
9.7607651 -11.521725 -1.6286985 5
8.5376854 -10.077987 -1.6587542 2
7.4760728 -8.8248463 -1.6571913 2
6.7287197 -7.9426618 -1.6776119 2
6.1109676 -7.21346 -1.6908226 3
5.5686216 -6.5732679 -1.6944027 2
5.1168928 -6.0400419 -1.6972101 4
4.7349515 -5.5891938 -1.7004547 4
4.4274774 -5.2262478 -1.7109573 6
3.2713177 -3.8615029 -1.7410275 6
2.4325185 -2.8713744 -1.7541857 7
2.5288539 -3.0276959 1.0413237 20
3.5045216 -4.1958241 1.056414 25
3.9615581 -4.7430153 0.8645575 3
8.2334156 -9.8575401 1.1150939 10
13.818102 -16.543861 1.108928 23
13.882319 -16.620747 0.73087925 28
13.875914 -19.310377 0.66129482 44
13.838991 -14.315685 0.43655035 55
13.926899 -16.67412 0.34811378 25
13.87123 -19.30386 0.24063767 57
13.889455 -14.367887 0.084406108 38
13.916123 -14.395474 -0.26909515 2
10.631712 -12.728925 -0.32076287 0
10.535398 -14.661558 -0.45574018 10
12.098868 -12.515623 -0.5418849 0
10.513654 -12.587579 -0.60798025 0
12.0459 -12.46083 -0.84612876 18
10.407838 -12.460889 -0.88923949 0
9.0236464 -12.557733 -0.93766743 1
12.055827 -12.471098 -1.1542245 3
9.6033516 -11.49771 -1.0856578 6
9.0009642 -12.526167 -1.208535 2
12.341814 -12.766937 -1.495788 1
11.310922 -13.542115 -1.5908655 3
9.0638695 -12.613709 -1.4917819 0
10.811529 -11.18394 -1.5858178 1
9.6698933 -11.577377 -1.6269827 5
8.4874735 -10.161714 -1.6627417 2
7.4244342 -8.888979 -1.6594607 2
6.6756372 -7.9924741 -1.6782484 3
6.0503626 -7.2438579 -1.6880058 3
5.53266 -6.624033 -1.6974905 3
5.0821223 -6.0846224 -1.6997257 4
4.7108026 -5.6400561 -1.7058817 4
4.3933711 -5.2600083 -1.7119267 6
3.251554 -3.8929558 -1.7449311 6
2.405441 -2.8799386 -1.7491157 6
2.5051973 -3.0422907 1.0403028 20
3.4601657 -4.2019968 1.0518605 24
3.9610865 -4.8103104 0.8717621 2
8.1188021 -9.8594055 1.1088662 10
13.783531 -16.738605 1.1155043 17
9.4915676 -11.526482 0.50393832 8
13.810081 -19.504677 0.66463077 31
13.835288 -14.513259 0.43961909 58
9.4932108 -11.528477 0.23929617 26
13.867872 -19.586298 0.24294567 43
13.871609 -14.55136 0.084912948 37
9.4664469 -11.495975 -0.024691859 34
10.539823 -14.885926 -0.13752507 0
12.112522 -12.706073 -0.23592861 0
9.53333 -11.577197 -0.29005563 6
10.421231 -14.718433 -0.45523548 2
11.947749 -12.533225 -0.53902239 0
9.4853716 -11.518957 -0.55315387 20
9.246438 -13.059214 -0.6874373 0
9.4700651 -11.500369 -0.81595653 26
8.9288359 -12.610647 -0.93694115 0
11.880342 -12.462516 -1.1457258 0
9.4569149 -11.484399 -1.0781406 41
2.6938064 -3.8045995 -0.36524752 0
12.653919 -13.274 -1.5448081 5
9.4915266 -11.526431 -1.3462552 40
2.6620753 -3.759784 -0.44244853 15
10.771627 -11.299471 -1.5914974 3
9.4801292 -11.51259 -1.608538 27
8.4390326 -10.248292 -1.6672275 2
7.3773012 -8.9589329 -1.6628647 2
6.6372509 -8.0602226 -1.6827034 2
6.0171666 -7.3071971 -1.6929352 3
5.4812922 -6.656436 -1.6959466 2
5.037035 -6.1169333 -1.6988871 4
4.6762681 -5.6788211 -1.7076907 4
4.3639445 -5.2995377 -1.7148348 6
3.2194891 -3.9097209 -1.7423288 6
2.4037142 -2.9190507 -1.7626355 6
2.471709 -3.044693 1.0351982 19
3.4332213 -4.2291002 1.0526195 17
6.2319198 -7.6765838 1.383292 19
8.0120974 -9.8694372 1.1036766 10
9.3786116 -11.552732 0.765522 39
9.3655128 -11.536596 0.50150973 38
13.769657 -19.738346 0.66930109 1
13.826756 -14.708562 0.44260016 59
9.3469563 -11.513738 0.23762994 28
2.6500432 -3.798749 0.046888512 16
13.88201 -14.767339 0.085605636 35
9.3431005 -11.508989 -0.024579111 30
2.6409497 -3.7857134 -0.034803491 26
11.952295 -12.714557 -0.23453099 1
9.3766546 -11.550322 -0.28773519 34
2.6356082 -3.7780566 -0.11628188 32
11.802453 -12.555158 -0.53640878 0
9.359375 -11.529036 -0.55048662 42
2.6477368 -3.7954428 -0.19881427 20
11.74213 -12.490988 -0.83696139 0
9.3442345 -11.510386 -0.81201893 42
2.6453204 -3.7919791 -0.28035602 32
11.721973 -12.469545 -1.1388206 0
9.3362761 -11.500583 -1.0735147 40
2.6306741 -3.7709839 -0.36024842 36
12.656493 -13.463665 -1.5565596 3
9.3606071 -11.530554 -1.3390713 39
2.6220934 -3.7586837 -0.44015408 49
10.700657 -11.383094 -1.5927144 2
9.3418751 -11.50748 -1.5986724 32
8.352272 -10.288469 -1.6642369 2
7.3320451 -9.0317364 -1.666836 2
6.5783296 -8.1032972 -1.6820669 3
5.980896 -7.3673682 -1.6971606 3
5.4470563 -6.7097759 -1.6998062 3
5.0089984 -6.1701684 -1.7039185 4
4.6266856 -5.6992292 -1.7040727 4
4.3317323 -5.3359008 -1.7167736 6
3.1921155 -3.932102 -1.7423288 6
2.3809919 -2.932946 -1.7609456 3
2.4383101 -3.0467765 1.0300937 20
3.3888893 -4.2345672 1.0480659 9
6.1558981 -7.6920671 1.3783041 23
7.9031615 -9.87535 1.0981408 10
9.2552977 -11.564904 0.76202834 32
9.2247944 -11.526789 0.49827155 37
2.5999324 -3.7829244 0.12765537 30
13.83248 -14.922043 0.4461073 59
9.2263632 -11.528749 0.23660457 28
2.60307 -3.7874897 0.046524096 69
13.892786 -14.987099 0.086315215 36
9.2150383 -11.514599 -0.024453098 30
2.6076605 -3.7941687 -0.034713015 35
11.751758 -12.677425 -0.23232704 0
9.2433147 -11.549931 -0.28611088 46
2.5978446 -3.7798865 -0.11577719 38
11.638411 -12.555149 -0.532924 0
9.223712 -11.525436 -0.54722667 45
2.6121223 -3.8006606 -0.19812752 40
11.570443 -12.481828 -0.83091486 0
9.2112427 -11.509855 -0.80742508 42
2.6074765 -3.793901 -0.27914551 43
11.561374 -12.472045 -1.13165 0
9.1959324 -11.490725 -1.0665758 46
2.6042848 -3.7892568 -0.36024842 38
12.583869 -13.57508 -1.5592456 4
9.2201395 -11.520972 -1.3304507 46
2.5980453 -3.7801788 -0.44053647 43
10.607401 -11.442929 -1.590686 2
9.2190666 -11.519632 -1.5913804 34
8.3050404 -10.377516 -1.6692212 2
7.2861314 -9.1043434 -1.6708074 2
6.5215974 -8.149025 -1.6820669 3
5.931777 -7.4120178 -1.6978648 3
5.4098902 -6.7598972 -1.702894 3
4.9658008 -6.2049875 -1.7039185 4
4.5965233 -5.7435589 -1.7076907 4
4.2968001 -5.3690419 -1.717743 6
3.1645868 -3.9542911 -1.7423288 7
2.3355396 -2.9183602 -1.7423559 7
2.4097936 -3.0546155 1.0270309 22
3.3373516 -4.2303729 1.0412357 5
6.0652432 -7.6882043 1.3699911 20
5.8644123 -7.4336343 0.82204872 13
9.1223755 -11.563375 0.75771266 30
9.1069565 -11.543831 0.49624771 37
2.5644927 -3.7877398 0.12721057 39
13.841292 -15.142217 0.44978979 60
9.0936317 -11.526941 0.23525877 25
2.5698376 -3.795634 0.046402622 47
13.890373 -15.195911 0.086957216 36
9.0898314 -11.522123 -0.024333717 33
2.5654113 -3.7890964 -0.034501903 38
11.638683 -12.732589 -0.23184326 0
9.1153917 -11.554523 -0.28464127 49
2.5669088 -3.7913084 -0.11557531 38
11.477647 -12.556416 -0.52956367 0
9.1083632 -11.545613 -0.54515219 51
2.5698414 -3.7956395 -0.19692571 45
11.423721 -12.497422 -0.82662374 0
9.0811882 -11.511168 -0.80304998 47
2.5630193 -3.7855632 -0.27720869 44
11.414783 -12.487643 -1.1258072 0
9.0710096 -11.498265 -1.0613716 47
2.5576458 -3.7776268 -0.35743642 42
12.488793 -13.662599 -1.5592456 3
9.0926008 -11.525634 -1.3236259 52
2.5581975 -3.7784419 -0.43824202 43
10.554107 -11.546073 -1.5947429 2
9.0866919 -11.518144 -1.5823725 36
8.2446795 -10.450823 -1.6717132 2
7.222393 -9.1549892 -1.6708074 2
6.4841146 -8.2191591 -1.6871583 2
5.8920803 -7.4687057 -1.7013859 3
5.3577032 -6.791338 -1.7013501 4
4.9368949 -6.2579279 -1.7089497 4
4.556313 -5.7755089 -1.7076907 4
4.2712302 -5.4141426 -1.7225899 7
3.1439314 -3.9851966 -1.7462324 7
2.3443 -2.971597 -1.7643255 7
2.3873377 -3.0721982 1.0270309 19
3.2869732 -4.2299142 1.0351644 0
4.6523852 -5.9870248 1.0607455 1
5.8586679 -7.5393562 0.82896835 7
8.9809904 -11.557386 0.75298595 32
8.9779377 -11.553457 0.49381909 35
2.5277889 -3.7931273 0.12676579 39
13.842331 -15.36807 0.45347229 46
8.9647179 -11.536446 0.23410523 28
2.5308547 -3.7977278 0.046200167 38
13.888366 -15.419178 0.087649897 38
8.9560385 -11.525276 -0.024201073 31
2.5286942 -3.7944858 -0.034381267 39
11.464732 -12.728406 -0.23023063 0
8.9789162 -11.554716 -0.28301695 48
2.5190909 -3.7800753 -0.11466686 37
11.350512 -12.601595 -0.5279457 0
8.9768839 -11.552101 -0.54233676 52
2.5330844 -3.8010736 -0.19623896 47
11.27298 -12.515518 -0.82233262 0
8.9647045 -11.536428 -0.80020612 25
2.5307724 -3.7976043 -0.27672449 41
11.242804 -12.482015 -1.1178397 0
8.9277287 -11.488845 -1.0544325 8
2.52104 -3.7830002 -0.35618663 42
12.369632 -13.733046 -1.5568954 2
8.9663134 -11.538499 -1.3175197 46
2.5215995 -3.7838397 -0.43671238 42
10.490492 -11.646783 -1.5979884 2
8.9532118 -11.521639 -1.5737936 23
8.1727209 -10.517246 -1.6727102 2
7.1769562 -9.2358246 -1.6759135 2
6.4236913 -8.266469 -1.6871583 3
5.829926 -7.5023689 -1.6992732 2
5.3198175 -6.8459249 -1.7052097 3
4.895689 -6.3001256 -1.7106267 4
4.5258083 -5.8241367 -1.7122132 4
4.2314281 -5.4453068 -1.7225899 6
3.114634 -4.0081358 -1.7462324 7
2.2979839 -2.9572115 -1.7457359 6
2.3681841 -3.0918598 1.0280519 19
5.103363 -6.6628618 1.6218081 20
4.5863881 -5.9879084 1.0552034 2
5.8398166 -7.6243625 0.83381206 6
8.8539371 -11.559546 0.74908125 34
8.8533077 -11.558724 0.49139047 38
2.494664 -3.8006539 0.12643218 37
13.840928 -15.583934 0.45697939 60
8.840188 -11.541595 0.23295169 25
2.4911108 -3.7952409 0.045957223 42
13.889286 -15.638382 0.088342585 34
8.8729296 -11.584343 -0.02419444 23
2.4867783 -3.78864 -0.034170154 40
11.293257 -12.71543 -0.22856423 0
8.844533 -11.547268 -0.2813153 49
2.4926395 -3.7975698 -0.11466686 40
11.171991 -12.578894 -0.52371418 0
8.8571291 -11.563714 -0.53996587 57
2.4933286 -3.7986197 -0.19520883 45
11.087168 -12.483389 -0.81511575 1
8.862092 -11.570193 -0.79823732 6
2.4932439 -3.7984905 -0.27551395 41
11.09443 -12.491566 -1.1117312 0
8.8934002 -11.611068 -1.0599259 25
2.4858153 -3.787173 -0.35493687 39
12.27081 -13.816089 -1.5565596 2
8.8540525 -11.559696 -1.3128502 22
2.4841974 -3.7847083 -0.43480033 42
10.430067 -11.743539 -1.6012338 2
8.8894882 -11.605961 -1.5767963 22
8.1184063 -10.59925 -1.6766975 2
7.1219363 -9.2982759 -1.6781827 2
6.3850365 -8.3361921 -1.6922497 2
5.7845922 -7.5522628 -1.7013859 2
5.2814426 -6.8953595 -1.7082975 3
4.8492098 -6.3310442 -1.7097882 3
4.489778 -5.8617759 -1.7140222 4
4.1909509 -5.4716325 -1.7216206 6
3.0888772 -4.032784 -1.7475336 6
2.2927153 -2.993329 -1.7575656 7
2.3325598 -3.0897975 1.0219264 19
5.0519905 -6.692059 1.6202902 29
4.5229917 -5.9913263 1.0502156 4
7.4575524 -9.8785572 1.0746142 8
8.7730207 -11.621077 0.74908125 26
8.818161 -11.680872 0.493954 24
2.457217 -3.801187 0.12587619 32
13.84245 -15.806537 0.46066189 58
8.8365088 -11.705175 0.23500243 22
2.4558697 -3.7991025 0.045795258 43
13.887817 -15.858341 0.089035265 36
8.8737812 -11.754548 -0.024419937 24
2.4515827 -3.7924712 -0.034049518 38
11.169956 -12.754847 -0.22786543 0
8.8046656 -11.662994 -0.28263023 34
2.4487009 -3.788013 -0.11385934 36
11.004882 -12.56635 -0.51998049 0
8.8460264 -11.717784 -0.54426306 37
2.4537323 -3.7957962 -0.19417872 44
10.936576 -12.488352 -0.81043458 0
8.8725452 -11.752912 -0.80655003 33
2.4536605 -3.7956853 -0.27406132 41
10.935957 -12.487646 -1.1045605 0
8.9034643 -11.793867 -1.0709126 34
2.4484916 -3.7876894 -0.35337463 42
10.955601 -12.510077 -1.4007694 0
8.8547449 -11.729332 -1.3250628 42
2.4360998 -3.7685196 -0.43097621 40
10.355693 -11.825048 -1.6024508 2
8.8849239 -11.769308 -1.5905224 27
8.0513859 -10.665173 -1.6781927 1
7.0568485 -9.3477707 -1.6781827 2
6.3385797 -8.3963242 -1.6954318 2
5.7412157 -7.6050329 -1.7042028 3
5.2426343 -6.944593 -1.7113853 3
4.8072491 -6.3678651 -1.7106267 3
4.4557886 -5.902307 -1.7167357 4
4.1620026 -5.5131469 -1.7254981 6
3.0629265 -4.0572691 -1.7488348 7
2.2717619 -3.0092623 -1.7575656 5
2.3109319 -3.1060064 1.0219264 19
5.0028038 -6.7240148 1.6195313 28
4.4550424 -5.9877968 1.0441194 7
7.3408298 -9.866437 1.0676947 8
8.7775192 -11.797419 0.75647956 27
8.8223066 -11.857615 0.49881124 25
2.4241784 -3.80813 0.1255426 37
13.833696 -16.020834 0.46408135 46
8.8452959 -11.888514 0.23743768 22
2.409956 -3.7857883 0.045430839 36
13.891794 -16.088118 0.089778632 32
8.8798466 -11.934952 -0.02466533 23
2.412159 -3.7892489 -0.033868562 41
11.002222 -12.741697 -0.22625279 0
8.8113556 -11.842896 -0.28549209 35
2.4136069 -3.7915232 -0.11345559 38
10.846337 -12.561166 -0.51662016 0
8.8451309 -11.888292 -0.54930121 38
2.4185889 -3.7993493 -0.19349197 44
10.789072 -12.494847 -0.80594838 0
8.8665695 -11.917107 -0.81355017 30
2.4185255 -3.7992499 -0.27309293 39
10.772869 -12.476083 -1.0968586 0
8.9018803 -11.964565 -1.0807427 27
2.417706 -3.7979629 -0.35274974 39
10.810691 -12.519884 -1.3933827 0
8.855875 -11.902732 -1.3376344 36
2.407593 -3.7820764 -0.43059382 41
10.296295 -11.924162 -1.606102 2
8.890377 -11.949104 -1.6063933 25
7.9956851 -10.746594 -1.6821802 2
7.0126886 -9.4253988 -1.6832888 2
6.2868795 -8.4498758 -1.6973411 3
5.702085 -7.6638832 -1.708428 3
5.1987095 -6.9873219 -1.7129291 4
4.76968 -6.4106846 -1.7131424 3
4.4191256 -5.9395227 -1.7185447 4
4.1257286 -5.5451822 -1.7264674 6
3.0300112 -4.0724845 -1.7462324 6
2.2528622 -3.0279577 -1.7592555 6
2.2925692 -3.124383 1.0229473 20
4.9534507 -6.7507133 1.6180134 25
4.3894525 -5.98208 1.0380232 8
7.2327967 -9.8570757 1.0614669 6
8.7936115 -11.984202 0.76469994 27
8.8262453 -12.028675 0.50353354 26
2.3797455 -3.7936397 0.12454182 38
13.836061 -16.24008 0.46776384 53
8.856164 -12.069449 0.23987295 22
2.378418 -3.7915235 0.045309365 39
13.898926 -16.313868 0.090521999 36
8.8738527 -12.093556 -0.02487093 6
2.3784721 -3.7916098 -0.033747926 38
10.865595 -12.753495 -0.22517771 0
8.8177891 -12.017152 -0.28827664 33
2.3735325 -3.7837355 -0.11274901 37
10.692782 -12.550655 -0.51325983 0
8.8512211 -12.062714 -0.55463564 35
2.3848424 -3.801765 -0.19280522 43
10.64378 -12.493139 -0.80126721 0
8.858222 -12.072254 -0.82011288 7
2.3805442 -3.7949128 -0.2716403 37
10.630354 -12.477381 -1.0907501 0
2.3818681 -3.7970235 -0.35118753 39
10.647284 -12.497252 -1.3829743 0
8.8568687 -12.070411 -1.3498471 25
2.3634133 -3.7676041 -0.42715213 38
10.232468 -12.010362 -1.6085361 2
8.8721018 -12.09117 -1.6175458 10
7.917191 -10.789789 -1.6806849 2
6.9711041 -9.500433 -1.6883948 2
6.2377076 -8.5009384 -1.6992503 3
5.6581187 -7.7110562 -1.7105407 2
5.1476092 -7.0153189 -1.7113853 4
4.7432542 -6.464251 -1.7190121 3
4.3750257 -5.9624181 -1.7167357 4
4.0865645 -5.5692945 -1.7254981 6
3.0096476 -4.1016393 -1.750136 7
2.2305853 -3.0399096 -1.7575656 5
2.2684357 -3.1371775 1.0219264 21
4.8969979 -6.7723994 1.6149777 27
4.3266935 -5.9836855 1.0330354 9
7.1404572 -9.8750353 1.0580071 6
8.772933 -12.1327 0.77024871 3
13.904836 -19.229965 0.80090439 27
2.3426974 -3.7931511 0.12398583 34
13.843237 -16.480196 0.47188473 65
13.94612 -19.28706 0.38137427 33
2.343483 -3.7944229 0.045147404 38
13.90304 -16.551392 0.091299161 39
10.825964 -14.971979 -0.030634353 12
2.3435366 -3.7945096 -0.03362729 37
10.704264 -12.743289 -0.22367257 0
2.3386543 -3.7866046 -0.11234526 39
10.615188 -12.637245 -0.51375765 0
2.3498433 -3.8047211 -0.19211847 45
10.492061 -12.490664 -0.79639089 0
9.1037092 -12.590153 -0.85095733 0
2.3476987 -3.8012488 -0.27091399 43
10.48651 -12.484056 -1.0849073 0
9.0420771 -12.504917 -1.1183288 2
2.3364425 -3.7830236 -0.34837553 40
10.498248 -12.498031 -1.3749162 1
2.3370531 -3.7840118 -0.42715213 43
10.168847 -12.105882 -1.6117816 2
8.9412746 -12.365511 -1.6458561 3
7.8486505 -10.854445 -1.6821802 2
2.7145145 -3.754091 -0.66378427 5
6.1874661 -8.5570774 -1.7017961 3
5.6041493 -7.7503681 -1.7105407 1
2.7205849 -3.7624862 -0.91320199 4
2.7156794 -3.755702 -0.99367291 19
4.3401442 -6.0022874 -1.7194492 3
2.7105176 -3.7485635 -1.1555021 12
2.7282805 -3.7731292 -1.6017973 0
2.2071848 -3.0524695 -1.7558756 7
2.2330134 -3.1340389 1.015801 20
4.8518777 -6.8096204 1.6157366 28
4.2641258 -5.9847093 1.0280476 8
7.0297189 -9.8662252 1.0517795 6
12.547556 -17.610521 1.1124216 1
13.837521 -19.42099 0.8048172 33
2.3099284 -3.7991636 0.12365223 37
13.842628 -16.715038 0.47583026 48
13.890039 -19.494699 0.38355318 27
2.310703 -3.8004377 0.04502593 36
12.442623 -15.024527 0.082395636 10
10.684038 -14.99507 -0.030528238 11
2.3065996 -3.793689 -0.033476498 38
9.5410337 -11.520844 -0.20104192 9
10.670452 -14.976002 -0.35564691 0
2.3017759 -3.7857554 -0.11184056 40
9.5168753 -11.491673 -0.46447274 26
9.67237 -13.575191 -0.6179083 0
2.3128443 -3.8039596 -0.19126002 44
9.5381899 -11.517409 -0.73007375 0
2.6722305 -3.7504811 -0.25222462 0
2.3086591 -3.797076 -0.26946136 40
9.5335693 -11.51183 -0.99460906 18
8.9337206 -12.538496 -1.1157267 2
2.2996178 -3.7822058 -0.34681329 38
9.5234756 -11.499641 -1.2577378 33
8.9487038 -12.559525 -1.3904358 0
2.2981684 -3.7798219 -0.42485768 40
9.5079231 -11.480862 -1.5196913 38
8.9008837 -12.492409 -1.654435 2
7.7680745 -10.902509 -1.6811833 0
2.6905377 -3.7761753 -0.66435158 14
2.6833923 -3.7661467 -0.74525172 13
2.6755617 -3.7551565 -0.82463694 1
2.6874192 -3.7717986 -0.91088617 1
2.6644287 -3.7395313 -0.98444891 1
2.6837907 -3.766706 -1.0736382 1
2.68203 -3.7642348 -1.1545327 1
2.6689501 -3.745877 -1.5822791 17
2.1921322 -3.0766623 -1.7609456 7
2.2199678 -3.1622133 1.0198846 19
4.8042192 -6.843327 1.6157366 28
4.1994791 -5.9819107 1.0225055 9
2.6560445 -3.7833788 0.40133694 1
13.608665 -19.384743 1.2184644 17
13.818747 -19.68399 0.81169826 6
2.2751355 -3.8014741 0.12320744 34
9.4361935 -11.557552 0.32712781 63
2.665694 -3.7971241 0.074339464 1
2.2738442 -3.7993166 0.044823475 39
9.4181385 -11.535439 0.062899105 38
2.6660323 -3.797606 -0.0076934076 20
2.271842 -3.7959714 -0.033355862 39
9.4072552 -11.522108 -0.19991307 35
2.6241758 -3.7379837 -0.08833161 0
2.267076 -3.7880077 -0.1114368 38
9.3883781 -11.498988 -0.46210808 37
2.6733928 -3.8080904 -0.17248087 2
2.2739174 -3.799439 -0.19022989 44
9.4095459 -11.524915 -0.72636783 28
2.6620462 -3.7919281 -0.2537559 21
2.2697918 -3.7925453 -0.26800874 44
9.3974409 -11.510088 -0.98876619 48
2.6476009 -3.7713516 -0.33393738 38
2.2670131 -3.7879026 -0.34587598 43
9.3849859 -11.494833 -1.2500154 39
2.6667101 -3.7985716 -0.41845977 5
2.2655897 -3.7855244 -0.42371044 40
9.3797255 -11.48839 -1.5119834 39
2.6483777 -3.7724578 -0.4971455 30
2.6566598 -3.7842553 -0.58066368 35
2.6345332 -3.7527373 -0.65697622 59
2.6298058 -3.7460032 -0.73761469 1
2.6402307 -3.7608531 -0.82182008 21
2.6429806 -3.76477 -0.90471065 10
2.6584821 -3.7868509 -0.99199581 28
2.632802 -3.7502713 -1.0636888 18
2.6445363 -3.7669859 -1.1496857 3
2.6492536 -3.7737057 -1.5861827 42
2.1747658 -3.0978258 -1.7643255 5
2.2000375 -3.1808155 1.0209055 20
4.7473907 -6.8637805 1.6127009 5
2.6297765 -3.8021321 0.64675552 28
2.6091652 -3.7723327 0.3982231 26
2.6155214 -3.7815223 0.23654115 26
2.6174903 -3.7843688 0.15529665 23
2.2404232 -3.803484 0.12276265 34
9.3051271 -11.560843 0.32537425 42
2.611819 -3.7761693 0.073570438 23
2.2391446 -3.8013129 0.044661511 37
9.284708 -11.535474 0.062544316 44
2.6212521 -3.7898078 -0.0076403497 49
2.2371655 -3.7979534 -0.033235226 35
9.273922 -11.522072 -0.19878423 32
2.6207657 -3.7891045 -0.089105092 25
2.2365167 -3.7968519 -0.11123493 39
9.2677612 -11.514419 -0.46011677 41
2.628552 -3.8003619 -0.17129543 36
2.2392242 -3.8014481 -0.18954314 47
9.286272 -11.537416 -0.72305197 40
2.6127889 -3.7775717 -0.25156835 42
2.2371802 -3.7979784 -0.26728243 42
9.2718105 -11.519449 -0.98398572 45
2.6166689 -3.7831812 -0.33335912 43
2.2324178 -3.7898932 -0.34462619 42
9.2670193 -11.513496 -1.244979 41
2.6129322 -3.7777786 -0.41414946 40
2.2310236 -3.7875264 -0.4221808 43
9.2444 -11.485394 -1.5030583 41
2.6174519 -3.7843134 -0.49628761 52
2.6121149 -3.776597 -0.57667631 44
2.6105227 -3.7742951 -0.65754354 40
2.6125755 -3.7772629 -0.74016035 20
2.6116712 -3.7759554 -0.82111585 51
2.6121681 -3.776674 -0.90316677 43
2.6141815 -3.7795851 -0.98528749 38
2.6087725 -3.7717648 -1.0645932 37
2.6093433 -3.7725899 -1.1458082 36
2.6099341 -3.7734439 -1.5783755 34
2.1510236 -3.1099513 -1.7626355 8
2.1625338 -3.1737239 1.0137591 22
2.5874112 -3.7972717 0.88793421 26
2.5875547 -3.7974823 0.64287609 31
2.5805228 -3.7871623 0.39787713 31
2.5958068 -3.8095932 0.23715769 29
2.5955093 -3.8091564 0.15556651 31
2.2057943 -3.8051953 0.12231786 39
9.1744776 -11.562867 0.32362068 40
2.5808892 -3.7877002 0.073442265 23
2.2045281 -3.8030109 0.044499546 45
9.1591969 -11.54361 0.062240213 47
2.5902264 -3.8014035 -0.0076270853 31
2.2045782 -3.8030977 -0.033144746 40
9.1435356 -11.52387 -0.19770914 34
2.5874937 -3.7973928 -0.088873051 36
2.2039387 -3.8019946 -0.1109321 42
9.134964 -11.513067 -0.45750317 45
2.5929537 -3.8054059 -0.17070271 45
2.2066176 -3.8066158 -0.18902808 49
9.1458998 -11.526851 -0.71837074 40
2.5841045 -3.792419 -0.2513496 43
2.200599 -3.7962332 -0.26607192 43
9.1440296 -11.524493 -0.97893965 47
2.5789618 -3.7848716 -0.3319135 48
2.1979051 -3.7915859 -0.34337643 47
9.1294327 -11.506097 -1.2372566 39
2.5864954 -3.7959278 -0.41414946 44
2.1905489 -3.7788959 -0.41950393 42
9.1145239 -11.487306 -1.4949447 44
2.5842512 -3.7926342 -0.49500078 52
2.5722775 -3.7750616 -0.57368577 44
2.575192 -3.7793388 -0.65527421 42
2.5816951 -3.7888827 -0.73888749 41
2.5763781 -3.7810798 -0.818299 41
2.5746889 -3.7786007 -0.89930713 43
2.5745182 -3.7783501 -0.9802562 37
2.5757957 -3.780225 -1.0618798 34
2.5742018 -3.7778859 -1.1419307 47
2.5707483 -3.7728176 -1.5705682 30
2.1353848 -3.1338801 -1.7677054 7
2.1478283 -3.2023387 1.0178428 20
2.550756 -3.8030899 0.88489848 36
2.5530283 -3.8064783 0.64121348 34
2.5438132 -3.7927387 0.3964932 30
2.5455601 -3.7953432 0.23510259 33
2.545249 -3.7948794 0.15421727 32
2.1639824 -3.7969451 0.12153947 38
9.0377569 -11.563642 0.32177943 40
2.5419157 -3.7899094 0.073121831 23
2.1647084 -3.7982185 0.044256601 42
9.0250683 -11.547407 0.061902318 47
2.5466948 -3.797035 -0.0075806594 32
2.166738 -3.80178 -0.032993954 42
9.0095568 -11.52756 -0.19663404 36
2.5484498 -3.7996514 -0.088486306 44
2.1621499 -3.7937295 -0.11022554 41
9.0010834 -11.516719 -0.45501405 41
2.5538564 -3.8077126 -0.16996183 48
2.164803 -3.7983847 -0.18782628 45
9.0119534 -11.530626 -0.71446973 43
2.5451117 -3.7946746 -0.25025582 44
2.1687582 -3.8053246 -0.26558772 46
9.0027771 -11.518886 -0.97283119 48
2.5444815 -3.793735 -0.33104613 44
2.162154 -3.7937369 -0.34212664 42
9.0006628 -11.51618 -1.2312131 35
2.5430667 -3.7916257 -0.4116351 51
2.1588464 -3.7879333 -0.41873911 42
8.9614592 -11.46602 -1.4835855 7
2.5364435 -3.7817504 -0.49114028 55
2.5312715 -3.7740393 -0.57069522 47
2.5341854 -3.778384 -0.65187019 44
2.5362542 -3.7814684 -0.73379612 42
2.5398192 -3.7867837 -0.81548214 48
2.5272455 -3.7680368 -0.89235967 43
2.5358596 -3.78088 -0.97606349 36
2.5371644 -3.7828255 -1.0573572 37
2.5399544 -3.7869854 -1.1390226 43
2.5261681 -3.7664304 -1.5601584 30
2.1083162 -3.1434274 -1.7643255 7
2.1275516 -3.2204823 1.0188637 21
2.5154841 -3.8076973 0.88186282 33
2.5089235 -3.7977664 0.63677984 32
2.5018971 -3.7871306 0.39407134 29
2.507992 -3.7963564 0.23407505 27
2.5098794 -3.7992134 0.15367758 27
2.1354675 -3.8084719 0.12142827 39
8.9104376 -11.566264 0.32011354 43
2.5043728 -3.7908778 0.072801404 22
2.1264024 -3.792305 0.044013657 42
8.8954105 -11.54676 0.061564423 43
2.5091004 -3.7980342 -0.0075474982 28
2.1244948 -3.7889028 -0.032752682 40
8.8922462 -11.542652 -0.19582772 39
2.5064301 -3.7939923 -0.087944873 45
2.1258342 -3.7912917 -0.10972083 41
8.8887434 -11.538104 -0.45339611 47
2.5206013 -3.8154433 -0.16951728 48
2.1323698 -3.8029475 -0.1873112 45
8.8873463 -11.536291 -0.71095884 10
2.5031471 -3.7890227 -0.24872455 39
2.1304235 -3.7994766 -0.26413509 47
8.8685541 -11.511897 -0.96698838 31
2.5003417 -3.784776 -0.32873315 42
2.1258652 -3.791347 -0.34056443 39
8.8738279 -11.518743 -1.2248337 10
2.5077507 -3.7959912 -0.41019833 49
2.1226132 -3.785547 -0.41682705 39
8.9079065 -11.56298 -1.488048 17
2.5012116 -3.7860928 -0.48942453 51
2.4939239 -3.7750614 -0.56820309 41
2.4924679 -3.7728574 -0.64789885 43
2.5054393 -3.7924924 -0.73252326 45
2.5024688 -3.7879958 -0.81196105 47
2.4987149 -3.7823136 -0.89158773 41
2.5029347 -3.7887013 -0.97354788 35
2.4978073 -3.7809398 -1.0519303 36
2.4963417 -3.7787213 -1.1312675 42
2.4893873 -3.7681944 -1.5536523 32
2.0883179 -3.1610944 -1.7660154 7
2.1282179 -3.2709162 1.0300937 20
2.4759889 -3.8054149 0.87730932 34
2.4693861 -3.7952671 0.63345462 31
2.4667034 -3.7911439 0.39268741 24
2.4639983 -3.7869864 0.23243098 31
2.4702132 -3.7965381 0.15286805 29
2.0953093 -3.7987792 0.12064989 32
8.7956171 -11.583597 0.31888604 47
2.4734838 -3.8015649 0.072673231 25
2.0998755 -3.8070576 0.044013657 35
8.8170033 -11.611763 0.061581317 33
2.4694347 -3.7953417 -0.0075077047 28
2.0883322 -3.78613 -0.032601885 36
8.8525667 -11.658599 -0.19674155 24
2.4711576 -3.7979896 -0.08763548 44
2.0877266 -3.785032 -0.10911521 41
8.8780937 -11.692217 -0.45700535 28
2.4786429 -3.8094943 -0.16848002 47
2.099978 -3.8072438 -0.18679614 46
8.8186741 -11.613963 -0.71193409 18
2.4657426 -3.7896671 -0.24763077 39
2.0980616 -3.8037691 -0.26340878 42
8.8531399 -11.659353 -0.97415912 32
2.4651549 -3.7887638 -0.32757667 41
2.0916409 -3.7921288 -0.33931464 39
8.8847933 -11.70104 -1.2375925 33
2.4681525 -3.793371 -0.40804318 48
2.086518 -3.7828412 -0.414915 39
8.9232264 -11.751655 -1.5042753 34
2.466043 -3.7901287 -0.48770875 47
2.4588501 -3.779074 -0.56620938 41
2.4531109 -3.7702534 -0.64449483 39
2.4702868 -3.7966511 -0.72997761 41
2.4587831 -3.7789707 -0.80632734 44
2.4572649 -3.7766376 -0.88618416 38
2.4614925 -3.7831352 -0.96767807 33
2.4564753 -3.775424 -1.0455987 36
2.4572017 -3.7765403 -1.1254512 39
2.4527056 -3.7696302 -1.5471462 29
2.0563121 -3.1604023 -1.7575656 5
2.1199374 -3.3084881 1.03724 20
2.4281745 -3.7895398 0.86972016 34
2.4342821 -3.7990716 0.6312378 31
2.4294274 -3.7914951 0.39095753 24
2.4310355 -3.7940047 0.23181444 26
2.4328651 -3.79686 0.15219343 27
2.0706441 -3.816829 0.12076109 38
8.7888126 -11.743975 0.32160407 27
2.4404111 -3.8086369 0.072480977 26
2.0656168 -3.8075619 0.043851692 35
8.8196058 -11.785122 0.062172633 35
2.4385631 -3.8057525 -0.0074944403 28
2.0618491 -3.800617 -0.032601885 36
8.8548346 -11.832196 -0.19862296 24
2.4359529 -3.8016791 -0.087326087 39
2.0593443 -3.7959998 -0.10901427 40
8.8729057 -11.856343 -0.46098796 29
2.439049 -3.8065109 -0.16759095 47
2.0619133 -3.800735 -0.18576601 40
8.8283434 -11.796797 -0.71934599 30
2.4262979 -3.7866108 -0.24631824 41
2.0600314 -3.7972665 -0.26195616 41
8.850441 -11.826325 -0.98292339 36
2.4278831 -3.7890849 -0.32613105 41
2.0632143 -3.8031335 -0.33900219 38
8.8960285 -11.88724 -1.2506869 26
2.4330132 -3.7970912 -0.40660641 47
2.0543621 -3.7868161 -0.41376778 40
8.9244175 -11.925175 -1.5184743 26
2.4309413 -3.7938578 -0.48599297 47
2.4217021 -3.7794387 -0.56371725 38
2.4224582 -3.7806187 -0.64336014 39
2.4224167 -3.7805536 -0.72361332 41
2.4238446 -3.7827823 -0.80351049 43
2.4244878 -3.7837861 -0.88386834 37
2.4202516 -3.7771747 -0.96180826 33
2.4216504 -3.7793579 -1.0419807 30
2.4224024 -3.7805316 -1.1215737 40
2.4181669 -3.7739215 -1.5419414 30
2.0478909 -3.1960485 -1.7693954 7
2.0967882 -3.3232076 1.03724 22
2.3974679 -3.7997563 0.86820233 38
2.3907895 -3.7891715 0.62680417 32
2.3943927 -3.7948823 0.3895736 28
2.3959627 -3.7973704 0.23099241 26
2.3977659 -3.8002284 0.15165374 27
2.0364189 -3.8170807 0.1203163 38
8.7896881 -11.917689 0.32467282 27
2.3924208 -3.7917569 0.071840122 23
2.0276885 -3.8007159 0.043608747 41
8.8202124 -11.959076 0.062763952 30
2.39059 -3.7888553 -0.0074281176 29
2.025852 -3.7972739 -0.032451089 38
8.8479834 -11.99673 -0.2003431 24
2.3965485 -3.7982988 -0.086861998 42
2.0233822 -3.7926443 -0.10850957 42
8.8777208 -12.03705 -0.46559286 27
2.3996172 -3.8031628 -0.16670187 47
2.0296857 -3.8044598 -0.18525095 41
8.8216562 -11.961034 -0.72558761 31
2.3912783 -3.7899461 -0.24544322 41
2.0297127 -3.8045104 -0.26147196 37
8.8505774 -12.000247 -0.99221879 37
2.3928559 -3.7924464 -0.32497457 42
2.0253508 -3.7963343 -0.33712754 38
8.8743353 -12.032459 -1.2594166 17
2.3915646 -3.7903998 -0.40409204 43
2.0166299 -3.7799881 -0.4114733 43
8.8881865 -12.05124 -1.526588 4
2.3937852 -3.7939196 -0.48384824 48
2.3867865 -3.7828271 -0.56172359 39
2.3791027 -3.7706492 -0.63882142 40
2.3917499 -3.7906935 -0.72234052 43
2.3910735 -3.7896216 -0.8013978 43
2.3854468 -3.780704 -0.87923676 39
2.3896492 -3.787364 -0.96013117 35
2.3848109 -3.7796962 -1.0374583 32
2.3876672 -3.7842228 -1.1176962 40
2.383688 -3.7779162 -1.5367365 31
2.0255284 -3.2102678 -1.7693954 7
2.0787857 -3.34361 1.0392818 20
2.3639197 -3.8022323 0.86516666 39
2.3676975 -3.8083086 0.62735838 34
2.3586512 -3.7937582 0.3878437 31
2.3643973 -3.8030005 0.23037589 27
2.3682873 -3.8092573 0.15138389 28
1.9943314 -3.7986407 0.11931551 34
8.79984 -12.098617 0.3280046 33
2.3545499 -3.7871614 0.071455605 27
1.9968593 -3.8034556 0.043487273 41
8.818346 -12.12406 0.063321479 6
2.3611848 -3.7978332 -0.0074148532 32
2.0006237 -3.8106258 -0.032451089 40
2.3607464 -3.7971282 -0.086475261 41
2.0019021 -3.813061 -0.10871144 47
2.3680093 -3.8088102 -0.16625734 47
2.0044098 -3.817837 -0.18525095 50
8.8619852 -12.184058 -0.7355352 1
2.3492191 -3.7785871 -0.24369317 39
2.010004 -3.8284926 -0.26219824 45
2.3550119 -3.7879045 -0.3232398 46
2.0019825 -3.8132138 -0.33743998 41
2.3600626 -3.7960284 -0.40301448 45
2.0063233 -3.8214819 -0.4145326 38
9.4540977 -12.998135 -1.6385567 1
2.3601711 -3.7962029 -0.48213246 47
2.3532631 -3.7850916 -0.55972987 40
2.3498611 -3.7796197 -0.63768679 42
2.3498757 -3.7796431 -0.7172491 42
2.3534133 -3.7853332 -0.79717249 47
2.3541028 -3.7864423 -0.87692094 40
2.3541524 -3.7865222 -0.95593846 37
2.3452895 -3.7722664 -1.0311269 35
2.3481734 -3.7769053 -1.1109105 40
2.3465967 -3.774369 -1.5289292 31
2.0080209 -3.2297888 -1.7727753 6
2.0574112 -3.3613398 1.0403028 18
2.3270662 -3.8018944 0.86137205 39
2.3245084 -3.7977157 0.62292475 32
2.3196261 -3.7897389 0.38576782 28
2.3190205 -3.7887499 0.22852629 28
2.333288 -3.8120594 0.15084419 31
1.9732649 -3.8231304 0.1196491 38
13.863657 -19.343143 0.5217737 50
2.3217893 -3.7932732 0.071263351 26
1.9757612 -3.8279669 0.043608747 42
10.982109 -15.32269 0.079624899 2
2.322084 -3.7937548 -0.0073750596 31
1.9886482 -3.8529348 -0.032692362 25
10.766857 -15.022361 -0.24839966 0
2.3216531 -3.7930508 -0.086011171 43
1.9954073 -3.8660305 -0.10982177 23
10.643833 -14.850713 -0.56876755 6
2.333014 -3.8116117 -0.16566461 45
1.9777074 -3.8317375 -0.18525095 38
9.0955677 -12.69051 -0.7622571 0
2.3206971 -3.7914889 -0.24347442 43
1.9868897 -3.8495281 -0.26268247 27
8.9863291 -12.538095 -1.026479 1
2.3180962 -3.7872393 -0.32179418 43
1.9844574 -3.8448155 -0.33900219 25
8.9744186 -12.521478 -1.2976925 2
2.3168657 -3.785229 -0.40014094 48
1.9960313 -3.8672395 -0.41797429 24
9.3747168 -13.07999 -1.6405851 1
2.3253064 -3.7990193 -0.48041672 48
2.3164213 -3.784503 -0.55723774 41
2.3089473 -3.7722924 -0.63371539 39
2.3213699 -3.792588 -0.7166127 44
2.3187068 -3.7882371 -0.79435563 44
2.3132684 -3.7793522 -0.87151736 41
2.3154094 -3.7828498 -0.95090723 35
2.3148289 -3.7819014 -1.0293179 34
2.3095927 -3.7733469 -1.1050942 42
2.3122907 -3.7777548 -1.5237243 33
1.9740676 -3.2251754 -1.7626355 6
2.0287266 -3.3697045 1.0382609 23
2.2788777 -3.7852044 0.85378289 35
2.2884343 -3.8010776 0.62070793 29
2.2815065 -3.7895706 0.38403791 30
2.2829437 -3.7919579 0.22770426 28
2.2949717 -3.8119364 0.15016958 27
1.961457 -3.8695905 0.12064989 23
13.792972 -19.545538 0.52449173 45
2.2856693 -3.7964852 0.071007006 26
1.9729652 -3.8922939 0.044175621 29
10.913314 -15.464876 0.0799459 1
2.2880228 -3.8003943 -0.0073551629 28
1.9874778 -3.9209247 -0.033144746 22
2.6612296 -3.7711356 -0.062032718 0
2.2855353 -3.7962625 -0.085701779 42
1.995941 -3.9376209 -0.1114368 22
2.6624866 -3.7729168 -0.1437476 7
2.2926404 -3.808064 -0.16477554 45
1.9784755 -3.9031646 -0.18799795 27
2.6398757 -3.7408755 -0.22352779 0
2.2784216 -3.7844467 -0.24194314 39
1.9856956 -3.9174085 -0.26631403 28
2.6671033 -3.779459 -0.3078109 0
2.2840989 -3.7938764 -0.32092682 45
1.9994916 -3.9446254 -0.34650087 23
2.6704631 -3.7842197 -0.39014715 16
2.282892 -3.7918718 -0.39906335 49
1.9946324 -3.9350393 -0.42371044 23
2.6477463 -3.7520289 -0.46815905 26
2.2789347 -3.7852988 -0.47655621 51
2.2742879 -3.7775807 -0.55374879 43
2.2710216 -3.7721553 -0.63087875 39
2.2812855 -3.7892034 -0.71279413 43
2.276659 -3.7815187 -0.78942615 46
2.2733562 -3.7760329 -0.86688572 39
2.2755136 -3.7796164 -0.94587594 34
2.2729759 -3.7754014 -1.0229863 35
2.2718625 -3.7735519 -1.1002474 41
2.2728307 -3.7751603 -1.5159171 32
1.9503729 -3.2395594 -1.7626355 6
2.0130396 -3.3970938 1.0423445 21
2.2564018 -3.8077784 0.85530072 36
2.2537649 -3.8033288 0.61849111 33
2.2529643 -3.8019774 0.38369194 30
2.2462339 -3.7906196 0.22667672 32
2.2560766 -3.8072295 0.14936003 26
1.9629201 -3.9404533 0.12242906 22
2.6435738 -3.8021879 0.1015315 6
2.2468767 -3.7917047 0.070622489 25
1.9635783 -3.9417748 0.04458053 29
2.6464689 -3.8063519 0.019581001 36
2.2532794 -3.8025093 -0.0073286342 29
1.9868087 -3.9884083 -0.033597134 22
2.6257045 -3.7764869 -0.061817702 12
2.2528615 -3.8018038 -0.08546973 40
1.9933642 -4.0015683 -0.11284995 20
2.6223879 -3.7717168 -0.14300086 44
2.2517359 -3.7999046 -0.16373828 47
1.9761245 -3.9669604 -0.19040158 24
2.6205373 -3.7690549 -0.22411294 26
2.2438023 -3.7865162 -0.24106811 41
1.9885631 -3.9919302 -0.27042979 27
2.6155903 -3.76194 -0.3048895 28
2.2412872 -3.7822719 -0.31861383 45
1.9985753 -4.0120292 -0.35118753 21
2.6166747 -3.7634995 -0.38611811 67
2.2482412 -3.7940071 -0.39762658 48
1.9919673 -3.998764 -0.42906418 23
2.6328461 -3.7867584 -0.47018749 42
2.2463715 -3.7908518 -0.47526938 50
2.2417912 -3.7831223 -0.55225354 42
2.2345397 -3.7708855 -0.62804204 40
2.2426982 -3.7846529 -0.70897561 44
2.2401681 -3.7803833 -0.78590506 45
2.2409377 -3.781682 -0.8645699 40
2.2430909 -3.7853158 -0.94336033 34
2.2366326 -3.7744169 -1.0184639 32
2.2355721 -3.7726271 -1.0954005 40
2.232923 -3.768157 -1.5068085 29
1.9406476 -3.274929 -1.7744653 7
2.0068095 -3.4411328 1.0515326 21
2.2178924 -3.8030829 0.85074717 40
2.2211707 -3.8087044 0.6168285 33
2.2123134 -3.7935164 0.38127008 26
2.2096531 -3.788955 0.22564916 32
2.221386 -3.8090732 0.14882034 29
1.9599731 -4.0043392 0.12398583 21
2.5943658 -3.7875581 0.10065471 38
2.2122915 -3.793479 0.070366144 27
1.9746977 -4.0344224 0.045471329 27
2.5994871 -3.7950346 0.019428948 40
2.2186177 -3.8043265 -0.007302105 29
1.9817765 -4.0488849 -0.033989199 21
