# .PCD v0.7 - Point Cloud Data file format
VERSION 0.7
FIELDS x y z intensity
SIZE 4 4 4 4
TYPE F F F F
COUNT 1 1 1 1
WIDTH 1378
HEIGHT 1
VIEWPOINT 0 0 0 1 0 0 0
POINTS 1378
DATA ascii
6.6756382 -1.882725 0.23409183 20
6.6951771 -2.4262643 0.19804373 0
6.679337 -1.3698562 0.14949153 43
6.6747327 -1.8824695 0.11112468 1
6.7124643 -2.4325292 0.072276331 6
6.6808829 -1.3701732 0.028805528 4
6.67943 -1.8837943 -0.01150695 20
6.7163777 -2.4339473 -0.053863984 43
6.6960115 -1.373276 -0.091866478 37
6.6550956 -1.8769313 -0.13373499 0
6.7181897 -2.4346039 -0.18037823 0
6.6777077 -1.3695221 -0.21219884 27
6.6825485 -1.8846738 -0.2573877 70
6.7178936 -2.4344966 -0.30697748 47
6.6573396 -1.3653449 -0.33178079 2
6.6925073 -1.8874825 -0.38085261 24
6.7117624 -2.4322748 -0.43288133 0
6.6662002 -1.367162 -0.45281935 64
6.6926861 -1.8875328 -0.50394183 41
6.7110443 -2.4320145 -0.55927551 72
6.6846972 -1.3709556 -0.57481235 1
6.6869626 -1.8859187 -0.62643248 65
6.7082648 -2.4310074 -0.68527895 39
6.6815767 -1.3703157 -0.69534194 51
6.6868544 -1.8858882 -0.74936426 22
8.54111 -2.4088423 -1.1144755 35
8.7231522 -2.4601836 -1.2986343 1
9.2016878 -2.5951447 -1.5407809 2
8.405529 -2.3706045 -1.561951 4
7.7362208 -2.1818402 -1.5809278 4
7.1521249 -2.017108 -1.5932308 3
6.6414347 -1.8730786 -1.6018646 6
6.2300763 -1.7570635 -1.6169274 5
4.677949 -1.3193182 -1.672063 7
1.6888453 -0.47630367 -0.81794399 5
6.2633219 -1.8137375 1.7212467 18
5.2662144 -1.5249944 1.0594497 7
8.8163948 -2.5530584 1.2840896 20
13.722476 -3.9737651 1.2403387 39
13.709861 -3.9701121 0.73428458 30
6.6815319 -1.9348431 0.23476645 24
6.7043233 -2.4826651 0.19882211 0
6.6735229 -1.4172834 0.14957921 40
6.676795 -1.9334713 0.11138102 27
6.7140737 -2.4862757 0.072478786 4
6.6750669 -1.4176114 0.028822422 3
6.7404833 -2.4960556 -0.054195732 39
6.6940856 -1.4216504 -0.09197399 38
6.6687202 -1.9311332 -0.13427643 34
6.7235289 -2.4897771 -0.18098387 20
6.6758056 -1.4177682 -0.21244775 31
6.6538706 -1.9268329 -0.25679496 0
6.7194724 -2.4882751 -0.30783594 47
6.6515541 -1.4126178 -0.33197585 4
6.6906767 -1.9374912 -0.38150889 23
6.7095957 -2.4846175 -0.43384975 10
6.6682057 -1.4161541 -0.45361608 56
6.7100024 -1.9430876 -0.50625485 49
6.7126012 -2.4857304 -0.56083775 17
6.6866603 -1.4200734 -0.57581961 6
6.7042465 -1.9414209 -0.62930602 1
12.150077 -4.4992719 -1.2443626 1
6.6796327 -1.418581 -0.69615334 17
6.7040854 -1.9413742 -0.75279582 54
8.5278978 -2.4695151 -1.1149739 21
8.739994 -2.5309341 -1.3037404 5
9.2098989 -2.6670096 -1.5452359 2
8.3812103 -2.4270372 -1.5605427 4
7.7208004 -2.2357953 -1.5809278 4
7.1265979 -2.0637257 -1.5907152 4
6.6169686 -1.9161469 -1.599151 8
6.2102032 -1.7983553 -1.6149886 7
4.6722574 -1.3529959 -1.6733643 7
1.7028909 -0.49312443 -0.82639384 5
6.2616291 -1.8607246 1.7243093 17
5.2780271 -1.5684345 1.0640032 4
8.8097486 -2.6179316 1.2857522 20
13.724959 -4.0785503 1.2431065 45
13.708615 -4.0736938 0.73572314 33
6.6908536 -1.9882743 0.23557599 19
6.690567 -2.5308244 0.19893332 0
6.6869011 -1.4689871 0.15010528 38
6.6938043 -1.989151 0.11189371 26
13.800882 -5.2204256 0.14937109 1
6.6650076 -1.4641775 0.028822422 38
6.6869855 -1.9871248 -0.011566641 1
6.6644654 -1.4640584 -0.091705218 1
6.6742439 -1.9833385 -0.13466316 48
6.6852698 -1.4686288 -0.21307003 15
6.6785731 -1.984625 -0.25827676 0
6.6610408 -1.4633061 -0.3329511 42
6.6923013 -1.9887044 -0.38238391 34
11.961356 -4.5245929 -0.77545798 2
6.6503596 -1.4609597 -0.45308492 3
6.7115707 -1.9944305 -0.50741136 50
12.021311 -4.5472717 -1.0070083 1
6.668797 -1.46501 -0.57514811 49
6.6752543 -1.9836388 -0.62786925 0
12.043886 -4.5558109 -1.2367144 2
6.6734529 -1.4660329 -0.69655901 1
6.7018056 -1.9915287 -0.75408262 72
6.8935781 -2.0485165 -0.90314382 24
6.8850784 -2.0459907 -1.0291493 25
9.1910553 -2.7312417 -1.5452359 2
6.9184685 -2.055913 -1.290828 24
6.8998904 -2.0503922 -1.4157332 35
6.9133153 -2.0543816 -1.5462724 18
6.6183705 -1.966735 -1.602769 7
6.2160969 -1.8471941 -1.6198355 6
4.6518207 -1.382349 -1.6694607 6
1.7098325 -0.50809902 -0.83146369 5
6.2410874 -1.9021376 1.7222676 20
8.7306633 -2.6609023 1.7637256 19
8.8102045 -2.6851447 1.2885232 20
13.719023 -4.1812377 1.2451824 12
13.718054 -4.1809425 0.73777825 52
6.6844587 -2.037267 0.23584583 15
13.796786 -5.3292704 0.41132161 38
6.6608839 -1.5120935 0.14975457 1
6.7103605 -2.0451612 0.1124064 21
12.346276 -4.7689834 0.13398454 0
6.6780276 -1.5159854 0.028923791 47
6.6920815 -2.0395901 -0.011599801 30
12.077911 -4.6653223 -0.097624704 0
6.673584 -1.5149766 -0.09197399 1
6.6755371 -2.0345478 -0.13497256 48
11.753617 -4.5400577 -0.31805921 0
6.6787529 -1.51615 -0.21319449 14
6.6760263 -2.0346968 -0.25872129 0
11.798717 -4.5574784 -0.54339135 0
6.6623511 -1.5124267 -0.33353624 45
6.6973577 -2.0411983 -0.38347769 27
11.739531 -4.5346165 -0.7631107 0
6.6516752 -1.5100031 -0.45388168 0
6.7509108 -2.0575199 -0.51145905 0
11.732598 -4.531939 -0.98544967 0
6.6778421 -1.5159433 -0.57682687 45
6.6841083 -2.0371602 -0.63002443 1
11.67008 -4.5077901 -1.2015326 1
6.6669364 -1.5134676 -0.69696468 0
6.6953473 -2.0405855 -0.75494051 19
6.8221626 -2.0792358 -0.89566749 32
6.8403268 -2.0847719 -1.0246106 33
6.8599358 -2.0907483 -1.1557448 33
6.8775821 -2.0961263 -1.2858984 35
6.8929167 -2.1008 -1.4172771 32
6.861393 -2.0911922 -1.537887 17
6.6156607 -2.0162988 -1.6054826 6
6.1919131 -1.8871505 -1.6169274 7
4.6456752 -1.4158933 -1.6707618 6
1.6958398 -0.51685238 -0.82639384 6
6.2394104 -1.9469447 1.7253302 19
8.7240705 -2.7222576 1.7660024 28
8.7884197 -2.7423372 1.287969 21
13.786093 -4.3018103 1.2538319 34
13.716717 -4.2801623 0.7392168 46
6.693697 -2.0887003 0.23665538 11
13.78718 -5.4309139 0.41209999 42
6.6779656 -1.5626142 0.15036832 2
12.083644 -4.7598734 0.13147409 0
6.6950898 -1.5666212 0.029042054 62
6.7204094 -2.0970356 -0.011672757 34
9.4267235 -3.7132845 -0.076392762 8
6.6867561 -1.5646712 -0.092296518 1
6.6924381 -2.0883074 -0.13559134 0
9.3905048 -3.6990175 -0.25477037 14
6.6802297 -1.563144 -0.21356785 10
6.7081738 -2.0932176 -0.26049945 40
9.4443312 -3.7202203 -0.4360866 0
6.6677341 -1.5602202 -0.33431643 51
6.6951103 -2.0891414 -0.38413393 30
9.4468565 -3.721215 -0.61566961 17
6.6609449 -1.5586315 -0.45520958 2
6.6990314 -2.0903647 -0.50856781 0
9.4018984 -3.7035058 -0.79173416 20
6.6676412 -1.5601983 -0.57682687 61
6.6780562 -2.0838196 -0.63074279 40
9.3504696 -3.6832476 -0.96520317 18
6.6954989 -1.566717 -0.70102155 36
6.7286601 -2.0996101 -0.88520056 18
6.8074503 -2.1241958 -1.0217739 31
6.81953 -2.1279652 -1.1512898 34
6.8259406 -2.1299655 -1.2788563 30
6.8600984 -2.140624 -1.4134175 28
6.8809748 -2.1471384 -1.5454339 14
6.6133008 -2.0636134 -1.608196 7
6.1903744 -1.9316436 -1.6198355 7
4.6397929 -1.4478003 -1.672063 7
1.6923746 -0.52808833 -0.82639384 7
6.2367182 -1.9939892 1.728393 20
8.7235575 -2.7890756 1.769797 31
8.7917013 -2.8108625 1.2912942 21
13.797478 -4.4112978 1.2576377 32
13.777822 -4.4050136 0.74414903 34
6.6865683 -2.1378143 0.23692523 11
9.3378448 -3.7537897 0.2798855 36
6.666894 -1.6091964 0.15036832 2
6.6895165 -2.138757 0.11253457 0
9.2927313 -3.7356541 0.10138933 14
6.6801014 -1.6123844 0.029025158 12
6.7017961 -2.1426828 -0.011666124 48
9.2558317 -3.7208204 -0.075216562 22
6.6795578 -1.6122532 -0.092350274 41
6.6738873 -2.13376 -0.13551399 0
9.2160444 -3.7048264 -0.25073281 20
6.6691542 -1.6097419 -0.21356785 36
6.6933975 -2.1399977 -0.26049945 68
9.3105993 -3.742837 -0.43110764 15
6.6489124 -1.6048563 -0.33392635 17
6.6993842 -2.1419117 -0.38522771 28
9.2576475 -3.7215502 -0.60501701 26
6.665421 -1.6088409 -0.45627192 43
6.6994758 -2.1419411 -0.50972432 0
9.2204142 -3.7065828 -0.77861148 19
6.6604609 -1.6076437 -0.57716262 0
6.6937032 -2.1400955 -0.63361633 49
9.1619768 -3.6830909 -0.94837713 23
6.6998715 -1.6171563 -0.70264429 48
6.6972523 -2.1412301 -0.75837207 0
6.7932258 -2.1719146 -0.89566749 56
6.8527994 -2.1909611 -1.0308512 20
6.8120313 -2.177927 -1.1525627 16
7.0321841 -2.2483137 -1.320405 23
7.0319071 -2.2482252 -1.4520143 20
7.0371838 -2.2499123 -1.5840068 23
6.5764656 -2.1026125 -1.602769 6
6.1767387 -1.9748127 -1.6198355 6
4.6403809 -1.4836119 -1.6759666 7
1.6851935 -0.53878623 -0.82470387 7
6.2263207 -2.0386846 1.7294139 20
5.2962246 -1.7341433 1.0769048 6
8.801981 -2.8820333 1.2957278 22
13.796642 -4.5174356 1.2604055 36
13.788493 -4.5147676 0.74640965 28
6.7018743 -2.1943953 0.23800461 7
9.1671343 -3.7597163 0.27554879 23
6.6477356 -1.6537701 0.15019296 41
6.697228 -2.192874 0.11291908 26
9.1146984 -3.7382109 0.099729195 21
6.6958537 -1.6657404 0.029143421 0
9.0890017 -3.7276721 -0.074070521 21
6.6875463 -1.6636738 -0.092619047 35
6.666429 -2.1827893 -0.13566869 0
9.0530682 -3.7129345 -0.24699806 20
6.6849122 -1.6630185 -0.21443905 33
6.7086849 -2.1966252 -0.26168489 44
9.1400433 -3.7486055 -0.42441183 24
6.6336694 -1.6502707 -0.33373129 0
6.7032461 -2.1948442 -0.38632149 23
9.0836782 -3.7254884 -0.59533286 21
6.6656461 -1.6582255 -0.45706865 52
6.7071075 -2.1961086 -0.51145905 32
9.0430422 -3.7088225 -0.76580125 22
6.6761513 -1.6608391 -0.57951289 1
6.6899576 -2.1904933 -0.63469392 46
8.9960527 -3.6895506 -0.93384558 22
6.6691103 -1.6590874 -0.70061582 79
6.7010379 -2.1941214 -0.76051682 36
6.8608761 -2.2464571 -0.90663278 32
6.9276476 -2.2683201 -1.0444673 33
6.9655447 -2.2807288 -1.1812017 31
6.960186 -2.2789743 -1.3098418 31
6.9526305 -2.2765002 -1.4388914 30
6.991569 -2.2892499 -1.5772985 20
6.5542197 -2.1460488 -1.60096 7
6.1628013 -2.0178864 -1.6198355 7
4.62991 -1.5159719 -1.6759666 6
1.6882819 -0.55279428 -0.82808381 7
6.2119365 -2.0821021 1.7294139 21
5.2951608 -1.7748193 1.0791816 2
8.7891588 -2.9459293 1.2968363 21
13.798775 -4.6250401 1.2635194 34
13.790727 -4.6223426 0.74825925 28
6.7015529 -2.2462106 0.2385443 4
8.9894257 -3.7603581 0.27098966 20
6.6825151 -1.7120496 0.1512451 45
6.719677 -2.2522852 0.11355994 26
8.9592304 -3.7477274 0.098312013 23
6.6608124 -1.7064893 0.029042054 0
6.712945 -2.2500288 -0.011739079 0
8.9262247 -3.7339208 -0.072954632 22
6.6873922 -1.713299 -0.092780307 60
6.6813636 -2.2394435 -0.13628748 29
8.8830576 -3.7158635 -0.24306142 22
6.6847577 -1.7126242 -0.21481243 40
6.7045565 -2.2472172 -0.26212943 0
8.9735537 -3.7537189 -0.41788769 24
6.6761699 -1.7104239 -0.33646199 0
6.7142687 -2.2504725 -0.38785279 24
8.9211636 -3.7318034 -0.58637506 24
6.6616392 -1.7067012 -0.45759982 77
6.7180915 -2.2517538 -0.51348293 49
8.8660946 -3.7087679 -0.75299102 6
6.691422 -1.7143315 -0.58186316 1
6.6858339 -2.2409418 -0.63577151 0
8.8157997 -3.6877286 -0.91778433 19
6.6882038 -1.7135069 -0.7038613 21
6.7194939 -2.252224 -0.7643773 54
6.8751307 -2.3043897 -0.91062021 28
6.9229064 -2.3204031 -1.0461694 35
6.9457083 -2.3280458 -1.1805654 35
6.9291725 -2.3225036 -1.307025 33
6.9254041 -2.3212404 -1.4365755 29
6.9346251 -2.324331 -1.5680745 20
6.5501614 -2.1954675 -1.6036736 7
6.1559229 -2.0633276 -1.6217743 7
4.6156278 -1.5470551 -1.6746655 6
1.687819 -0.56571913 -0.82977378 7
6.1928492 -2.1263258 1.728393 22
8.7179136 -2.9933112 1.7811807 26
8.8047953 -3.0231421 1.3023783 23
13.805961 -4.7403011 1.2673252 33
13.782921 -4.7323904 0.7496978 47
6.7113752 -2.3043625 0.23948877 2
8.8182039 -3.7649219 0.26665294 23
6.6775193 -1.7630297 0.15142046 46
6.7143345 -2.3053787 0.11375219 28
8.8027687 -3.7583318 0.09689483 39
6.6906667 -1.7665008 0.029227896 32
6.7189703 -2.3069704 -0.011778872 0
8.791934 -3.753706 -0.072080024 48
6.6669192 -1.760231 -0.092672795 1
6.6950283 -2.2987499 -0.13690627 52
8.8040934 -3.7588975 -0.24164829 44
6.668159 -1.7605584 -0.21468797 5
6.6954646 -2.2988997 -0.26242578 0
8.8061333 -3.7597682 -0.41136357 50
6.6827669 -1.7644153 -0.33743724 38
6.7089243 -2.3035212 -0.38850906 33
8.7944241 -3.7547691 -0.57983822 16
6.6643853 -1.759562 -0.45866215 2
6.7240448 -2.3087127 -0.51521766 51
8.8019962 -3.7580018 -0.7498666 2
6.6748219 -1.7623175 -0.58152741 44
6.6956029 -2.2989473 -0.63828588 0
8.7921915 -3.7538159 -0.91816676 10
6.687007 -1.7655346 -0.70507836 0
6.6915197 -2.2975452 -0.76309043 92
6.8880839 -2.365036 -0.91460758 32
6.898221 -2.3685164 -1.0450348 11
6.9135165 -2.3737681 -1.1780196 34
8.2638168 -2.8373961 -1.5626553 3
7.6060762 -2.6115599 -1.5816998 4
6.9100022 -2.3725617 -1.5663974 22
6.5302072 -2.2421582 -1.602769 7
6.1259513 -2.1033561 -1.6178968 6
4.6113181 -1.5833043 -1.6772679 6
1.6801978 -0.57689893 -0.82808381 8
6.1742048 -2.168226 1.7273721 19
8.722743 -3.0632088 1.7864932 32
8.7946892 -3.0884743 1.3040409 22
13.81013 -4.849772 1.270785 35
13.787238 -4.8417325 0.75175285 46
6.6875811 -2.3485107 0.23921892 0
8.7660418 -3.815222 0.26587453 46
6.6611891 -1.8085568 0.15133278 1
8.7836514 -3.8228862 0.096975811 46
6.6858916 -1.8152636 0.029261684 49
6.7140236 -2.3577969 -0.011798769 33
8.7948542 -3.8277624 -0.072321296 45
6.6621881 -1.808828 -0.092780307 0
6.6939106 -2.3507338 -0.13721566 49
8.792304 -3.8266521 -0.24205203 44
6.6942892 -1.8175436 -0.21593253 4
6.7056527 -2.3548572 -0.26346305 32
8.7833357 -3.8227489 -0.41153526 50
6.6702862 -1.8110267 -0.33743724 48
6.7077532 -2.3555949 -0.38938406 31
8.7863016 -3.8240397 -0.58104879 46
6.6596432 -1.8081369 -0.45919332 0
8.8011408 -3.8304982 -0.75205374 41
6.6854358 -1.8151399 -0.58354199 44
6.7207375 -2.3601546 -0.64223695 32
8.805932 -3.8325834 -0.92237324 51
6.6745181 -1.8121758 -0.70507836 0
6.6828213 -2.3468394 -0.76394832 1
8.7250004 -3.0640013 -1.1613274 17
8.7008991 -3.0555375 -1.3213278 6
9.1137304 -3.2005136 -1.5566915 3
8.2549524 -2.8989325 -1.564768 3
7.6061745 -2.6710978 -1.5855595 4
7.0039768 -2.459621 -1.5915537 5
6.503366 -2.2838192 -1.6000556 9
6.1257639 -2.1512148 -1.6217743 6
4.5965838 -1.614205 -1.6759666 7
1.6795501 -0.58981591 -0.82977378 8
6.1370769 -2.2034359 1.7212467 19
8.7233229 -3.1319933 1.7910467 31
8.7952824 -3.1578293 1.3073661 22
13.790937 -4.9514527 1.2721689 31
13.783178 -4.948667 0.75339693 38
6.7274604 -2.4154053 0.24124277 16
8.7611227 -3.8860548 0.26654172 40
6.6792159 -1.8636137 0.15203421 0
6.7078414 -2.4083614 0.11420079 0
8.7859983 -3.8970888 0.09729974 44
6.688467 -1.866195 0.029329265 55
6.7049284 -2.4073155 -0.011812033 69
8.7935114 -3.9004211 -0.072532408 43
6.6802182 -1.8638934 -0.093210347 0
8.7909613 -3.8992901 -0.24275862 41
6.6737356 -1.8620846 -0.21568362 4
6.7003355 -2.4056664 -0.26390758 47
8.7746992 -3.8920765 -0.41239369 51
6.6651769 -1.8596966 -0.33782735 64
6.7174578 -2.411814 -0.39091536 27
8.7922382 -3.8998566 -0.58322769 47
6.6699233 -1.861021 -0.46078682 0
6.7211933 -2.4131551 -0.51753062 0
8.8106375 -3.9080174 -0.75517815 44
6.6841187 -1.8649818 -0.58454925 56
6.7115951 -2.409709 -0.64295536 50
8.8044386 -3.9052677 -0.92505014 44
6.6923676 -1.8672833 -0.70832384 32
6.6924753 -2.4028444 -0.76695096 0
8.893899 -3.1932364 -1.186747 5
8.8992262 -3.1951489 -1.3548007 0
9.0688639 -3.2560549 -1.552873 3
8.2419243 -2.9591532 -1.5661764 4
7.6058116 -2.7307656 -1.5894191 4
7.0124016 -2.5177095 -1.5974236 4
6.4982648 -2.3331156 -1.602769 7
6.1069441 -2.1926172 -1.6208049 6
4.5887623 -1.647534 -1.6772679 7
1.6890403 -0.60642749 -0.83653361 8
6.1150661 -2.2414274 1.7192049 18
8.7244844 -3.1978884 1.7956003 29
8.785305 -3.2201817 1.3090287 22
13.783987 -5.0524077 1.2745907 28
13.787561 -5.0537176 0.75545204 34
6.7112927 -2.4599695 0.24124277 3
8.7606668 -3.9555926 0.26732013 41
6.6705537 -1.9089715 0.15212189 3
6.7142525 -2.4610543 0.11458531 0
8.7745409 -3.9618568 0.0974617 41
6.6836338 -1.9127148 0.029363053 7
6.7113495 -2.4599903 -0.011851827 62
8.7893229 -3.9685314 -0.07271336 41
6.6907806 -1.9147601 -0.093532868 36
6.6950836 -2.4540281 -0.1379118 0
8.8049965 -3.9756079 -0.24386895 44
6.6804576 -1.9118059 -0.21630591 45
6.7029986 -2.4569294 -0.2646485 76
8.7851152 -3.9666314 -0.41411057 49
6.6642194 -1.9071589 -0.33841249 8
6.7200651 -2.4631848 -0.39200914 26
8.8025703 -3.9745126 -0.58564872 46
6.6727824 -1.9096094 -0.46184915 41
6.7200246 -2.4631701 -0.51868713 10
8.8063326 -3.9762111 -0.75705284 42
6.6792665 -1.911465 -0.58522075 1
6.7141685 -2.4610236 -0.64475131 49
8.8073759 -3.9766824 -0.92810941 44
6.6836619 -1.9127229 -0.70872951 48
6.7025304 -2.4567578 -0.76995355 0
8.9656858 -3.286299 -1.1992075 0
10.060065 -3.6874347 -1.5352138 3
9.0693159 -3.3242838 -1.5566915 1
8.2369051 -3.0191703 -1.5689932 4
7.5433121 -2.7649393 -1.580156 4
7.006566 -2.5681996 -1.5999391 5
6.5082569 -2.3855484 -1.6091006 6
6.099555 -2.2357421 -1.6227436 6
4.570632 -1.6753278 -1.6746655 6
1.6679612 -0.61137754 -0.82808381 8
6.0702939 -2.2732134 1.7110376 18
5.7118011 -2.1389644 1.1785998 11
8.7848682 -3.2897718 1.312354 23
13.774502 -5.1582975 1.2770126 24
13.785613 -5.1624584 0.75730163 33
13.799732 -5.1677456 0.49732709 32
8.7582674 -4.0283523 0.2680985 44
6.6685753 -1.9588747 0.15238492 42
12.749594 -4.7744884 0.21814787 0
8.7757397 -4.0363884 0.097785629 45
6.8138824 -2.5516737 -0.012064059 6
8.7904758 -4.0431662 -0.072954632 43
6.7117882 -1.9715683 -0.094016664 34
6.6965151 -2.5077217 -0.13829853 22
8.7988243 -4.0470061 -0.24447457 39
6.6938004 -1.9662845 -0.21717711 38
6.7006569 -2.5092726 -0.26524121 5
8.7862558 -4.041225 -0.41548407 49
12.043923 -4.5102277 -0.70439142 1
8.7927456 -4.0442104 -0.58685923 44
6.6669474 -1.9583966 -0.46238032 49
12.049105 -4.5121679 -0.93242252 1
8.7964735 -4.0459247 -0.75861508 43
6.6695838 -1.9591711 -0.58555651 0
6.7117472 -2.5134258 -0.64618808 9
8.8228083 -4.0580373 -0.93269831 41
6.6892362 -1.9649438 -0.71075791 56
12.182363 -4.5620704 -1.4030741 2
11.2655 -4.2187223 -1.5107224 4
10.06745 -3.7700748 -1.5403199 4
9.0421896 -3.3861334 -1.5560551 1
8.2193146 -3.0779819 -1.5696975 4
7.5348516 -2.8216634 -1.5824717 4
6.9957914 -2.6197951 -1.6016163 5
6.4877954 -2.4295599 -1.608196 7
6.0874324 -2.2796314 -1.623713 7
4.562367 -1.7085224 -1.6759666 6
1.6704428 -0.62555009 -0.83146369 8
6.0578885 -2.3169174 1.7120585 18
8.6936569 -3.3250012 1.798636 24
8.772788 -3.3552656 1.3140166 20
13.753044 -5.2600288 1.2783965 22
13.794011 -5.2756972 0.75976771 31
13.804393 -5.2796674 0.49881124 34
8.7516565 -4.099575 0.26876569 43
6.670053 -2.0099976 0.15273564 44
12.503023 -4.7819419 0.21449499 0
8.7727013 -4.1094332 0.098069064 47
6.6830859 -2.0139251 0.029481316 0
8.7946348 -4.1197076 -0.073226064 41
6.7055192 -2.0206852 -0.094124168 53
8.7993259 -4.1219053 -0.2452821 44
6.6837378 -2.0141215 -0.21730156 37
8.7867794 -4.1160278 -0.41685757 50
6.6751957 -2.0115473 -0.340363 1
11.82562 -4.5228605 -0.69345367 0
8.77876 -4.1122713 -0.58782768 42
6.6683984 -2.0094991 -0.46344265 85
11.752744 -4.494988 -0.9118948 0
8.8041248 -4.1241531 -0.76173949 44
6.7053566 -2.0206363 -0.5899213 7
12.018755 -4.5967274 -1.1601932 2
8.8122911 -4.1279783 -0.93461037 42
6.6905961 -2.0161884 -0.71238065 5
12.176219 -4.6569519 -1.4060768 2
11.261722 -4.3071904 -1.5142114 4
10.040885 -3.8402658 -1.5403199 3
9.0330839 -3.4548194 -1.5586008 2
8.1865931 -3.131068 -1.5675849 3
7.529633 -2.8798051 -1.5855595 4
6.9736786 -2.6671731 -1.6007776 4
6.4743152 -2.4761853 -1.6091006 8
6.0894933 -2.329005 -1.6285599 6
4.5538607 -1.7416828 -1.6772679 6
1.6626487 -0.63590139 -0.82977378 7
6.0271554 -2.3535259 1.7079749 20
5.421639 -2.1170795 1.1247166 1
8.7786703 -3.4279568 1.3184501 20
13.701138 -5.3501167 1.2770126 19
13.794054 -5.3863993 0.76182282 29
13.815607 -5.3948154 0.50056523 29
8.7625198 -4.1795077 0.26998886 43
6.6864247 -2.065958 0.15343706 27
12.249528 -4.7832818 0.21071392 0
8.7798986 -4.1877971 0.098473974 44
6.7070799 -2.0723403 0.029650263 41
9.4416809 -3.6868536 -0.016806116 1
8.8017607 -4.198225 -0.073527656 41
11.920982 -4.6549888 -0.24751416 0
8.7955999 -4.1952858 -0.24598867 44
6.6962528 -2.0689948 -0.21817276 2
11.65811 -4.5523405 -0.46394983 0
8.7830791 -4.1893139 -0.41805938 51
6.6991615 -2.0698936 -0.3423135 49
9.4610472 -3.6944163 -0.5562942 0
8.7930813 -4.1940851 -0.59073293 48
6.6694603 -2.0607166 -0.46450499 0
9.4615917 -3.6946287 -0.73610783 15
8.8111115 -4.2026849 -0.76486391 46
6.6872783 -2.066222 -0.58958554 41
11.826799 -4.6182117 -1.1447479 2
8.8120079 -4.2031121 -0.93766963 42
6.43683 -1.9888389 -0.68682259 0
9.4724531 -3.6988699 -1.0968084 1
9.4642286 -3.6956584 -1.2759649 17
9.4236965 -3.6798313 -1.449546 16
9.0087452 -3.5177979 -1.5586008 2
8.1865416 -3.1967382 -1.5718101 3
7.5385928 -2.9437227 -1.591735 4
6.9548883 -2.7157936 -1.6007776 4
6.4604998 -2.5227413 -1.610005 11
6.0658555 -2.3686378 -1.6266211 6
4.5415907 -1.7734321 -1.6772679 7
1.6581688 -0.64749336 -0.82977378 7
6.0177636 -2.3984091 1.7100167 17
5.279038 -2.1039865 1.0981545 5
8.7471647 -3.4862256 1.3173417 34
9.3249102 -3.7164886 0.87152392 18
9.4107103 -3.750685 0.52117151 11
9.4103661 -3.7505476 0.34189552 16
8.7655001 -4.2562985 0.27098966 42
9.347641 -3.7255483 0.16123973 13
8.7792339 -4.2629676 0.098797902 42
6.7153296 -2.126359 0.029751632 45
9.3228178 -3.7156546 -0.016640309 15
8.7974253 -4.271801 -0.073738769 41
6.6880918 -2.1177342 -0.094285436 0
9.3991032 -3.7460589 -0.19569087 14
8.8128586 -4.279295 -0.24730088 41
6.6968918 -2.1205208 -0.21867059 2
9.3647032 -3.7323484 -0.37370855 12
8.7895679 -4.2679853 -0.41977626 49
6.6921654 -2.119024 -0.34270361 41
9.3200092 -3.7145355 -0.5495128 17
8.7923203 -4.2693224 -0.59266973 19
6.6815462 -2.1156616 -0.46636409 1
9.261384 -3.6911702 -0.72251904 34
8.7959061 -4.2710629 -0.7661137 9
6.6764908 -2.1140609 -0.5899213 63
9.3591814 -3.7301476 -0.90839893 22
8.8290129 -4.2871389 -0.94264102 4
6.6959372 -2.1202185 -0.71603185 0
9.3207922 -3.7148476 -1.0822244 23
9.2833529 -3.6999259 -1.255031 22
9.2469711 -3.685426 -1.4262851 22
8.9949722 -3.5849903 -1.56051 6
8.1786556 -3.2596436 -1.574627 4
7.5215039 -2.9977324 -1.5925069 4
6.9430256 -2.7671769 -1.6024548 5
6.4427304 -2.5677819 -1.610005 10
6.0563817 -2.4138007 -1.6285599 6
4.5431542 -1.8106964 -1.6824727 7
1.6670794 -0.66442269 -0.83653361 6
6.014349 -2.4482896 1.7141004 20
5.1725354 -2.1056087 1.0791816 5
8.7764111 -3.5726554 1.3256547 21
9.15347 -3.7261469 0.85803068 18
9.246068 -3.7638409 0.51356763 20
9.2159996 -3.751601 0.33582395 18
8.7591515 -4.3328485 0.27176803 33
6.6789947 -2.1688478 0.15396313 0
9.1756115 -3.7351601 0.15874039 16
8.7943554 -4.3502626 0.099324286 7
6.7071714 -2.1779974 0.029785423 57
9.1434336 -3.7220612 -0.016368387 17
6.6990175 -2.1753497 -0.094661713 0
9.2306347 -3.7575586 -0.19275165 21
6.6963782 -2.1744926 -0.21916841 22
9.189002 -3.7406108 -0.36778137 23
8.7759552 -4.3411608 -0.42063469 6
6.6650529 -2.1643205 -0.34211847 78
9.1593571 -3.728543 -0.5416376 25
8.7822609 -4.3442798 -0.59412235 14
6.6810427 -2.1695127 -0.46742642 0
9.1047497 -3.7063138 -0.71239972 23
9.1861372 -4.5440636 -0.80298215 0
6.6987247 -2.1752546 -0.59327888 26
9.1913729 -3.7415757 -0.89474958 24
9.2113419 -4.5565314 -0.98700058 1
6.6953549 -2.1741602 -0.71765459 34
9.1459732 -3.7230947 -1.0650667 26
9.1052685 -3.7065248 -1.2345957 20
9.0730143 -3.6933949 -1.4035916 20
8.9757662 -3.6538079 -1.561783 7
8.154542 -3.3195083 -1.574627 5
7.4956927 -3.0513072 -1.591735 4
6.9298 -2.8209467 -1.6041318 5
6.4345613 -2.6193476 -1.6127185 11
6.042119 -2.4595942 -1.6295294 7
4.5332623 -1.8453766 -1.683774 7
1.7024591 -0.69302815 -0.85681325 4
5.9971104 -2.4902182 1.7141004 19
5.1105576 -2.1220891 1.0693156 5
8.776866 -3.6444736 1.3295342 21
8.9726601 -3.7257743 0.84349948 19
9.0646152 -3.7639577 0.50493628 15
9.0419006 -3.7545259 0.33042705 18
13.814474 -6.9539986 0.43011406 37
6.7016387 -2.2280393 0.15483992 28
8.9904823 -3.7331753 0.1559847 15
10.482228 -5.2765961 0.11880043 1
6.7601247 -2.2474837 0.030089527 0
8.9620714 -3.7213776 -0.016089834 17
10.246666 -5.1580176 -0.086496025 0
6.7064395 -2.2296355 -0.094984241 27
9.0527449 -3.7590287 -0.18958037 24
9.9686708 -5.0180793 -0.28172112 0
6.7113857 -2.2312799 -0.22016406 41
9.0186892 -3.7448876 -0.36200237 25
9.4165134 -4.7401314 -0.45291197 0
8.9744921 -3.7265351 -0.53223115 24
6.696032 -2.2261755 -0.46955109 33
8.9312716 -3.7085886 -0.70083481 24
9.1292562 -4.5955305 -0.80079502 0
6.6871576 -2.2232251 -0.59361464 0
9.0178576 -3.7445424 -0.88038188 24
9.0797262 -4.5705981 -0.97629309 1
6.7102222 -2.2308931 -0.72090006 47
8.9728432 -3.7258503 -1.0479089 26
8.9142284 -3.7015116 -1.2121665 16
8.8458824 -3.6731317 -1.3723881 1
8.9427452 -3.7133529 -1.56051 10
8.1166229 -3.3703167 -1.5718101 4
7.4633341 -3.0990477 -1.5894191 4
6.9135494 -2.8707569 -1.6049703 5
6.423315 -2.6671939 -1.6145275 8
6.0248008 -2.5017161 -1.6295294 6
4.5132818 -1.8740788 -1.6811715 6
1.7310623 -0.71879995 -0.8737129 1
5.9582109 -2.5229762 1.7079749 15
5.0449872 -2.1362758 1.0586908 1
8.7475605 -3.704113 1.32898 23
8.8069868 -3.7292767 0.83035225 25
8.8983335 -3.7679572 0.49712691 16
8.8645372 -3.7536461 0.32489517 18
13.804736 -7.070322 0.43133724 52
6.7010646 -2.2799239 0.15519063 42
8.816885 -3.7334681 0.15342127 15
10.484296 -5.3697038 0.11924583 0
6.6988282 -2.2791629 0.02988679 0
8.8253717 -3.7370617 -0.015890867 30
12.079466 -6.1866965 -0.10232951 0
6.713429 -2.2841306 -0.095306769 42
8.878973 -3.7597592 -0.18648644 25
10.086436 -5.1659336 -0.2860615 0
6.7145691 -2.2845185 -0.22078635 39
8.8524532 -3.7485292 -0.35637155 26
9.3582935 -4.7930031 -0.45171016 0
6.6757894 -2.2713244 -0.344264 0
8.8011427 -3.7268019 -0.52348095 36
9.1152096 -4.6685038 -0.62099588 1
6.6916628 -2.2767251 -0.47034782 75
8.8059721 -3.7288473 -0.69302845 20
9.0188665 -4.6191602 -0.79392129 1
6.6827941 -2.2737076 -0.5946219 0
8.8190765 -3.7343962 -0.86349982 4
8.9838057 -4.6012034 -0.9694097 0
6.7057858 -2.2815301 -0.72211707 65
8.8037901 -3.7279232 -1.0311801 32
8.8041124 -3.7280595 -1.2007028 21
8.805439 -3.7286215 -1.3701189 2
8.843874 -3.7448964 -1.5477816 21
8.1364059 -3.4453225 -1.5802608 4
7.4595876 -3.1587269 -1.5932789 4
6.8969407 -2.9204769 -1.605809 4
6.4045386 -2.7119713 -1.6145275 7
6.0071888 -2.5437155 -1.6295294 7
4.5000887 -1.9055412 -1.6811715 6
3.3885725 -1.4348749 -1.7153164 9
5.9484496 -2.5655005 1.7100167 17
8.4999123 -3.6659184 1.78877 21
8.6973391 -3.751066 1.3251005 23
8.7601032 -3.7781358 0.8282764 31
8.7777767 -3.785758 0.49178365 31
8.7623577 -3.7791078 0.32206181 37
13.800101 -7.1838789 0.43267164 59
6.7046828 -2.3308821 0.15562902 39
8.7919292 -3.7918618 0.15342127 26
10.494574 -5.46313 0.11977221 0
6.6948991 -2.327481 0.029937474 0
8.8077374 -3.7986796 -0.01590413 31
6.7245774 -2.3377986 -0.095683053 29
8.7730522 -3.7837205 -0.18478478 49
10.009389 -5.2105589 -0.28485024 0
6.6992702 -2.3290005 -0.22078635 2
8.8017035 -3.7960775 -0.35533431 51
9.3192091 -4.851274 -0.45136678 0
6.6719003 -2.3194854 -0.34484917 0
8.7835665 -3.788255 -0.52391845 18
9.0627966 -4.7177939 -0.61954325 3
6.6877255 -2.3249872 -0.47114459 45
8.8103552 -3.7998085 -0.69534147 47
8.9668093 -4.6678262 -0.79204661 1
6.6939216 -2.327141 -0.59697217 29
8.7831411 -3.7880714 -0.86242223 2
8.8859873 -4.6257529 -0.9621439 1
6.7130589 -2.3337941 -0.7245512 0
8.8007812 -3.7956798 -1.0337538 17
8.8083467 -3.7989426 -1.2046902 25
8.8205099 -3.8041883 -1.3763595 40
8.8333473 -3.809725 -1.5503273 23
8.1097603 -3.4976501 -1.5795565 4
7.4600973 -3.2174575 -1.5979105 4
6.8810105 -2.9677038 -1.6066475 5
6.3935666 -2.7574744 -1.6163365 3
5.9937496 -2.5850379 -1.6304986 5
4.4838786 -1.9338472 -1.6798704 6
3.3789814 -1.4573174 -1.7153164 10
5.9268537 -2.6054089 1.7089958 19
8.4741135 -3.7251687 1.78877 28
8.6165428 -3.78778 1.3167875 21
8.7663479 -3.8536332 0.8313902 34
8.7547913 -3.8485529 0.49198917 30
8.7650394 -3.8530583 0.32314119 35
13.802619 -7.3081083 0.43433958 55
8.7908735 -3.8644145 0.15386987 26
10.495063 -5.5568485 0.12021761 0
6.7312522 -2.3929203 0.030174 34
8.8029747 -3.869734 -0.015943924 33
10.219576 -5.4109855 -0.087189689 0
6.7193985 -2.3887062 -0.095844314 0
8.7830353 -3.8609688 -0.18555826 50
9.9727697 -5.2803082 -0.28485024 0
6.7054505 -2.3837478 -0.22153309 0
8.8006029 -3.8686917 -0.35637155 50
9.2639246 -4.9049945 -0.45033666 0
6.6818957 -2.3753743 -0.34621453 30
8.8007812 -3.8687699 -0.5265435 50
9.022584 -4.7772107 -0.61905903 44
6.6863737 -2.3769662 -0.47220692 0
8.8237877 -3.8788834 -0.69852179 48
8.9762945 -4.7527022 -0.79579592 10
6.69629 -2.3804913 -0.59865093 41
8.7856579 -3.8621216 -0.86529577 48
8.832366 -4.6764956 -0.95984948 8
6.7003527 -2.3819356 -0.72495687 0
8.8213978 -3.8778331 -1.03933 57
8.8252106 -3.879509 -1.2106713 45
8.8299847 -3.8816075 -1.3820329 40
8.8209953 -3.8776562 -1.552873 28
8.1031685 -3.5621035 -1.5830775 4
7.4266744 -3.2647209 -1.5955946 4
6.8744469 -3.021965 -1.6100017 4
6.3955622 -2.8114502 -1.6217635 4
5.9862151 -2.6315036 -1.6334069 7
4.4633431 -1.9620585 -1.6772679 6
3.3620872 -1.4779532 -1.7119365 9
5.9155793 -2.6498849 1.7110376 18
8.4335642 -3.7778165 1.7857343 32
7.2666993 -3.2551193 1.1139491 1
8.7683249 -3.9277728 0.83415806 39
8.7459383 -3.9177449 0.49301672 29
8.7707624 -3.9288647 0.32435548 36
13.80055 -7.430829 0.43589637 52
6.6865191 -2.4297299 0.15597974 0
8.7855797 -3.9355023 0.15425439 26
10.494752 -5.6508412 0.12066301 0
6.7181416 -2.4412208 0.030190896 62
8.7976475 -3.9409077 -0.015983718 35
11.30853 -6.089015 -0.096840568 0
6.7138362 -2.4396563 -0.096005581 0
8.7777653 -3.9320016 -0.18602236 47
9.9955168 -5.3820305 -0.2865662 0
6.6999183 -2.4345989 -0.22190647 0
8.7989159 -3.9414761 -0.35740882 54
9.2188997 -4.9638653 -0.44982159 0
6.6839252 -2.4287872 -0.34718978 72
8.7954283 -3.9399135 -0.52785605 48
8.9644032 -4.8268332 -0.61736429 10
6.6883726 -2.4304035 -0.47353482 0
8.8256197 -3.9534383 -0.70083481 52
8.9464073 -4.8171434 -0.79610837 14
6.6982388 -2.4339888 -0.6003297 55
8.8057451 -3.944535 -0.86996531 49
8.8100195 -4.7437062 -0.96099669 26
6.7134809 -2.4395273 -0.72820234 0
8.8158884 -3.9490786 -1.0419037 55
8.823266 -3.9523835 -1.2141603 47
8.8279667 -3.9544892 -1.3860042 40
8.8225412 -3.9520593 -1.5579643 25
8.0781031 -3.6185877 -1.5830775 4
7.4037018 -3.3164895 -1.5955946 4
6.8496127 -3.0682852 -1.609163 4
6.3793344 -2.8576241 -1.622668 4
5.9676976 -2.6732314 -1.6334069 6
4.4667964 -2.0009024 -1.683774 7
3.3616135 -1.5058354 -1.7170064 9
5.8959961 -2.6931763 1.7110376 21
8.2806139 -3.7824235 1.7591722 31
7.123734 -3.253983 1.0956603 8
8.7429228 -3.9935968 0.83450401 56
8.7424202 -3.9933674 0.49445528 22
8.7671814 -4.0046778 0.32529995 37
13.798307 -7.5606136 0.43756434 61
6.7097621 -2.4940054 0.1569442 0
8.789237 -4.0147524 0.15483116 26
10.519695 -5.7641382 0.12143234 0
6.7300615 -2.5015507 0.030326054 62
8.8012676 -4.0202479 -0.016043408 33
11.182912 -6.1275396 -0.096146911 0
6.7332625 -2.5027404 -0.096543126 26
8.7705326 -4.0062089 -0.18648644 52
9.9557962 -5.4551568 -0.2865662 0
6.71562 -2.4961829 -0.22302657 0
8.791604 -4.0158334 -0.35829788 54
9.1927795 -5.0370708 -0.45033666 0
6.6959014 -2.4888535 -0.34875017 62
8.80264 -4.0208745 -0.5300436 52
8.9077721 -4.8809047 -0.61591166 48
6.7115297 -2.4946623 -0.47645622 23
8.821806 -4.0296292 -0.70285869 48
8.9108562 -4.8825946 -0.79610837 5
6.7736206 -2.5177417 -0.60872358 0
8.798337 -4.018909 -0.87212044 53
8.7785015 -4.8100724 -0.96137911 14
12.115163 -4.5031824 -1.3176608 1
8.8156424 -4.026814 -1.0453353 58
8.822937 -4.0301461 -1.2181476 47
8.8275547 -4.0322552 -1.390543 42
8.8256636 -4.0313911 -1.5636922 22
8.0728502 -3.687521 -1.5873029 4
7.3791919 -3.3706713 -1.5955946 4
6.8411679 -3.1249123 -1.6125172 5
6.354672 -2.9026904 -1.6217635 5
5.9514718 -2.7185163 -1.6343762 6
4.4588904 -2.0367343 -1.6863765 7
3.3274009 -1.519892 -1.7051766 9
5.8489981 -2.7212203 1.7028704 19
8.1329384 -3.7838135 1.733369 32
6.9930921 -3.253505 1.0790342 2
8.7690268 -4.0797505 0.83969373 34
8.6165371 -4.0088053 0.48890653 18
8.7680073 -4.0792766 0.32637933 38
13.797584 -7.6859469 0.43923232 80
13.761978 -5.2249365 0.32274389 19
8.7863789 -4.0878234 0.15527976 28
10.549082 -5.8763685 0.12224216 0
8.8128815 -4.1001539 -0.016116362 34
10.196397 -5.6799049 -0.088003978 0
8.7641068 -4.0774617 -0.18695053 53
9.973362 -5.5556631 -0.28818122 0
11.88975 -4.5141182 -0.39589706 0
8.7887239 -4.0889144 -0.35933515 54
9.1713543 -5.1089048 -0.4510234 0
8.8033266 -4.0957084 -0.53179365 49
8.8769674 -4.9449167 -0.61615378 2
8.8151627 -4.1012154 -0.70459342 53
8.8904867 -4.9524474 -0.79735816 23
12.028668 -4.5668602 -1.0838168 2
8.7917376 -4.0903168 -0.87427562 51
8.7551422 -4.8770537 -0.96252632 8
12.094591 -4.5918884 -1.3188779 2
8.8053446 -4.0966473 -1.04748 58
8.8341703 -4.1100583 -1.2236303 45
8.8207293 -4.1038051 -1.393947 43
8.8259487 -4.1062331 -1.5687835 20
8.0219193 -3.7321622 -1.5823734 4
7.3661571 -3.4270718 -1.5979105 4
6.8191853 -3.1725957 -1.6125172 5
6.3236547 -2.9420521 -1.61905 5
5.942904 -2.7649097 -1.6372844 6
4.4411335 -2.0662174 -1.6850752 6
3.336432 -1.5522602 -1.7153164 10
5.8228679 -2.7586758 1.7008286 19
8.0033979 -3.7917366 1.7113603 31
8.0764189 -3.8263316 1.2502831 18
8.7619381 -4.1511068 0.84176958 34
8.6136112 -4.0808349 0.49034509 16
8.7646046 -4.1523705 0.32732379 37
13.806218 -7.8175473 0.44123387 78
8.7973843 -4.1679006 0.1559847 25
10.598294 -6.0011125 0.12329493 0
12.217888 -4.7365541 0.05534716 0
8.8093462 -4.1735673 -0.016162788 31
10.250472 -5.8041639 -0.088818274 0
12.004329 -4.6537628 -0.17303582 1
8.7607269 -4.1505332 -0.18749197 52
9.9795685 -5.6507688 -0.28949344 0
11.67156 -4.5247569 -0.38967422 0
8.7996988 -4.1689968 -0.36096513 51
9.149374 -5.1806846 -0.45171016 0
11.756451 -4.5576668 -0.61557919 0
8.807003 -4.1724572 -0.53376245 51
8.8352804 -5.0028343 -0.61566961 2
11.681216 -4.5285006 -0.83366561 0
8.811553 -4.174613 -0.70661724 50
8.8452845 -5.0084991 -0.79642081 6
11.73263 -4.5484319 -1.0599781 1
8.79177 -4.1652403 -0.87714916 52
8.7347403 -4.9459047 -0.96405596 4
9.4724379 -3.6722152 -1.0357106 3
8.8196583 -4.178453 -1.0526273 54
8.8303671 -4.1835265 -1.2271193 43
8.8383827 -4.187324 -1.4013224 40
8.8113413 -4.1745129 -1.5713292 16
8.0312529 -3.8049331 -1.5894156 4
7.3562388 -3.4851346 -1.6009983 4
6.7933359 -3.2184505 -1.6116787 4
6.3029613 -2.9861279 -1.61905 4
5.9234567 -2.8063314 -1.6372844 6
4.4266 -2.097172 -1.6850752 6
3.3025792 -1.5646492 -1.7034867 9
5.7905068 -2.790518 1.6967449 20
7.8648591 -3.7901745 1.6870749 30
7.9759235 -3.8436978 1.2386448 18
8.7629328 -4.2229676 0.84453744 32
8.751894 -4.2176476 0.49979851 30
8.7764864 -4.2294993 0.32880795 34
13.799129 -7.9348502 0.44267944 66
12.376775 -4.8928165 0.29179347 0
8.7839603 -4.2331009 0.15624104 23
10.620676 -6.1071582 0.12402376 0
9.4298029 -3.7278128 0.042828158 3
8.799489 -4.2405844 -0.016195949 30
10.225624 -5.8799934 -0.088938907 0
9.4141579 -3.7216277 -0.1360527 17
8.7762394 -4.2293801 -0.18842015 47
10.011203 -5.7566957 -0.29151222 0
9.362114 -3.7010536 -0.31338221 13
8.7970619 -4.2394147 -0.36200237 47
9.1529226 -5.2631631 -0.45359874 0
9.4446774 -3.7336926 -0.4958182 4
8.800724 -4.2411795 -0.53507495 42
8.8330593 -5.0792332 -0.61784852 2
9.3979435 -3.7152178 -0.67245662 22
8.7908602 -4.2364264 -0.70719552 18
8.746191 -5.0292821 -0.79048437 1
9.355834 -3.6985712 -0.84744531 18
8.7962503 -4.2390237 -0.88038188 49
8.6948423 -4.9997554 -0.96329117 4
9.3183508 -3.683753 -1.0215117 23
8.8096638 -4.2454877 -1.054772 43
8.8060026 -4.2437234 -1.2276177 18
8.8104162 -4.2458506 -1.4013224 14
8.8048067 -4.2431469 -1.5751477 11
7.9987469 -3.8546965 -1.5880071 4
7.3435702 -3.5389588 -1.603314 4
6.7929807 -3.2736228 -1.6167099 4
6.2935476 -3.0329397 -1.6217635 4
5.8872337 -2.837132 -1.6324375 5
4.4160013 -2.1281266 -1.6863765 7
3.3084593 -1.5943881 -1.7119365 8
5.7604675 -2.8257656 1.6936822 19
7.7535839 -3.8034778 1.6688609 28
7.8635368 -3.8574147 1.2253439 19
8.7654371 -4.2998366 0.84765124 21
8.750927 -4.2927189 0.50144261 29
8.76828 -4.3012319 0.3296175 33
13.802086 -8.0652876 0.44456983 53
9.3197823 -3.7597616 0.22033562 15
8.7757368 -4.3048897 0.15662555 14
13.830888 -8.082118 0.16216624 36
9.2662964 -3.7381847 0.042203054 19
8.7912169 -4.3124828 -0.016235743 1
10.432976 -6.0965385 -0.091110356 0
9.2321596 -3.7244134 -0.13379501 22
8.7680416 -4.3011146 -0.18888424 46
10.001842 -5.844604 -0.29242066 0
9.1803236 -3.7035015 -0.30815503 19
8.7887831 -4.3112893 -0.36289147 37
9.1056051 -5.3208857 -0.45308366 0
9.2590618 -3.7352657 -0.48743102 21
8.7995872 -4.3165889 -0.536825 7
8.7939358 -5.1387615 -0.6176064 2
9.216321 -3.7180235 -0.66130215 22
8.8040524 -4.318779 -0.71066499 11
8.7418547 -5.1083274 -0.7932964 15
9.193017 -3.7086222 -0.83502239 17
8.7700186 -4.3020844 -0.88074106 3
8.6734772 -5.0683708 -0.9648208 3
9.1558609 -3.6936331 -1.0065014 24
8.811944 -4.3226509 -1.0586325 12
8.8153563 -4.3243246 -1.2331004 7
9.2498045 -4.5374408 -1.4762108 1
8.7643328 -4.2992949 -1.5732385 5
7.9857812 -3.9173808 -1.590824 4
7.3186846 -3.5901403 -1.603314 4
6.7769833 -3.3244119 -1.6183871 5
6.2792163 -3.080235 -1.6235725 4
5.8847041 -2.8867092 -1.6372844 6
4.4044323 -2.1605699 -1.6876776 7
3.3070126 -1.6222367 -1.7170064 8
5.7440605 -2.8676383 1.6947031 20
7.6108875 -3.7996244 1.6438166 6
7.7797079 -3.8839054 1.2164767 19
13.601964 -6.7905822 1.3199141 16
13.799508 -6.8892031 0.79347128 31
13.820624 -6.899745 0.52134341 29
13.814204 -8.2022743 0.44679376 42
9.1527796 -3.7668982 0.21700384 20
13.839473 -8.2172775 0.16293555 36
9.0994139 -3.744935 0.041561052 22
12.153597 -6.0675058 -0.022523114 0
10.348887 -6.1447201 -0.090748452 0
9.0616875 -3.729408 -0.13169858 16
9.9814243 -5.9265366 -0.2930263 0
9.013751 -3.7096796 -0.30342567 21
9.674016 -4.8296113 -0.40082538 0
9.136961 -5.4251308 -0.45651743 0
9.0923653 -3.742034 -0.48001912 21
9.2123461 -4.5991292 -0.56395066 0
8.788744 -5.2183747 -0.61978537 2
9.0646534 -3.7306287 -0.65227228 22
8.7436962 -5.191627 -0.79673326 2
9.0231514 -3.7135484 -0.82192791 19
9.2494736 -4.6176648 -0.93210566 2
8.6652708 -5.1450615 -0.96788007 2
8.9789762 -3.6953681 -0.98986834 22
9.1978588 -4.5918965 -1.1088189 2
9.1755533 -4.580761 -1.287927 2
9.2604151 -4.623127 -1.4830189 2
8.7341051 -4.3603745 -1.5732385 6
7.9582391 -3.9730346 -1.590824 4
7.3215346 -3.6551692 -1.6094896 4
6.7571101 -3.3733885 -1.6192256 4
6.2680187 -3.1292167 -1.626286 5
5.8782969 -2.934654 -1.6411619 6
4.3892422 -2.1912649 -1.6876776 7
3.2923634 -1.6436644 -1.7153164 9
5.6790752 -2.8848987 1.6814313 12
3.9741642 -2.0188255 0.86137205 4
7.6888309 -3.9058292 1.206501 18
13.657259 -6.937716 1.3299476 20
13.797377 -7.008894 0.79614288 31
13.83271 -7.0268426 0.52363712 30
13.811386 -8.331563 0.44857293 55
8.9713898 -3.7656991 0.21332136 20
10.722315 -5.4468007 0.19270584 0
13.846841 -8.352951 0.16370489 41
8.9292059 -3.747993 0.04090216 26
10.449076 -5.3079987 -0.019432487 0
13.877981 -8.3717356 -0.12220429 27
8.8916006 -3.7322083 -0.12960215 17
10.019266 -5.0896611 -0.21734837 0
10.148669 -6.1220703 -0.29918358 0
8.8512335 -3.7152643 -0.29882076 25
9.6008615 -4.8771172 -0.3991954 0
9.1330824 -5.509429 -0.45823428 0
8.918664 -3.7435677 -0.47221711 22
9.1871357 -4.6669493 -0.56438816 0
8.7657747 -5.2878547 -0.62075377 2
8.8948622 -3.7335773 -0.64191455 17
9.0701303 -4.607512 -0.73726434 1
8.7447987 -5.2752013 -0.80017018 2
8.8169184 -3.7008607 -0.80547595 11
9.0784893 -4.6117582 -0.91809714 1
8.6598244 -5.2239413 -0.97132176 1
8.8282051 -3.7055981 -0.97607511 36
9.0875721 -4.6163721 -1.0993822 1
9.1504269 -4.6483016 -1.2889239 2
9.2773361 -4.71277 -1.4909616 1
8.7034512 -4.4212437 -1.5732385 4
7.9338188 -4.0302801 -1.5915282 4
7.2853413 -3.7008617 -1.6071737 4
6.7612906 -3.4346504 -1.625934 4
6.2494941 -3.1746643 -1.6271905 5
5.8611264 -2.9773784 -1.6421313 7
4.373837 -2.2218542 -1.6876776 7
3.2937376 -1.6731772 -1.7220763 9
5.6783862 -2.9371116 1.6875567 20
3.9592588 -2.0479033 0.86137205 1
7.6564741 -3.9602661 1.2059468 18
13.761776 -7.1181974 1.3451706 17
13.791755 -7.1337037 0.79881448 31
13.82699 -7.1519289 0.52539116 30
13.80107 -8.463932 0.45024091 44
8.789156 -3.7652209 0.20963886 25
10.731833 -5.5509768 0.19360304 0
13.846615 -8.4918642 0.16443372 34
8.8058968 -3.7723925 0.040462896 48
10.448966 -5.4046659 -0.019505441 0
13.870799 -8.5066957 -0.12268683 35
8.7904739 -3.7657857 -0.12852706 35
10.059837 -5.2033916 -0.21905002 0
10.10693 -6.1983862 -0.29928452 0
8.7906866 -3.7658768 -0.29770064 41
9.5222483 -4.9253263 -0.39741728 0
9.1162987 -5.5908518 -0.45943612 0
8.7881556 -3.7647924 -0.46675569 40
9.1065598 -4.7103143 -0.56154436 0
8.75741 -5.3707519 -0.62293267 2
8.7498569 -3.7483854 -0.63341588 3
9.0148506 -4.6628785 -0.7355296 2
8.821476 -5.4100428 -0.81079328 5
8.7822256 -3.7622521 -0.80480444 5
8.9878235 -4.6488986 -0.91235006 0
8.6688194 -5.316421 -0.97667551 1
8.811779 -3.7749124 -0.97729218 18
8.9722443 -4.6408401 -1.0895164 1
9.1020069 -4.7079592 -1.2869301 1
9.6821594 -5.00804 -1.5618787 1
8.6953621 -4.4976244 -1.5776935 3
7.9110565 -4.0919471 -1.5929366 4
7.2754474 -3.7631819 -1.6110334 4
6.7289839 -3.4805272 -1.6242568 4
6.232976 -3.2239702 -1.6289995 5
5.8322492 -3.0166965 -1.6401925 6
4.3607922 -2.255594 -1.6889788 5
3.2781639 -1.695611 -1.7203863 10
5.6508975 -2.9730814 1.6855149 20
7.2293563 -3.8035488 1.5785496 4
7.6566858 -4.028378 1.2103804 18
13.796387 -7.2586312 1.3534741 21
13.794644 -7.2577143 0.80189711 30
13.812102 -7.2668996 0.52674037 28
13.806127 -8.6002445 0.45235369 70
8.7699852 -3.8296897 0.20981422 43
10.760068 -5.6611466 0.19482066 0
13.831126 -8.6158171 0.1649601 31
8.7866774 -3.8369789 0.040496685 47
10.350801 -5.4458203 -0.019392693 0
13.872183 -8.6413927 -0.1232297 32
8.7822962 -3.8350661 -0.12879583 34
9.984333 -5.2530122 -0.21819919 0
10.226325 -6.3702803 -0.3041296 9
8.8008204 -3.8431551 -0.29894522 39
9.4911671 -4.9935455 -0.39756545 0
9.1279259 -5.6860547 -0.46201143 0
8.7763033 -3.8324487 -0.46753588 40
9.027503 -4.7495995 -0.5587005 1
8.7569799 -5.4549813 -0.62559581 2
8.7856541 -3.8365324 -0.63793081 45
8.9608936 -4.7145548 -0.73379487 1
8.7225666 -5.4335442 -0.80516928 2
8.7995796 -3.8426132 -0.80883348 46
8.8811092 -4.6725783 -0.90480703 1
8.6821861 -5.40839 -0.98241162 1
8.8180313 -3.8506706 -0.98094332 49
8.8727541 -4.6681824 -1.0813665 3
9.0092058 -4.7399731 -1.2784569 1
9.6399517 -5.0718246 -1.560744 1
8.6882143 -4.5710912 -1.5821484 3
7.8997197 -4.1562443 -1.5964577 3
7.2455244 -3.8120553 -1.6102614 4
6.7114434 -3.5310616 -1.625934 4
6.2137651 -3.2692204 -1.6299039 5
5.8213496 -3.0627606 -1.6431006 6
4.3449388 -2.2859831 -1.6889788 4
3.2630377 -1.7167674 -1.7186964 9
5.6095438 -3.0015118 1.6793896 17
3.9649074 -2.1215124 0.86896122 1
7.6388555 -4.0873404 1.212043 21
13.819163 -7.3942523 1.3607397 25
13.796474 -7.382112 0.8049798 50
13.824481 -7.3970976 0.52916896 30
13.806571 -8.7348986 0.45435524 43
8.7649574 -3.9005768 0.21034029 47
10.836656 -5.7983952 0.19693549 1
13.841622 -8.7570744 0.16581042 33
8.7779484 -3.9063582 0.040581159 48
10.411282 -5.5707889 -0.019578395 0
13.87236 -8.7765207 -0.12377256 31
8.7881966 -3.9109187 -0.12927963 35
10.021467 -5.3622103 -0.21982351 0
13.875096 -8.7782516 -0.41445607 33
8.799346 -3.9158804 -0.2998164 42
9.4772224 -5.0709996 -0.39845452 0
9.0981388 -5.7560506 -0.46252647 0
8.7748852 -3.904995 -0.46890125 45
8.9729958 -4.8012018 -0.55738801 1
8.7625465 -5.5437341 -0.62874317 2
8.7841816 -3.909132 -0.63978988 49
8.9101734 -4.7675877 -0.73234922 6
8.7080107 -5.5092311 -0.80735636 2
8.7980309 -3.9152954 -0.81118375 41
8.8271971 -4.7231894 -0.90265185 8
8.6812296 -5.4922876 -0.98661816 1
8.8163843 -3.9234626 -0.98378313 50
8.8329353 -4.7262597 -1.0805086 14
8.9618988 -4.7952642 -1.2764633 1
9.6322393 -5.1539454 -1.5652827 1
8.6386814 -4.6223197 -1.5789664 2
7.8600965 -4.2057204 -1.594345 3
7.2360377 -3.8718038 -1.6141212 4
6.7004228 -3.585211 -1.6292881 4
6.1907907 -3.3125207 -1.6299039 4
5.7895608 -3.0978339 -1.6401925 6
4.3288741 -2.3162608 -1.6889788 6
3.2477765 -1.7377955 -1.7170064 9
5.2385378 -2.8502154 1.5742363 15
3.9396513 -2.1435091 0.8666845 2
7.564899 -4.1159558 1.2048384 28
13.819714 -7.5191131 1.3659295 29
13.790218 -7.5030651 0.8076514 45
13.825178 -7.5220866 0.53119284 30
13.836082 -8.88943 0.45735759 33
8.7666492 -3.9748838 0.21104172 45
10.90482 -5.9331608 0.19892216 1
13.844087 -8.8945732 0.16657974 28
8.7796068 -3.9807587 0.040716317 45
11.211888 -6.1002316 -0.021163503 0
13.86796 -8.9099112 -0.12428527 34
8.7898207 -3.9853899 -0.12970966 34
9.9662247 -5.4224839 -0.21943676 0
13.880757 -8.9181328 -0.41647485 31
8.7972822 -3.9887729 -0.30068761 40
9.431057 -5.1313062 -0.39800999 0
9.1081657 -5.85183 -0.46510181 0
8.7728796 -3.9777086 -0.47026658 47
8.9252262 -4.856091 -0.55651295 1
8.7672997 -5.6328297 -0.63189054 2
8.7857571 -3.9835474 -0.64191455 50
8.9117184 -4.8487415 -0.73524046 5
8.7666321 -5.6324005 -0.81641728 2
8.7995234 -3.9897892 -0.81386983 39
8.7940092 -4.7846975 -0.90265185 114
8.7934189 -5.649611 -1.0038266 1
8.8213959 -3.9997063 -0.98743427 47
8.8067122 -4.7916093 -1.0813665 5
8.893342 -4.8387432 -1.271479 0
9.6134148 -5.230525 -1.5681194 1
8.6131401 -4.6862888 -1.5802392 2
7.8547549 -4.2736626 -1.5992745 4
7.2088323 -3.922225 -1.6141212 3
6.6683602 -3.6281617 -1.627611 4
6.1914725 -3.3686938 -1.6362355 4
5.7848377 -3.1474495 -1.6450394 6
4.3159213 -2.3482325 -1.6902801 7
3.2355657 -1.7604262 -1.7170064 10
5.5704737 -3.0814121 1.6804104 20
3.9245906 -2.1709609 0.8666845 3
7.5082479 -4.1533284 1.2004048 19
13.784318 -7.6250544 1.3676593 23
13.786438 -7.6262274 0.81052852 54
13.838793 -7.6551881 0.53375638 28
13.827267 -9.0207634 0.45913675 33
8.7713604 -4.0510807 0.21183082 43
10.870131 -6.0130177 0.19905032 1
13.835254 -9.0259743 0.1672276 31
8.7842846 -4.0570498 0.040868368 48
10.304485 -5.70012 -0.019525338 0
13.869068 -9.0480347 -0.12485828 35
8.7908316 -4.0600734 -0.13013971 37
11.348928 -6.277873 -0.25084013 1
13.901887 -9.0694447 -0.41899833 33
8.7909985 -4.0601506 -0.30143434 45
9.419488 -5.2105665 -0.39904723 0
9.1273355 -5.9545779 -0.46819216 0
8.7775402 -4.0539346 -0.47202206 44
8.9225607 -4.9356818 -0.55848175 1
8.7946405 -5.7375312 -0.63673258 2
8.7903423 -4.0598478 -0.64430481 52
8.8741579 -4.9089074 -0.73495132 5
8.790554 -5.7348652 -0.82235372 1
8.807641 -4.0678372 -0.81722736 40
8.7603912 -4.8459749 -0.90265185 43
8.7704372 -5.7217412 -1.0057386 0
8.8185453 -4.0728736 -0.99027407 47
8.7939253 -4.8645248 -1.0839401 2
8.8107233 -4.873817 -1.2645011 2
9.5628042 -5.289845 -1.56585 1
8.590579 -4.7520404 -1.5821484 3
7.8316188 -4.3322072 -1.600683 4
7.212183 -3.9895544 -1.6210686 4
6.6565571 -3.6821995 -1.6309652 4
6.1643939 -3.4099503 -1.6353309 4
5.766119 -3.1896372 -1.6460088 6
4.3093514 -2.3837986 -1.6941837 7
3.2358863 -1.7899913 -1.7237662 9
5.5757942 -3.1353912 1.6885777 21
3.9333012 -2.2117813 0.87199688 4
7.4687104 -4.1998191 1.1987422 20
13.643911 -7.6722698 1.3590099 22
13.788573 -7.7536163 0.81381667 52
13.833796 -7.7790461 0.53564531 28
13.830625 -9.1612339 0.46136072 35
8.7790527 -4.1292386 0.21270761 42
13.850355 -7.7883577 0.25461265 28
13.848601 -9.1731415 0.16815889 31
8.7919426 -4.1353011 0.041037317 48
10.369038 -5.8307366 -0.019724306 0
13.872259 -9.1888123 -0.12546146 35
8.7912273 -4.1349645 -0.13056974 35
10.067325 -5.6610765 -0.22338152 0
13.901573 -9.2082291 -0.42091617 31
8.8022356 -4.1401429 -0.30280337 41
9.4072714 -5.2899141 -0.4000845 0
9.1921587 -6.0887718 -0.47368619 1
8.7815628 -4.1304188 -0.4737775 46
8.8948488 -5.0017681 -0.55891925 1
8.8209457 -5.8428845 -0.64157468 2
8.7942905 -4.1364055 -0.64669508 53
8.8292389 -4.9648743 -0.73408395 1
8.7503042 -5.796093 -0.82235372 1
8.8078823 -4.1427984 -0.81991339 40
8.7298193 -4.9089684 -0.90301102 17
8.8165865 -5.8399973 -1.0156814 1
8.8151035 -4.1461954 -0.99311382 47
8.7978821 -4.9472413 -1.0886586 2
8.7557278 -4.9235373 -1.2615105 1
9.5532532 -5.3720031 -1.5703888 1
8.5571947 -4.8118978 -1.5821484 3
7.804616 -4.3887062 -1.6013871 4
7.1773129 -4.0359602 -1.6195247 5
6.6272793 -3.7266643 -1.6301267 4
6.1506271 -3.4586322 -1.6380445 4
5.7470937 -3.2317164 -1.6469781 7
4.2893071 -2.4119713 -1.6928825 7
3.2169909 -1.8089844 -1.7203863 9
5.5369802 -3.1646454 1.6834731 20
3.9279933 -2.2450335 0.87427366 5
7.4495263 -4.2577558 1.2004048 3
13.472383 -7.7001028 1.3472465 19
13.782661 -7.8774414 0.81669378 54
13.831213 -7.9051909 0.53766912 33
13.822736 -9.2954979 0.46325108 33
8.7680454 -4.1990614 0.213146 42
13.844256 -7.9126463 0.25550985 25
13.850605 -9.3142395 0.16896871 31
8.7845049 -4.206944 0.041138686 49
10.473936 -5.9863486 -0.020002861 0
13.874154 -9.3300762 -0.12606464 34
8.7910051 -4.2100568 -0.13099977 38
