# .PCD v0.7 - Point Cloud Data file format
VERSION 0.7
FIELDS x y z intensity
SIZE 4 4 4 4
TYPE F F F F
COUNT 1 1 1 1
WIDTH 1355
HEIGHT 1
VIEWPOINT 0 0 0 1 0 0 0
POINTS 1355
DATA ascii
-4.2364821 3.4712269 -1.8841614 6
-3.098784 2.5390363 -1.8674134 9
-1.6983697 1.411517 0.58293706 12
-3.2589936 2.7085533 0.81887263 0
-4.2225738 3.5093861 0.76812607 29
-4.2231989 3.5099053 0.4767606 24
-4.2396317 3.5235629 0.28360277 21
-4.2520461 3.5338802 0.18659885 24
-3.6820335 3.5433006 0.14211111 30
-4.9313064 3.5265629 0.13292034 24
-4.2385416 3.5226567 0.088310152 17
-3.6746221 3.5361683 0.051625952 34
-4.9291935 3.5250521 0.025595527 28
-4.23908 3.5231042 -0.0091392379 25
-3.6689417 3.5307019 -0.038392413 33
-4.9125261 3.5131326 -0.08116933 19
-4.2475204 3.5301189 -0.10681783 29
-3.6678774 3.5296779 -0.12849551 30
-4.8910785 3.4977949 -0.18718302 24
-4.2546206 3.53602 -0.20508035 32
-3.6800625 3.5414035 -0.2194168 46
-4.9136248 3.5139182 -0.29491624 3
-4.2358131 3.5203891 -0.30166328 31
-3.6623194 3.5243292 -0.30819795 36
-4.8988819 3.5033753 -0.40076503 25
-4.2218609 3.5087934 -0.39783362 28
-3.6750762 3.5366054 -0.39961642 37
-4.9053578 3.5080063 -0.5079971 24
-4.2464705 3.5292463 -0.49784142 34
-3.6551092 3.5173905 -0.48719051 37
-4.897347 3.5022774 -0.61379951 32
-4.2391095 3.5231287 -0.59451568 39
-4.2213092 3.5083349 -0.68932003 34
-4.2327719 3.5178616 -0.78859842 31
-4.2549391 3.5362847 -0.8916291 32
-4.2425218 3.5259647 -0.9866066 33
-4.2529702 3.5346482 -1.0876598 32
-4.2351284 3.5198202 -1.1806679 29
-4.2491503 3.5314734 -1.282577 25
-4.2410545 3.5247455 -1.3774903 33
-4.2121453 3.5007186 -1.8841614 8
-3.0809827 2.5606081 -1.8674134 8
-1.673689 1.410876 0.57783252 13
-3.2520161 2.7413645 0.8219083 0
-4.1525378 3.5004809 0.75981301 35
-4.1711702 3.5161874 0.47364676 24
-4.1874404 3.5299029 0.28175318 22
-4.1844788 3.527406 0.18470992 22
-3.6228666 3.5354083 0.14077674 30
-4.8644915 3.5303688 0.13178052 25
-4.1802082 3.5238063 0.087605216 17
-3.629807 3.542181 0.051342517 39
-4.8494306 3.5194383 0.025308317 29
-4.1807389 3.5242534 -0.0090662828 23
-3.6327527 3.5450554 -0.038271777 42
-4.839325 3.5121043 -0.080363013 19
-4.2013674 3.5416427 -0.10627639 32
-3.611666 3.524478 -0.12738518 43
-4.8244758 3.5013278 -0.18556508 26
-4.1931562 3.5347209 -0.20330219 33
-3.6295083 3.5418894 -0.21787161 36
-4.8437047 3.5152831 -0.29218554 5
-4.1775417 3.5215585 -0.29925698 30
-3.6204805 3.5330796 -0.30674532 36
-4.8387728 3.5117037 -0.39784363 28
-4.1606579 3.5073259 -0.39436415 32
-3.6103401 3.5231841 -0.39524218 38
-4.8388114 3.5117316 -0.50363231 26
-4.1882224 3.5305617 -0.49389029 36
-3.6133661 3.5261371 -0.48489606 52
-4.8373504 3.5106714 -0.60933697 31
-4.1809621 3.524442 -0.58979732 38
-4.1663685 3.5121396 -0.68433583 35
-4.1596708 3.5064938 -0.77952099 29
-4.2029729 3.5429962 -0.88590133 32
-4.1816759 3.5250432 -0.97815603 30
-4.1771755 3.5212495 -1.0745369 32
-4.1835389 3.5266137 -1.173121 29
-4.2035384 3.5434728 -1.2762456 28
-4.1837049 3.5267539 -1.3668271 33
-4.1760349 3.5202882 -1.8789564 11
-3.0602591 2.5797184 -1.8657235 9
-1.6843762 1.4401186 0.58497882 12
-3.21489 2.7486866 0.8173548 0
-4.1039133 3.5087895 0.75537938 28
-4.1071477 3.511555 0.46914902 25
-4.1323347 3.5330894 0.2796981 21
-4.1324062 3.5331504 0.18349563 24
-3.5895703 3.5521772 0.14044315 40
-4.7914257 3.5286717 0.13046534 25
-4.119029 3.521713 0.086836182 17
-3.5993032 3.5618088 0.051261537 42
-4.7828717 3.5223722 0.025088685 29
-4.1134715 3.5169616 -0.0089734318 24
-3.6079149 3.5703306 -0.038271777 41
-4.7696004 3.5125985 -0.079610452 21
-4.133986 3.5345011 -0.10519352 34
-3.5926571 3.5552318 -0.12758707 39
-4.7580638 3.5041025 -0.18394715 26
-4.1349592 3.5353332 -0.20167223 34
-3.5876489 3.5502758 -0.21684147 54
-4.7675738 3.511106 -0.28906474 3
-4.1224995 3.5246804 -0.29706943 30
-3.5872128 3.5498443 -0.30601901 49
-4.7691469 3.5122645 -0.39412546 25
-4.1057501 3.5103598 -0.39147291 32
-3.5828211 3.5454984 -0.39492974 48
-4.7596164 3.5052457 -0.49792448 25
-4.1301661 3.5312355 -0.48993915 33
-3.588661 3.5512774 -0.48489606 47
-4.7646604 3.5089602 -0.60325176 32
-4.1230073 3.5251145 -0.5850789 39
-4.1176167 3.5205057 -0.6803484 36
-4.1140246 3.5174346 -0.77554965 31
-4.136116 3.5363226 -0.87699139 34
-4.127039 3.5285616 -0.97111386 30
-4.1196785 3.5222683 -1.0660456 32
-4.1231461 3.5252333 -1.1630585 27
-4.1401997 3.5398138 -1.2644871 29
-4.1294875 3.5306549 -1.3571333 34
-4.1168599 3.5198588 -1.8633418 16
-3.0394204 2.5986626 -1.8640335 9
-1.6918128 1.4670449 0.59110427 13
-3.1718848 2.7504802 0.81128347 0
-4.052381 3.5139968 0.75039154 30
-4.0554357 3.5166457 0.46603522 22
-4.0683336 3.5278301 0.27702647 21
-4.0683746 3.5278659 0.18174161 23
-3.5816183 3.5941441 0.14111033 32
-4.7314363 3.5357039 0.12950088 26
-4.0641255 3.5241814 0.086195327 16
-3.5941131 3.6066825 0.051544972 36
-4.7133064 3.5221555 0.024852159 30
-4.0616198 3.5220082 -0.0089137414 25
-3.5970185 3.6095982 -0.038422573 34
-4.7065148 3.5170805 -0.078965396 19
-4.075973 3.5344546 -0.10434268 33
-3.5959752 3.608551 -0.12859645 34
-4.6950531 3.5085154 -0.18245366 26
-4.0829968 3.5405455 -0.2003386 35
-3.5740597 3.5865588 -0.21752822 45
-4.7045412 3.5156057 -0.28672415 4
-4.0585642 3.5193589 -0.2942256 26
-3.573616 3.5861137 -0.30698743 37
-4.6901593 3.5048585 -0.38961053 21
-4.0540156 3.5154142 -0.38887081 33
-3.5748708 3.587373 -0.39680442 38
-4.6999078 3.5121431 -0.49423116 26
-4.0783243 3.5364935 -0.48670644 34
-3.5806444 3.5931666 -0.48719051 39
-4.6954198 3.5087895 -0.59757215 31
-4.0712552 3.5303636 -0.58121842 39
-4.0659523 3.5257652 -0.67586261 35
-4.059453 3.5201294 -0.7698763 32
-4.0785079 3.5366526 -0.86999071 34
-4.0725555 3.5314913 -0.96407169 32
-4.0653353 3.5252304 -1.0583262 32
-4.0600209 3.5206218 -1.1521574 31
-4.080061 3.5379994 -1.2536331 28
-4.0783505 3.5365162 -1.3484088 33
-4.069325 3.5286896 -1.8529321 15
-3.021204 2.6198182 -1.8640335 8
-1.6902423 1.4864826 0.59416699 11
-3.1408091 2.7621827 0.8082478 1
-4.0039525 3.5212736 0.74595791 28
-3.9978693 3.5159237 0.46222943 24
-4.019608 3.5350418 0.2753824 23
-4.0226326 3.5377021 0.18079716 23
-3.5816641 3.6447268 0.14211111 31
-4.6524649 3.5275748 0.12801035 26
-4.0003805 3.5181322 0.085362211 17
-3.5856686 3.6488018 0.051787917 32
-4.6503539 3.5259745 0.024649421 29
-4.0068955 3.5238621 -0.0088474192 26
-3.5997682 3.6631494 -0.038724165 33
-4.6308532 3.5111885 -0.078105323 22
-4.0241709 3.5390546 -0.10364655 32
-3.5903161 3.6535308 -0.12930302 34
-4.6290288 3.5098052 -0.18083572 26
-4.0311656 3.5452061 -0.19900499 34
-3.5825477 3.6456258 -0.21958849 41
-4.6353126 3.5145698 -0.28399342 4
-3.9949062 3.5133181 -0.29138178 34
-3.5764797 3.639451 -0.30940846 38
-4.6401339 3.5182252 -0.38748586 23
-3.9964201 3.5146494 -0.38569045 33
-3.5776916 3.6406841 -0.39992887 39
-4.6339841 3.5135624 -0.48986635 26
-4.0116539 3.5280468 -0.48167774 35
-3.5750091 3.6379545 -0.48986739 40
-4.6359291 3.5150371 -0.59310967 32
-4.0076866 3.5245578 -0.57564217 41
-3.9995151 3.5173712 -0.66888469 37
-3.9842327 3.503931 -0.76023155 32
-4.0240641 3.5389607 -0.86362648 32
-4.0182343 3.5338337 -0.95702952 31
-3.9993646 3.5172389 -1.0475191 34
-4.0059743 3.5230515 -1.143772 30
-4.0289288 3.5432389 -1.2454927 29
-4.0127635 3.5290225 -1.3348376 33
-4.0105071 3.5270383 -1.8373175 16
-2.9973958 2.6360579 -1.8606535 9
-1.6855961 1.5033951 0.59620881 12
-3.1361034 2.7971129 0.81204236 2
-3.9408388 3.5148621 0.73875326 29
-3.9375384 3.5119185 0.45807767 24
-3.9560747 3.5284512 0.2727108 21
-3.9620354 3.5337675 0.17917807 24
-3.5811751 3.6954849 0.1431119 29
-4.5960274 3.5355861 0.12713356 27
-3.9548283 3.5273395 0.084913611 17
-3.5851593 3.6995964 0.052152336 31
-4.5875797 3.5290873 0.024446685 29
-3.9553304 3.5277872 -0.0087877288 25
-3.5852413 3.6996808 -0.038844798 33
-4.5681858 3.5141683 -0.077460267 20
-3.9605653 3.5324564 -0.10264102 34
-3.589767 3.7043509 -0.13021149 35
-4.5568795 3.5054708 -0.17896886 26
-3.9675362 3.5386739 -0.19707866 31
-3.570915 3.6848972 -0.22044691 40
-4.5726633 3.5176127 -0.28165284 4
-3.9494166 3.5225127 -0.2898505 37
-3.5676556 3.6815338 -0.31086108 39
-4.5806608 3.5237651 -0.38456446 20
-3.9449897 3.5185645 -0.38308832 34
-3.5716138 3.6856184 -0.40211597 38
-4.5651121 3.5118039 -0.48516577 26
-3.9601679 3.5321019 -0.47844499 38
-3.5716918 3.6856987 -0.49292666 37
-4.5639653 3.5109215 -0.58702439 33
-3.9503355 3.5233324 -0.57092381 42
-3.9452424 3.5187898 -0.66390043 35
-3.9389889 3.5132122 -0.75626022 32
-3.966841 3.5380535 -0.85662585 33
-3.9611418 3.5329707 -0.94928318 31
-3.9512799 3.5241747 -1.0413436 34
-3.9579303 3.5301061 -1.1370636 30
-3.9721079 3.5427513 -1.2355431 31
-3.9590669 3.5311198 -1.3251437 33
-3.9519126 3.524739 -1.821703 15
-2.9735084 2.6520932 -1.8572737 10
-1.6779277 1.5177207 0.59722972 13
-2.0970838 1.8968562 0.54642105 1
-3.8868256 3.5157149 0.73321122 30
-3.8774602 3.5072439 0.45392591 24
-3.9076443 3.5345459 0.27106673 19
-3.9046557 3.5318427 0.17769392 24
-3.5801504 3.7464128 0.14411268 28
-4.5334015 3.5380611 0.12608142 26
-3.891547 3.5199854 0.084080495 18
-3.5868778 3.7534528 0.052557245 29
-4.5281439 3.5339577 0.024260843 29
-3.8950076 3.5231156 -0.0087081417 26
-3.5897231 3.7564301 -0.03917655 29
-4.5120101 3.5213664 -0.076922722 20
-3.9091144 3.5358756 -0.10194489 34
-3.5914445 3.7582314 -0.13122088 32
-4.4944739 3.5076802 -0.17747539 28
-3.9041972 3.5314279 -0.19515233 34
-3.5671902 3.7328508 -0.22182043 36
-4.497601 3.5101209 -0.27853203 4
-3.895108 3.5232067 -0.28766295 38
-3.5694516 3.7352171 -0.31328213 35
-4.5087533 3.5188246 -0.38058069 22
-3.8907423 3.5192578 -0.38019711 30
-3.5705917 3.7364101 -0.40492797 37
-4.5059199 3.5166132 -0.48147249 26
-3.911777 3.5382841 -0.47557145 36
-3.576133 3.7422092 -0.4971332 37
-4.4954243 3.5084219 -0.58134484 31
-3.9020467 3.5294828 -0.56749225 41
-3.8940902 3.5222859 -0.65941465 33
-3.8908739 3.5193768 -0.7517215 29
-3.9098279 3.5365212 -0.84962517 35
-3.9013386 3.5288424 -0.94083256 35
-3.9062049 3.5332441 -1.0359401 35
-3.892581 3.5209208 -1.125324 31
-3.9212713 3.5468719 -1.2274027 32
-3.9055378 3.5326405 -1.31545 37
-3.8991575 3.5268695 -1.8086908 18
-2.9710534 2.6873798 -1.8674134 9
-1.6872416 1.5476983 0.60437608 12
-2.0924728 1.9194148 0.54869777 3
-3.8329937 3.5159862 0.72766918 35
-3.8352606 3.5180655 0.45185003 24
-3.8534353 3.5347371 0.26901162 20
-3.8533897 3.5346951 0.17647961 26
-3.5785885 3.7975054 0.14511345 28
-4.4584255 3.5299067 0.12467857 27
-3.8432994 3.5254395 0.083567813 21
-3.5852747 3.8046007 0.052921664 29
-4.4563208 3.5282402 0.024007421 30
-3.8349445 3.5177753 -0.0086285546 25
-3.5880997 3.8075984 -0.039447978 28
-4.4402795 3.5155396 -0.076116405 22
-3.8607569 3.5414531 -0.10132611 34
-3.6007712 3.8210452 -0.13253307 31
-4.4322615 3.5091915 -0.17598191 26
-3.8588285 3.5396843 -0.19411507 39
-3.5711911 3.7896557 -0.22370899 37
-4.43853 3.5141547 -0.27638647 4
-3.8468702 3.5287149 -0.2859129 37
-3.5651939 3.7832916 -0.31521896 33
-4.4465275 3.5204866 -0.37739372 23
-3.8425584 3.5247598 -0.37788412 30
-3.5772386 3.796073 -0.40867731 33
-4.4406343 3.5158205 -0.47710767 24
-3.8576214 3.5385771 -0.47197953 38
-3.5690355 3.7873681 -0.49981004 34
-4.4396219 3.5150189 -0.57728797 30
-3.8480043 3.5297551 -0.5632028 42
-3.8372333 3.519875 -0.65393198 36
-3.8311946 3.5143359 -0.74491346 34
-3.8588517 3.5397055 -0.84389734 33
-3.8504925 3.5320375 -0.93449461 34
-3.8554127 3.5365508 -1.0289927 34
-3.8419657 3.5242159 -1.1177772 33
-3.856215 3.5372868 -1.2147398 29
-3.8436024 3.5257173 -1.302848 33
-3.8437796 3.5258799 -1.7943773 17
-2.9442043 2.7007039 -1.8623435 8
-1.6763955 1.5594398 0.60437608 12
-2.0790217 1.9339762 0.54869777 5
-3.7677476 3.5048859 0.71991038 37
-3.7814288 3.5176127 0.44839022 24
-3.7964907 3.5316238 0.26675102 21
-3.8052022 3.5397277 0.17540023 23
-3.5792079 3.8516865 0.14622544 29
-4.3931408 3.5283918 0.12353875 25
-3.798095 3.5331161 0.083119214 20
-3.5912993 3.8646984 0.053407554 31
-4.3941574 3.5292082 0.023804685 30
-3.7956486 3.5308404 -0.008595393 31
-3.5968268 3.8706467 -0.039840046 28
-4.3813262 3.5189028 -0.075525105 23
-3.8066568 3.5410807 -0.10055263 31
-3.5930614 3.8665948 -0.13323966 29
-4.3608975 3.5024955 -0.17411505 26
-3.8135357 3.5474796 -0.19307782 38
-3.5745716 3.8466976 -0.22559755 33
-4.3765097 3.5150342 -0.27404585 4
-3.7928977 3.5282815 -0.28372535 35
-3.5713091 3.8431866 -0.3181242 36
-4.3907242 3.5264506 -0.37473789 18
-3.7828043 3.5188923 -0.37441462 35
-3.5777955 3.8501668 -0.41180176 30
-4.3755817 3.5142891 -0.47274286 25
-3.797821 3.5328612 -0.46766922 37
-3.5723224 3.8442767 -0.50401658 33
-4.3684359 3.5085497 -0.57120275 36
-3.7941499 3.5294461 -0.55891335 42
-3.7835071 3.519546 -0.64894772 36
-3.7862728 3.5221186 -0.74094212 33
-3.8138061 3.5477312 -0.83944237 34
-3.7969105 3.5320141 -0.9274525 32
-3.7961447 3.531302 -1.0197294 34
-3.7972229 3.5323048 -1.1119074 32
-3.8200147 3.5535066 -1.2111218 30
-3.7990046 3.5339622 -1.2960622 36
-3.7886066 3.5242898 -1.780064 18
-2.9305873 2.7261312 -1.8657235 8
-1.679534 1.5843744 0.60948056 3
-2.1026075 1.9834775 0.55856371 6
-3.714371 3.503921 0.71436834 41
-3.7335889 3.5220501 0.44562238 23
-3.7484961 3.5361128 0.26510695 22
-3.7484095 3.536031 0.17391607 23
-3.5846467 3.9119561 0.14755982 24
-4.3404999 3.5362406 0.12274965 28
-3.7442436 3.5321014 0.082478352 21
-3.5939555 3.9221148 0.053852957 28
-4.3353014 3.5320058 0.023618843 30
-3.7447193 3.5325499 -0.0085357027 34
-3.6021445 3.9310515 -0.040201955 26
-4.322546 3.5216134 -0.074933805 20
-3.7556605 3.5428712 -0.099856488 34
-3.5956964 3.9240146 -0.13434999 29
-4.3084445 3.5101252 -0.17299494 26
-3.7625074 3.5493302 -0.19174419 34
-3.5719285 3.8980763 -0.22714274 34
-4.3239884 3.5227885 -0.27229041 26
-3.7420256 3.5300088 -0.28175655 32
-3.5713658 3.8974626 -0.32054523 31
-4.3195853 3.5192015 -0.37075412 32
-3.7349291 3.5233145 -0.37210163 34
-3.572382 3.8985715 -0.41430131 31
-4.3138604 3.5145376 -0.46871379 26
-3.7498808 3.5374191 -0.46479565 38
-3.5776768 3.9043496 -0.50860548 33
-4.3191557 3.5188515 -0.56795728 32
-3.7433808 3.5312872 -0.55505288 42
-3.7328608 3.5213635 -0.64446193 35
-3.7270281 3.515861 -0.73413402 30
-3.7630916 3.5498812 -0.8337146 35
-3.7492461 3.5368202 -0.92181873 40
-3.7428493 3.530786 -1.01201 35
-3.74402 3.5318902 -1.1035219 31
-3.744096 3.5319619 -1.1948408 29
-3.7488337 3.5364313 -1.2873379 36
-3.7391474 3.5272937 -1.768353 21
-2.9088464 2.7440362 -1.8640335 9
-1.6768161 1.6040817 0.61254328 5
-2.0830333 1.9926786 0.55704588 7
-3.6697805 3.5105984 0.71048892 35
-3.6772339 3.5177283 0.4418166 23
-3.6977386 3.5373437 0.26325735 21
-3.6976328 3.5372427 0.17270176 25
-3.592097 3.9754541 0.14900538 26
-4.2694664 3.528245 0.12143447 27
-3.6848133 3.5249791 0.081709325 18
-3.5959835 3.9797552 0.054298356 28
-4.2673707 3.5265133 0.023382317 32
-3.6881714 3.5281916 -0.0084627485 27
-3.606792 3.9917171 -0.040563863 28
-4.2546911 3.5160348 -0.074181244 22
-3.6903765 3.5303011 -0.098773614 36
-3.603065 3.9875925 -0.1356622 22
-4.2468514 3.5095561 -0.17150146 28
-3.7000871 3.5395904 -0.18981786 41
-3.5767782 3.9585001 -0.22920299 35
-4.2654119 3.5248945 -0.27014485 26
-3.6942012 3.5339599 -0.28000653 46
-3.5761905 3.95785 -0.32345048 30
-4.2579923 3.5187628 -0.36756712 26
-3.6871779 3.5272412 -0.36978865 41
-3.5744863 3.9559639 -0.4177382 30
-4.2523489 3.5140994 -0.46468475 25
-3.6991851 3.5387275 -0.46156293 36
-3.5823653 3.9646835 -0.51319438 32
-4.2607417 3.521035 -0.56349474 33
-3.6841516 3.5243461 -0.54990554 40
-3.6823752 3.5226467 -0.63997608 36
-3.67378 3.5144243 -0.72846067 30
-3.7096813 3.5487683 -0.82735038 35
-3.6931648 3.5329683 -0.91407239 34
-3.6925838 3.5324125 -1.0050626 36
-3.6938357 3.5336101 -1.095975 32
-3.7024536 3.5418541 -1.1894138 31
-3.7016194 3.5410562 -1.2795829 37
-3.6870987 3.5271654 -1.7553409 24
-2.8791394 2.7542524 -1.8572737 8
-1.6711293 1.621134 0.6145851 13
-2.0831664 2.020844 0.56084049 8
-3.6338108 3.5250978 0.7082721 42
-3.6411464 3.5322139 0.44043267 33
-3.6414151 3.5324745 0.26099676 22
-3.6498945 3.5407002 0.17162238 23
-6.8678427 7.7083006 0.28711337 31
-4.2110176 3.5297072 0.12047001 29
-3.6400213 3.5311224 0.081260726 19
-6.8648243 7.7049127 0.10446663 36
-4.2089267 3.5279546 0.023196474 33
-3.6433547 3.5343561 -0.008416323 31
-6.8623195 7.7021012 -0.077780075 32
-4.1932578 3.5148206 -0.073536187 21
-3.6484194 3.5392692 -0.098309524 36
-6.8417087 7.6789684 -0.25961545 33
-4.1946702 3.5160046 -0.17038135 27
-3.6523349 3.5430677 -0.18863243 42
-3.5676651 4.004261 -0.23040481 3
-4.2100811 3.5289221 -0.26819435 26
-3.6379073 3.5290716 -0.27760023 35
-6.8605576 7.7001238 -0.62535375 35
-4.1966181 3.5176373 -0.36438012 26
-3.6309659 3.5223382 -0.36660829 38
-6.8495064 7.6877203 -0.80673146 36
-4.1910558 3.5129747 -0.46065569 28
-3.6486564 3.5394993 -0.45833018 41
-5.6894779 6.3857322 -0.82141697 15
-4.1964107 3.5174632 -0.55822086 34
-3.6451864 3.5361331 -0.54776084 44
-3.6406026 3.5316863 -0.63698554 36
-3.6292629 3.5206859 -0.72448933 36
-3.6536384 3.544332 -0.82034969 37
-3.6486285 3.5394721 -0.90914285 35
-3.6481149 3.538974 -0.99965894 37
-3.6410058 3.5320773 -1.0875896 34
-3.644078 3.535058 -1.1785599 31
-3.6378131 3.5289803 -1.2660115 37
-3.6352377 3.5264819 -1.7423288 24
-2.8650467 2.7793329 -1.8606535 8
-1.6735566 1.6463224 0.61968964 12
-2.0690076 2.0353382 0.56084049 9
-3.6175847 3.5587149 0.70993471 37
-3.6220803 3.5631373 0.44112465 29
-3.6081221 3.5494063 0.26038024 31
-3.625087 3.5660951 0.17162238 34
-6.7821965 7.7200089 0.285779 31
-4.1588521 3.5357072 0.11968091 28
-3.6124296 3.5536437 0.081196636 24
-6.7633519 7.6985583 0.1037378 36
-4.1537194 3.5313435 0.023027526 30
-3.6100368 3.55129 -0.0083964262 33
-6.7608662 7.6957293 -0.077237211 34
-4.1411929 3.5206938 -0.073052399 22
-3.6036649 3.5450218 -0.097768091 47
-6.7562666 7.6904936 -0.25840417 33
-4.1365151 3.5167172 -0.16901232 30
-3.6104136 3.5516605 -0.18774335 54
-6.7785664 7.7158771 -0.44123721 38
-4.1488152 3.5271742 -0.26585373 29
-3.6103337 3.5515819 -0.27738145 48
-6.7697444 7.7058349 -0.62196428 37
-4.1293869 3.5106568 -0.36066195 26
-3.5949111 3.5364103 -0.36545181 49
-6.7561927 7.6904097 -0.80204481 35
-4.1299872 3.5111673 -0.45662662 28
-3.5982974 3.5397415 -0.45509747 49
-5.6815515 6.4671717 -0.82677072 15
-4.132338 3.513166 -0.55294698 34
-3.5920601 3.5336056 -0.5434714 61
-3.5875652 3.5291839 -0.63200134 51
-3.5961273 3.5376067 -0.72278732 48
-3.6034684 3.5448284 -0.81462187 36
-3.6013739 3.5427678 -0.90350914 43
-3.5981383 3.5395851 -0.99271154 46
-3.5939531 3.5354679 -1.0808814 45
-3.5998666 3.541285 -1.1722283 32
-3.5798895 3.5216331 -1.2543789 40
-3.5916545 3.5332067 -1.7332202 25
-2.8507428 2.804352 -1.8640335 8
-1.6702366 1.6661601 0.62275237 11
-2.06865 2.0636013 0.5646351 9
-3.6150885 3.6062655 0.71436834 27
-3.6196866 3.6108522 0.44389248 27
-3.5889108 3.5801516 0.26079124 24
-3.6085935 3.5997863 0.17202714 26
-6.6757765 7.7067246 0.28355503 30
-4.1037807 3.5385408 0.11880413 28
-3.5960271 3.5872507 0.081388898 19
-6.6780152 7.7093091 0.1032519 37
-4.0986714 3.5341353 0.022858579 31
-3.6106431 3.601831 -0.0084561165 27
-6.6729298 7.7034388 -0.076845147 33
-4.0831928 3.5207884 -0.072461098 23
-3.5816593 3.5729179 -0.097845435 47
-6.6474309 7.6740017 -0.25628445 34
-4.0815845 3.5194018 -0.16776776 26
-3.5911901 3.5824254 -0.18803971 44
-6.687902 7.7207227 -0.43883359 39
-4.087781 3.5247447 -0.26351315 28
-3.5882788 3.5795212 -0.27760023 40
-6.679184 7.7106586 -0.61857486 35
-4.0685053 3.5081239 -0.35747498 28
-3.5842569 3.5755091 -0.36689743 38
-6.6710076 7.7012191 -0.7982955 35
-4.0842438 3.5216944 -0.45427635 29
-3.5734975 3.5647762 -0.45509747 56
-5.6779757 6.5548325 -0.83288926 15
-4.0805874 3.5185421 -0.54929578 34
-3.5644877 3.5557883 -0.54304248 56
-3.5684588 3.5597496 -0.63299817 41
-3.5713425 3.5626261 -0.72278732 39
-3.5730412 3.5643208 -0.81334907 51
-3.5709774 3.5622621 -0.90210068 50
-3.5761182 3.5673904 -0.99348348 46
-3.5664144 3.5577102 -1.0800427 41
-3.5612631 3.5525715 -1.1677059 47
-3.5497217 3.5410583 -1.2524401 50
-3.5615449 3.5528526 -1.7306178 32
-2.8182614 2.811383 -1.8555837 9
-1.6694396 1.6887817 0.626836 11
-2.065237 2.0891647 0.56767076 10
-3.6204584 3.6624048 0.72046459 31
-3.6252067 3.6672084 0.44769827 23
-3.5891044 3.6306877 0.26264083 25
-3.5974264 3.6391063 0.17270176 25
-6.582859 7.7075357 0.28188705 26
-4.0398426 3.532881 0.11766431 29
-3.5849543 3.6264896 0.081709325 19
-6.5798712 7.7040372 0.10256356 40
-4.0347557 3.5284319 0.022638949 32
-3.6107183 3.6525519 -0.0085158059 26
-6.5722284 7.6950884 -0.076302283 36
-4.0193734 3.5149801 -0.071762286 22
-3.5734975 3.6149001 -0.098309524 39
-6.5651283 7.6867757 -0.25517413 34
-4.0177903 3.5135958 -0.16614982 28
-3.5829535 3.6244655 -0.18892878 41
-6.5819311 7.706449 -0.43539983 38
-4.032999 3.526896 -0.26156265 27
-3.5800486 3.621527 -0.27891275 40
-6.5733309 7.6963792 -0.61373276 35
-4.0228844 3.5180504 -0.35561588 29
-3.587255 3.6288168 -0.36978865 41
-6.5678735 7.68999 -0.79235905 34
-4.0325541 3.5265069 -0.45125455 29
-3.5625269 3.6038024 -0.45689341 42
-5.6760364 6.6457829 -0.83939028 14
-4.0259686 3.5207477 -0.54523897 33
-3.5619438 3.6032124 -0.54647398 50
-3.5714216 3.6128001 -0.63798243 37
-3.5770037 3.6184468 -0.72902799 36
-3.5619516 3.6032205 -0.81653118 38
-3.5598617 3.6011062 -0.90562177 35
-3.5704403 3.6118073 -0.99888706 38
-3.5634868 3.6047733 -1.0867511 37
-3.5528102 3.5939729 -1.1731329 35
-3.5385551 3.5795529 -1.257287 40
-3.5339952 3.57494 -1.7293166 25
-2.8087606 2.8413029 -1.8623435 9
-1.6765069 1.7197812 0.6339823 11
-2.0697916 2.1232176 0.57298315 10
-3.608628 3.7017746 0.72323561 35
-3.6217701 3.7152557 0.4504661 21
-3.5859778 3.6785398 0.26428491 22
-3.5998392 3.6927588 0.17405099 26
-6.4928331 7.7104859 0.2803303 34
-3.9851615 3.5344634 0.11678752 29
-3.5958428 3.6886594 0.082542442 17
-6.4821286 7.6977739 0.10187522 34
-3.9830909 3.5326271 0.022486895 32
-3.5962992 3.6891277 -0.0085423356 26
-6.4874291 7.7040687 -0.075940378 34
-3.9767823 3.5270319 -0.071439758 22
-3.5677152 3.6598058 -0.098850965 39
-6.4675179 7.6804233 -0.25345817 34
-3.9572692 3.5097256 -0.16465634 25
-3.5798848 3.6722894 -0.19011423 41
-6.4996538 7.7185864 -0.43351129 39
-3.9664326 3.5178525 -0.25883192 26
-3.5797701 3.6721718 -0.28088155 37
-6.4885783 7.7054338 -0.61082751 34
-3.9623935 3.5142703 -0.35242888 31
-3.5868976 3.6794832 -0.37239078 40
-6.4832034 7.6990509 -0.78860968 36
-3.9660878 3.5175469 -0.44655398 29
-3.562309 3.6542602 -0.46012616 43
-5.6679721 6.7309327 -0.84512639 14
-3.9685426 3.5197239 -0.54077643 35
-3.5672383 3.6593165 -0.5511924 44
-3.5627351 3.6546972 -0.64097297 39
-3.571003 3.6631782 -0.73299938 34
-3.5587626 3.6506219 -0.82162255 39
-3.556623 3.6484272 -0.91125548 34
-3.5643163 3.6563189 -1.0042906 37
-3.5600746 3.651968 -1.0934595 35
-3.5466716 3.6382191 -1.1794643 33
-3.5405684 3.631958 -1.2669809 42
-3.5274336 3.6184843 -1.738425 25
-2.7888563 2.8608427 -1.8623435 8
-1.6778611 1.7453841 0.63908684 10
-2.0630836 2.1461093 0.57525992 11
-3.6183865 3.764003 0.7304402 28
-3.6123147 3.7576869 0.45254198 22
-3.5851254 3.7294035 0.2661345 21
-3.5933645 3.7379742 0.17499545 24
-6.4005346 7.7094812 0.27866232 31
-3.9336298 3.5381298 0.11599842 28
-3.594949 3.7396224 0.083119214 18
-6.4001255 7.7089887 0.10142981 36
-3.9226441 3.5282488 0.022284158 31
-3.6009498 3.7458646 -0.0086152898 26
-6.397717 7.7060876 -0.075518154 33
-3.9252989 3.5306365 -0.070955969 23
-3.5725658 3.7163382 -0.099701792 35
-6.3728728 7.6761627 -0.25184312 35
-3.9029448 3.5105302 -0.16341177 21
-3.5763214 3.7202451 -0.19129966 39
-6.3996611 7.7084289 -0.43042091 40
-3.9091017 3.5160677 -0.25668636 34
-3.5761902 3.7201085 -0.28263158 37
-6.3912697 7.6983213 -0.60671175 40
-3.911056 3.5178258 -0.35003865 33
-3.5832412 3.7274435 -0.37470376 36
-6.3885398 7.6950336 -0.78361058 39
-3.9088356 3.5158286 -0.44286066 27
-3.5615587 3.7048883 -0.46335888 41
-5.6615372 6.8193541 -0.85124499 10
-3.9083695 3.5154092 -0.53590822 35
-3.5608976 3.7042005 -0.55419499 44
-3.5591378 3.7023699 -0.64496034 40
-3.5672946 3.710855 -0.7375381 34
-3.5578208 3.701 -0.82735038 37
-3.5556247 3.6987154 -0.91759348 34
-3.5550232 3.6980898 -1.0089222 36
-3.5670185 3.710568 -1.1035219 32
-3.5454886 3.6881714 -1.1876048 33
-3.5420206 3.6845639 -1.2766746 35
-3.5230563 3.6648364 -1.7488348 24
-2.7663033 2.877629 -1.8606535 9
-1.6842605 1.7767029 0.6462332 9
-2.0642622 2.1775613 0.57981342 11
-3.6165488 3.8150468 0.73542804 22
-3.613409 3.8117347 0.45600179 20
-3.5892329 3.7862318 0.2683951 20
-3.5974348 3.7948837 0.17647961 23
-6.313633 7.7137527 0.27721673 31
-3.8792896 3.5385535 0.11512163 27
-3.5962696 3.7936547 0.083760068 20
-6.3056164 7.703959 0.10078196 34
-3.8713217 3.5312853 0.022132106 33
-3.6049817 3.8028448 -0.008688245 24
-6.3032269 7.7010393 -0.075035609 35
-3.8591869 3.5202165 -0.070203409 24
-3.5767987 3.7731152 -0.10055263 35
-6.2938004 7.6895223 -0.25083375 36
-3.8517592 3.5134411 -0.16229166 29
-3.588762 3.7857351 -0.19337417 39
-6.3178468 7.7189012 -0.42853233 40
-3.8637991 3.5244236 -0.25532103 35
-3.5748615 3.7710717 -0.28460038 35
-6.3070226 7.705677 -0.6038065 36
-3.8687112 3.5289042 -0.34844515 32
-3.5818336 3.7784264 -0.37730587 36
-6.3018274 7.6993294 -0.77954882 38
-3.8635836 3.5242269 -0.44051039 27
-3.5547924 3.7499008 -0.46587324 42
-6.2795777 7.6721454 -0.95220125 28
-3.8631542 3.5238352 -0.53306848 37
-3.5568388 3.7520595 -0.55762655 43
-3.5632384 3.7588105 -0.65044302 36
-3.5630937 3.7586579 -0.74207675 32
-3.5563481 3.7515419 -0.83307815 36
-3.5649321 3.7605972 -0.92674828 34
-3.5480204 3.7427571 -1.0143257 36
-3.5652437 3.7609258 -1.1110688 34
-3.5384183 3.7326281 -1.1939363 32
-3.54024 3.7345498 -1.2853991 35
-3.5286119 3.7222834 -1.7644494 18
-2.7311809 2.8810847 -1.8505138 8
-1.679739 1.796894 0.64929587 9
-2.0624194 2.2062647 0.58360803 11
-3.6249943 3.8778229 0.74263269 23
-3.622087 3.8747129 0.46049953 20
-3.5899918 3.8403792 0.27045017 19
-3.5981538 3.8491104 0.17782885 23
-6.2219629 7.7109656 0.27554879 33
-3.816328 3.5302472 0.11398181 28
-3.6024716 3.8537292 0.084529094 20
-6.2190261 7.7073259 0.10025558 36
-3.8172112 3.5310643 0.021963159 33
-3.6029291 3.8542187 -0.0087479353 24
-6.2141447 7.7012763 -0.074613377 36
-3.8051562 3.519913 -0.069665864 20
-3.5694878 3.818445 -0.10109406 34
-6.1972761 7.6803708 -0.24911778 36
-3.7977874 3.5130966 -0.16104709 29
-3.5840826 3.8340578 -0.1945596 38
-6.2236519 7.7130585 -0.42578533 38
-3.8215029 3.5350344 -0.25415072 35
-3.5757222 3.8251143 -0.28678793 32
-6.2179713 7.7060189 -0.60041708 38
-3.8146818 3.5287244 -0.34578931 32
-3.5853364 3.8353989 -0.38048622 34
-6.2128634 7.6996884 -0.77517462 35
-3.8066998 3.5213408 -0.43681708 28
-3.5530112 3.8008194 -0.46910599 38
-6.2083602 7.6941075 -0.9495244 35
-3.8092468 3.5236969 -0.52901161 33
-3.5495682 3.7971361 -0.56062913 41
-3.5613024 3.8096888 -0.6549288 33
-3.5665095 3.815259 -0.74831748 32
-3.5570381 3.8051269 -0.83944237 34
-3.5601025 3.8084052 -0.93238199 32
-3.543246 3.7903731 -1.0205013 32
-3.5575964 3.8057244 -1.1169386 30
-3.5362206 3.7828577 -1.2020768 33
-3.5352829 3.7818544 -1.2931541 37
-3.5283689 3.7744584 -1.7774615 18
-2.7134762 2.9027302 -1.8522037 8
-1.6776394 1.8199508 0.6533795 10
-2.0602767 2.2350466 0.58740264 11
-3.6381099 3.9467247 0.75094575 24
-3.6273613 3.9350643 0.46465129 24
-3.5928781 3.897656 0.2727108 21
-3.6091299 3.9152863 0.17971776 21
-6.1381097 7.7166643 0.27421439 31
-3.771173 3.5376525 0.11336807 28
-3.5971675 3.9023092 0.085041784 20
-6.1252284 7.7004704 0.099607721 38
-3.7749631 3.5412078 0.02186179 45
-3.6138909 3.9204512 -0.0088407863 25
-6.1253681 7.7006459 -0.074191153 34
-3.7600706 3.5272374 -0.06928958 17
-3.5671401 3.8697345 -0.1017902 34
-6.1161242 7.6890244 -0.24800745 36
-3.7469258 3.5149066 -0.15992698 28
-3.5843229 3.888375 -0.19604141 36
-6.1373115 7.715661 -0.42355338 41
-3.767592 3.5342932 -0.25220022 31
-3.5868313 3.8910961 -0.2898505 31
-6.1292253 7.7054954 -0.5970276 37
-3.7579341 3.5252333 -0.34286788 36
-3.5828106 3.8867347 -0.38308832 35
-6.1192389 7.6929407 -0.77017552 36
-3.7529533 3.520561 -0.43345955 31
-3.5587933 3.8606799 -0.4734163 36
-6.1297073 7.7061009 -0.94570029 37
-3.7555313 3.5229793 -0.5249548 33
-3.5580158 3.8598363 -0.56620538 41
-3.5642107 3.8665566 -0.66041148 33
-3.5719934 3.8749995 -0.75512552 29
-3.5518007 3.8530941 -0.8445338 37
-3.5547798 3.8563256 -0.9380157 32
-3.5619221 3.864074 -1.0336242 33
-3.5707054 3.8736024 -1.1295167 28
-3.5440583 3.8446949 -1.2138352 30
-3.5403593 3.840682 -1.3047867 33
-3.5301342 3.8295898 -1.791775 17
-2.6931467 2.9216018 -1.8522037 9
-1.6831026 1.8516518 0.66052586 10
-2.0604727 2.2668126 0.59195614 10
-3.6317844 3.9954784 0.75537938 6
-3.6319659 3.9956782 0.46880305 3
-3.5951359 3.9551599 0.2749714 20
-3.6139758 3.9758863 0.18133685 21
-6.04708 7.7121305 0.27254644 35
-3.7203069 3.5390873 0.11257897 28
-3.6021185 3.9628417 0.08581081 16
-6.0417037 7.7052741 0.099121831 35
-3.7182696 3.5371492 0.021675948 38
-3.6160285 3.9781446 -0.0089137414 24
-6.0369058 7.6991549 -0.073768929 33
-3.7063756 3.5258346 -0.068752035 31
-3.5803874 3.9389343 -0.10295042 32
-6.0302196 7.6906276 -0.24669524 35
-3.7049158 3.5244458 -0.15918024 37
-3.5974193 3.9576719 -0.19826409 34
-6.0512409 7.7174373 -0.42132145 41
-3.7109847 3.5302191 -0.25005466 29
-3.5918164 3.9515078 -0.29247555 32
-6.0457177 7.710393 -0.59412235 36
-3.7043145 3.5238738 -0.34021208 31
-3.5851073 3.9441268 -0.38626868 32
-6.0383167 7.7009544 -0.76673859 37
-3.699405 3.5192034 -0.43010199 26
-3.5612299 3.9178586 -0.4773674 35
-6.029079 7.6891732 -0.93843448 36
-3.6991298 3.5189416 -0.52049226 38
-3.5577321 3.9140103 -0.57049483 39
-3.5638254 3.9207139 -0.66539574 36
-3.5741501 3.9320724 -0.76136625 29
-3.5513771 3.9070189 -0.85089803 33
-3.5622013 3.918927 -0.9471705 31
-3.5586183 3.9149854 -1.0405717 31
-3.5646214 3.9215896 -1.1362251 28
-3.5354764 3.8895259 -1.2201667 27
-3.5473938 3.902637 -1.3173887 32
-3.5440192 3.8989241 -1.8125944 15
-2.6653688 2.9322839 -1.8471339 9
-1.6804602 1.8748771 0.66460949 11
-2.0524611 2.2899158 0.59423286 10
-5.3620768 5.9824295 1.1239247 17
-6.8621955 7.6561007 0.89262867 24
-6.9002428 7.6985502 0.53185797 22
-6.9081044 7.7073216 0.3493163 25
-5.9637537 7.7161922 0.27121204 32
-3.6609714 3.5316563 0.11152682 31
-6.8924646 7.6898723 0.16546939 21
-5.9633074 7.7156153 0.098716922 37
-3.6503031 3.5213649 0.021422528 35
-6.888 7.6848907 -0.017111199 25
-5.9585514 7.7094617 -0.073467337 34
-3.6528847 3.5238552 -0.068214491 28
-3.5821631 3.996593 -0.10380125 31
-5.9397063 7.6850786 -0.24518116 36
-3.6543233 3.525243 -0.15806013 31
-3.5883775 4.0035262 -0.19930135 24
-5.9630055 7.7152243 -0.41891783 42
-3.6603703 3.5310767 -0.2482992 34
-3.5828028 3.9973068 -0.29400685 7
-5.9526801 7.7018647 -0.5902487 35
-3.6623881 3.5330229 -0.33861858 37
-6.8912954 7.6885676 -0.74825102 31
-5.9380765 7.68297 -0.76080215 37
-3.6604028 3.5311077 -0.42842323 30
-3.5630403 3.9752579 -0.48131853 36
-5.9460368 7.6932693 -0.93384558 34
-3.657289 3.5281041 -0.51805818 35
-3.5674815 3.9802132 -0.57650006 39
-3.5734522 3.9868743 -0.67237365 29
-3.5730398 3.9864142 -0.7670396 9
-3.5635507 3.9758275 -0.86044437 31
-3.566292 3.9788857 -0.95562112 29
-3.5704937 3.9835737 -1.0521507 31
-3.5710926 3.9842417 -1.1471262 27
-3.5446451 3.9547346 -1.2328297 28
-3.5433736 3.953316 -1.3261131 32
-3.5369098 3.9461043 -1.8230041 14
-2.639993 2.9454207 -1.8437539 9
-1.6955032 1.9184406 0.67583942 10
-2.0520294 2.3218455 0.59878641 11
-5.3674021 6.0731478 1.1339004 19
-6.7795506 7.6709762 0.88882291 27
-6.8066483 7.7016368 0.52877533 25
-6.8038282 7.6984463 0.34675276 27
-5.8806629 7.7194715 0.26987767 33
-3.6190746 3.5403497 0.11100075 36
-6.7988834 7.6928511 0.1645081 21
-5.8680916 7.7029691 0.098028578 35
-3.6256306 3.5467632 0.021422528 48
-6.7891507 7.6818385 -0.016998451 29
-5.8730736 7.7095094 -0.073075272 36
-3.6167583 3.5380838 -0.067999475 35
-6.82232 7.7193694 -0.1992489 40
-5.8568311 7.6881876 -0.24396989 34
-3.6067598 3.5283029 -0.15706447 43
-6.821559 7.7185082 -0.38185841 40
-5.8775148 7.7153392 -0.41668588 40
-3.6099262 3.5314002 -0.24654375 32
-6.805449 7.7002797 -0.56285685 38
-5.8721509 7.7082977 -0.58758557 38
-3.6119564 3.5333862 -0.33622831 45
-6.8004637 7.6946387 -0.74420327 40
-5.8093815 7.6259012 -0.75111639 33
-3.60432 3.5259161 -0.42472991 41
-5.6484075 6.3911023 -0.76903206 1
-5.8559899 7.6870837 -0.92810941 38
-3.6041229 3.5257232 -0.51400131 53
-6.8158517 7.7120504 -1.1101058 43
-6.8072109 7.7022738 -1.2909175 37
-6.7939439 7.6872621 -1.4699701 36
-6.8282051 7.726028 -1.6617013 33
-6.8134937 7.7093825 -1.8401164 25
-6.5029902 7.3580518 -1.9313874 3
-5.8742371 6.6466255 -1.9018145 3
-3.5375919 4.0027409 -1.2400657 6
-5.0139675 5.6732411 -1.8912622 5
-3.5643814 4.0330524 -1.8516309 7
-2.6265686 2.9719293 -1.8488238 8
-1.6973138 1.9477252 0.68196487 10
-2.0538311 2.3568408 0.6040988 11
-5.3691158 6.1612425 1.1433219 21
-6.6839423 7.6700506 0.88328719 29
-6.7054744 7.6947589 0.52507615 24
-6.7105207 7.7005506 0.34472892 27
-5.7978182 7.7219672 0.2685433 33
-3.5971093 3.5683458 0.11108843 42
-6.7029691 7.6918845 0.16348274 21
-5.7877545 7.7085638 0.097583175 37
-3.6007812 3.5719883 0.021422528 44
-6.6959367 7.683815 -0.016898967 27
-5.7878871 7.7087402 -0.072683208 38
-3.5891302 3.5604305 -0.067945719 29
-6.7235956 7.7155542 -0.19793397 42
-5.779006 7.6969113 -0.2429605 36
-3.5905547 3.5618436 -0.15743785 34
-6.7254891 7.7177272 -0.37948754 42
-5.7971144 7.7210298 -0.41479731 39
-3.5880208 3.55933 -0.24673879 46
-6.7042933 7.6934037 -0.55891925 39
-5.7894263 7.7107902 -0.58468032 38
-3.5701997 3.5416515 -0.33463481 50
-6.7098837 7.6998191 -0.74015558 38
-5.6889596 7.5769811 -0.74236792 22
-3.5824463 3.5538001 -0.42506567 42
-5.661232 6.4964557 -0.77693433 7
-5.7782745 7.6959376 -0.92428529 38
-3.5991969 3.5704167 -0.51684111 40
-6.7200408 7.7114749 -1.1032426 41
-6.7115536 7.7017355 -1.2829428 36
-6.695888 7.6837587 -1.4603254 35
-6.7377777 7.7318282 -1.6527914 32
-6.7207022 7.712234 -1.8295531 24
-6.4205198 7.3677645 -1.9221241 7
-5.8302608 6.6904221 -1.902653 4
-5.3680162 6.1599808 -1.8967307 5
-4.9742384 5.7081075 -1.8912622 5
-3.5411079 4.0635414 -1.8542333 5
-2.6105201 2.9956605 -1.8522037 8
-1.7114002 1.9917949 0.69319481 8
-2.0680408 2.4068675 0.61320585 11
-5.3543696 6.231627 1.1494181 25
-6.5782919 7.6560755 0.87636763 19
-6.6177478 7.7019958 0.52240455 24
-6.6201234 7.7047606 0.34283999 25
-5.7080922 7.7140431 0.26687533 33
-3.5777483 3.5990436 0.11126379 31
-6.6152225 7.6990571 0.16264962 21
-5.7100067 7.7166305 0.097178265 36
-3.5898561 3.6112235 0.021507001 35
-6.6108489 7.6939669 -0.01681938 27
-5.7101364 7.7168059 -0.072381616 35
-3.5952034 3.6166024 -0.068537019 26
-6.6356854 7.7228723 -0.19692844 40
-5.6918306 7.6920671 -0.24154735 35
-3.5937874 3.6151781 -0.15868241 31
-6.6349754 7.7220464 -0.37741303 38
-5.7097912 7.7163391 -0.41239369 41
-3.5715344 3.5927927 -0.24732395 35
-6.6191854 7.7036691 -0.5562942 37
-5.706955 7.7125063 -0.58177507 40
-3.576339 3.597626 -0.33755624 39
-6.606566 7.6889825 -0.73466223 39
-5.6382957 7.6197186 -0.74268037 15
-3.5828393 3.6041648 -0.42808747 33
-5.644299 6.5690579 -0.78088546 13
-5.6983538 7.7008824 -0.92007881 36
-3.5910156 3.6123898 -0.51927519 37
-6.6297565 7.7159724 -1.0972375 45
-6.6239977 7.70927 -1.2764633 37
-6.6111169 7.6942787 -1.4535173 35
-6.6398849 7.7277598 -1.6419722 39
-6.6282058 7.7141676 -1.81899 25
-6.38939 7.436224 -1.9282997 4
-5.7579222 6.7012973 -1.8942676 4
-5.3147235 6.1854849 -1.8931127 4
-4.9342675 5.7426949 -1.8912622 6
-3.5249782 4.1025085 -1.8607394 6
-2.5848174 3.0083127 -1.8488238 8
-2.1074414 2.4876499 0.86062336 3
-2.0664186 2.4392259 0.61775935 11
-5.3696289 6.3383756 1.1621648 22
-6.496347 7.6683674 0.87256181 26
-6.5302482 7.708385 0.51973289 21
-6.5274105 7.7050357 0.34081614 26
-5.635252 7.7278595 0.26598573 30
-3.583329 3.6553462 0.11222825 32
-6.5225334 7.6992784 0.16168833 22
-5.6512814 7.7498417 0.097097285 27
-3.5869584 3.6590486 0.021642158 35
-6.5130191 7.6880474 -0.016706632 28
-5.6584806 7.7597146 -0.072411776 27
-3.5922663 3.664463 -0.068967052 25
-6.5350761 7.7140841 -0.19553618 41
-5.6639075 7.7671566 -0.24265768 25
-3.5908513 3.6630194 -0.15967807 34
-6.5343957 7.7132807 -0.37474582 41
-5.6322351 7.7237225 -0.41067681 42
-3.5659425 3.6376102 -0.24868931 35
-6.5187712 7.6948376 -0.5523566 39
-5.6270947 7.7166734 -0.57911193 33
-3.5706935 3.6424565 -0.33941531 39
-6.5166221 7.6923008 -0.73061448 39
-5.6366534 7.7297816 -0.74955416 21
-3.5743318 3.646168 -0.43010199 31
-5.6472278 6.6660571 -0.78771013 17
-5.6350689 7.7276087 -0.91854918 25
-3.5824232 3.6544218 -0.52170932 40
-6.5371671 7.7165523 -1.0908033 46
-6.5315342 7.7099028 -1.2689868 39
-6.5239668 7.7009702 -1.446142 34
-6.547483 7.7287288 -1.6324259 36
-6.5283761 7.7061753 -1.806314 29
-6.3094125 7.4477081 -1.9198084 7
-5.7135258 6.7443161 -1.8951061 3
-5.2663741 6.2164927 -1.8913037 4
-4.8764963 5.7562757 -1.8844765 6
-3.4864717 4.1154737 -1.8555346 6
-2.5567219 3.0179861 -1.8437539 8
-2.1197743 2.5379217 0.8728742 4
-2.0568922 2.4626353 0.62003607 11
-5.355721 6.4121923 1.1688153 17
-6.404335 7.6676559 0.86737216 26
-6.4327407 7.7016654 0.51623929 26
-6.440145 7.7105298 0.33906212 26
-5.6371622 7.8449426 0.2686545 26
-3.5855193 3.709024 0.11310504 31
-6.4250379 7.6924429 0.16059887 23
-5.6507225 7.8638144 0.098028578 27
-3.5891292 3.7127581 0.021811105 33
-6.4309816 7.6995592 -0.016633678 29
-5.6601882 7.876987 -0.073135592 25
-3.5888371 3.712456 -0.069397092 27
-6.4477339 7.7196164 -0.19453065 40
-5.6632133 7.881197 -0.24497928 26
-3.5929811 3.7167428 -0.16092263 30
-6.4470758 7.7188277 -0.37281948 41
-5.6201525 7.8212714 -0.41376719 31
-3.5626769 3.6853948 -0.25024971 35
-6.4290476 7.6972437 -0.54929405 37
-5.6243429 7.8271031 -0.5844382 28
-3.5729194 3.6959901 -0.34207115 39
-6.4243989 7.691678 -0.72627765 44
-5.638401 7.8466668 -0.75705284 22
-3.5681839 3.6910913 -0.43245226 34
-5.6465216 6.7603564 -0.79417557 16
-5.6437163 7.8540635 -0.92887425 26
-3.5761855 3.6993687 -0.52454907 39
-6.4423456 7.7131648 -1.0839401 43
-6.4419308 7.7126679 -1.2620089 38
-6.4319711 7.7007437 -1.4376318 34
-6.4579253 7.7318177 -1.623516 36
-6.4441276 7.7152987 -1.7978635 28
-6.2698441 7.5066352 -1.923668 4
-5.6562734 6.7720318 -1.8917519 4
-5.215353 6.2441354 -1.8885902 5
-4.8386784 5.7931576 -1.8854458 7
-3.4649293 4.1484222 -1.8594382 6
-2.5379145 3.0385442 -1.8454438 9
-2.0798783 2.5257888 0.86368603 8
-2.0571251 2.4981575 0.62534851 11
-3.3265057 4.0396833 0.73210281 3
-6.3202505 7.6752653 0.86322039 27
-6.3381872 7.6970472 0.51295114 23
-6.342957 7.7028394 0.33676842 29
-5.6400199 7.9656882 0.27143446 25
-3.5816128 3.7571216 0.11380646 31
-6.3355846 7.6938868 0.15970168 21
-5.6534681 7.9846821 0.099040851 25
-3.5879614 3.7637813 0.021963159 33
-6.3313041 7.6886883 -0.016514298 27
-5.6628428 7.9979219 -0.073889561 29
-3.5849099 3.7605801 -0.069827124 25
-6.3530087 7.7150464 -0.19329308 40
-5.6681318 8.0053921 -0.24760368 25
-3.5945323 3.770674 -0.16216721 30
-6.352376 7.7142777 -0.37044859 42
-5.6231451 7.941855 -0.41805938 33
-3.5644281 3.7390947 -0.25220022 33
-6.3472266 7.7080245 -0.54688776 37
-5.6341634 7.957417 -0.5912171 29
-3.5718143 3.7468429 -0.34446138 35
-6.3375759 7.6963053 -0.72251904 41
-5.6364837 7.9606938 -0.76423907 24
-3.5780814 3.753417 -0.43681708 30
-5.6447711 6.8549681 -0.80064106 17
-5.6416659 7.9680133 -0.93766963 27
-3.5804753 3.7559283 -0.52901161 36
-6.3478923 7.7088327 -1.0770772 46
-6.3425174 7.7023058 -1.2530373 38
-6.3453321 7.7057238 -1.4302565 36
-6.363625 7.7279387 -1.6133332 41
-6.3475575 7.7084265 -1.7858918 32
-6.1748714 7.4987183 -1.9105451 8
-5.6038857 6.8053169 -1.8900748 5
-5.1567726 6.2623463 -1.8831632 5
-4.7857823 5.8118181 -1.880599 7
-3.4286704 4.1637516 -1.8555346 7
-2.5212488 3.0617857 -1.8488238 8
-2.0500076 2.5252333 0.85858154 2
-2.0619135 2.5398991 0.63217878 11
-3.3206949 4.090487 0.73709065 4
-6.2238193 7.6666031 0.85733873 38
-6.2540879 7.7038889 0.51048499 26
-6.2562752 7.706583 0.33501443 27
-5.6414638 8.0868521 0.27421439 24
-3.5826864 3.8111718 0.11468324 27
-6.2388673 7.6851401 0.15861222 20
-5.6525097 8.1026859 0.10001263 25
-3.5889945 3.8178823 0.022132106 32
-6.2421803 7.6892214 -0.016421447 29
-5.6640811 8.1192732 -0.074643537 26
-3.585963 3.8146574 -0.070364669 23
-6.258667 7.7095294 -0.19205551 41
-5.6670141 8.1234779 -0.25002623 25
-3.5955043 3.8248074 -0.16341177 28
-6.2656174 7.7180915 -0.36852226 42
-5.6201525 8.056303 -0.42200819 30
-3.5683384 3.7959089 -0.25434577 31
-6.252986 7.7025318 -0.54338765 42
-5.6332984 8.0751476 -0.5970276 27
-3.572906 3.8007677 -0.34711722 34
-6.253521 7.7031903 -0.71904957 41
-5.6378098 8.0816145 -0.77205014 24
-3.581821 3.8102512 -0.44051039 29
-5.6369548 6.9436941 -0.80638814 16
-5.6428542 8.0888453 -0.94722992 26
-3.5841482 3.812727 -0.53347415 35
-6.263845 7.7159081 -1.0719298 46
-6.2610784 7.7124996 -1.2475547 40
-6.2589421 7.7098684 -1.4228811 35
-6.2771659 7.732317 -1.6050597 34
-6.2638106 7.7158656 -1.7774411 33
-6.1050582 7.5203114 -1.9051416 4
-5.5537772 6.8412347 -1.8892363 4
-5.1104746 6.295167 -1.8822587 4
-4.7353106 5.833034 -1.8767215 6
-3.3995204 4.1875854 -1.8555346 7
-2.4952435 3.0736821 -1.8454438 9
-2.0202453 2.5243855 0.853477 3
-2.0637629 2.5787625 0.63825011 12
-3.3093836 4.1352201 0.74097008 7
-6.140265 7.6725307 0.85318696 31
-6.1602154 7.6974597 0.50719684 24
-6.1648517 7.7032533 0.33299059 27
-5.6437573 8.2117138 0.27710554 24
-3.5831785 3.8654189 0.11556002 26
-6.165071 7.7035275 0.15809953 21
-5.6569772 8.2309494 0.10110588 25
-3.597604 3.8809805 0.022351738 30
-6.153357 7.68889 -0.016328594 27
-5.6684341 8.2476187 -0.075457834 25
-3.5973113 3.8806646 -0.071117237 22
-6.1797028 7.7218099 -0.19128203 40
-5.6667905 8.2452269 -0.25254971 25
-3.5931761 3.876204 -0.16453189 28
-6.1816111 7.724195 -0.36674413 41
-5.6226282 8.1809702 -0.42647207 30
-3.5634797 3.8441682 -0.25590616 30
-6.1616263 7.6992226 -0.54010636 37
-5.6310649 8.1932459 -0.6028381 29
-3.567991 3.849035 -0.34924188 33
-6.1621985 7.6999378 -0.71471274 42
-5.6399827 8.2062216 -0.78017372 25
-3.574101 3.8556261 -0.44286066 28
-5.6331472 7.0388651 -0.81285363 18
-5.6426311 8.2100754 -0.95679015 24
-3.5817904 3.8639214 -0.53712529 34
-6.180006 7.7221889 -1.0667825 46
-6.1723647 7.7126412 -1.2405767 37
-6.1678538 7.7070045 -1.4143711 36
-6.1835513 7.7266192 -1.5948769 35
-6.1704268 7.7102199 -1.7661737 33
-6.0499558 7.5596852 -1.9043696 6
-5.5034375 6.8767867 -1.8883978 6
-5.0737057 6.339818 -1.8849722 5
-4.7065973 5.8811002 -1.8815683 6
-3.3702028 4.2112164 -1.8555346 6
-2.4714589 3.0881965 -1.8437539 9
-1.9762229 2.5050275 0.84224701 2
-2.0603042 2.6116076 0.64280361 11
-3.3172374 4.2048755 0.74928313 8
-6.0643363 7.6870527 0.8500731 30
-6.0791106 7.70578 0.50493628 24
-6.0688291 7.6927476 0.33069688 26
-5.6423335 8.3336878 0.2798855 24
-3.5830865 3.9198568 0.11643681 25
-6.0739827 7.6992803 0.15713824 21
-5.6576805 8.3563557 0.10215865 26
-3.597409 3.9355257 0.022520686 31
-6.0648437 7.687696 -0.016235743 27
-5.6667795 8.3697948 -0.07621181 25
-3.594418 3.9322534 -0.071601026 23
-6.0884886 7.7176676 -0.19012181 41
-5.6673775 8.3706779 -0.25517413 26
-3.598397 3.9366064 -0.16602536 28
-6.0854473 7.7138124 -0.36422506 42
-5.6236296 8.3060627 -0.43093595 29
-3.568902 3.9043393 -0.25824678 29
-6.073092 7.6981511 -0.53704375 39
-5.636405 8.3249321 -0.60961699 29
-3.5679607 3.9033093 -0.35189772 33
-6.0786405 7.705184 -0.71124321 42
-5.6429186 8.3345528 -0.78860968 24
-3.5793672 3.9157879 -0.44688973 31
-5.6258168 7.1311922 -0.81895989 17
-5.6454477 8.3382883 -0.96711522 26
-3.5923157 3.9299533 -0.54280484 32
-6.0865335 7.7151895 -1.0599194 47
-6.0814972 7.7088056 -1.2331004 41
-6.0795641 7.7063551 -1.4064283 36
-6.097661 7.7292948 -1.5866034 36
-6.0847449 7.7129221 -1.7570189 36
-5.9824457 7.5832496 -1.8997381 4
-5.4383368 6.8935461 -1.8825279 4
-5.0196681 6.3628483 -1.8813542 5
-4.6582136 5.9046745 -1.8786602 6
-3.3313494 4.2227635 -1.8503296 6
-2.4520845 3.1082218 -1.8454438 8
-1.9586865 2.5187631 0.84224701 6
-2.0685415 2.6600304 0.65115172 10
-3.3121192 4.259203 0.75482517 9
-5.9762754 7.6851611 0.84522939 25
-5.9932871 7.707037 0.50226462 27
-5.9953437 7.709682 0.3296175 27
-5.6439157 8.4626932 0.28288785 24
-3.5877628 3.9804213 0.11748895 25
-5.9857116 7.6972952 0.15624104 20
-5.6591239 8.4854965 0.1032519 26
-3.5966272 3.9902558 0.022689631 29
-5.9889269 7.7014298 -0.016176052 28
-5.6725688 8.5056562 -0.077086419 28
-3.5963345 3.9899311 -0.072192326 12
-6.0025458 7.7189431 -0.18911628 41
-5.6753612 8.5098429 -0.25820231 25
-3.6002715 3.9942989 -0.16739438 4
-6.0044546 7.7213984 -0.36259508 43
-5.6253729 8.4348898 -0.43557152 29
-3.5763314 3.9677389 -0.26078242 28
-5.9897795 7.702527 -0.5344187 38
-5.6357465 8.4504433 -0.61591166 27
-3.5807064 3.9725926 -0.35588148 31
-5.9928627 7.7064915 -0.70748466 40
-5.6465478 8.4666395 -0.79735816 25
-3.5866349 3.9791701 -0.45125455 27
-5.6590438 7.2772188 -0.83117247 28
-5.651165 8.4735632 -0.97820514 26
-3.5994277 3.9933629 -0.54807878 33
-6.0007858 7.71668 -1.0543431 44
-6.0007319 7.7166109 -1.2276177 38
-5.9940171 7.7079759 -1.399053 38
-6.0120378 7.7311497 -1.5783299 34
-6.0065794 7.7241302 -1.7499768 34
-5.9173131 7.6093388 -1.8958783 6
-5.3948803 6.9375191 -1.8842051 4
-4.9631658 6.3823576 -1.8768317 4
-4.6049666 5.9217339 -1.8738133 6
-3.2994661 4.2429318 -1.8490285 7
-2.4258742 3.1195407 -1.8420639 8
-1.9434073 2.5354457 0.84326792 4
-2.0762014 2.708694 0.65949982 10
-3.3088126 4.3168073 0.76092142 9
-5.8909621 7.6855807 0.84073168 24
-5.9126039 7.7138157 0.50000405 27
-5.9073257 7.7069292 0.32772857 27
-5.6505547 8.6021461 0.2862238 23
-6.8514538 7.7088456 0.22612239 32
-5.9026313 7.7008052 0.15547201 21
-5.6612334 8.6184034 0.10438565 27
-6.845068 7.7016606 0.043520842 38
-5.9033809 7.7017832 -0.016089834 30
-5.6745386 8.6386585 -0.077930868 25
-6.8312254 7.6860862 -0.13820288 28
-5.9193158 7.7225723 -0.18818811 41
-5.6772838 8.6428375 -0.26102859 25
-6.8285346 7.6830587 -0.31997842 33
-5.9260859 7.7314048 -0.36111331 43
-5.6277833 8.5674801 -0.44037879 28
-6.8529105 7.7104845 -0.50362021 35
-5.9115624 7.7124572 -0.53223115 40
-5.6357994 8.5796833 -0.6224485 27
-6.8432813 7.6996503 -0.68547022 35
-5.9049363 7.7038126 -0.70343691 41
-5.6420364 8.5891781 -0.80516928 25
-6.8368587 7.6924243 -0.8669191 32
-5.7389731 7.4872899 -0.85056889 45
-5.6552658 8.6093187 -0.98929501 25
-5.6889596 6.4008765 -0.87303144 7
-5.9201541 7.7236662 -1.0496247 44
-5.9201546 7.7236667 -1.2221351 36
-5.9039273 7.7024961 -1.390543 36
-5.9266868 7.7321887 -1.5700564 39
-5.9141817 7.7158742 -1.7387093 33
-5.8473315 7.6286588 -1.8904748 5
-5.3344197 6.9594936 -1.8800123 4
-4.9232278 6.4230366 -1.8786407 5
-4.5658736 5.9568181 -1.8747827 6
-3.2743666 4.2718678 -1.8516309 6
-2.4062421 3.1392779 -1.8437539 9
-1.9303218 2.5551231 0.84530973 2
-2.0809143 2.7544589 0.66708905 8
-3.3168015 4.3903747 0.76978868 9
-5.8035331 7.6820045 0.83588797 25
-5.8273034 7.713469 0.49733242 24
-5.8220501 7.7065148 0.32597458 27
-5.6555185 8.7421007 0.28955972 23
-6.7632046 7.717392 0.22498257 31
-5.8149738 7.6971488 0.15457481 21
-5.6552424 8.7416744 0.10539792 25
-6.7542243 7.7071447 0.043284316 36
-5.815712 7.6981258 -0.015996981 28
-5.6770978 8.7754574 -0.078805484 25
-6.7431302 7.6944857 -0.13750407 27
-5.8266864 7.7126517 -0.18695053 42
-5.6863112 8.7896996 -0.26425865 22
-6.7325687 7.6824341 -0.31798711 30
-5.8285947 7.7151785 -0.35844606 46
-5.6329551 8.7072229 -0.4455294 28
-6.7620492 7.7160735 -0.50088954 34
-5.8262768 7.71211 -0.52938735 40
-5.6408262 8.7193899 -0.62971157 25
-6.747272 7.6992116 -0.68122089 37
-5.819747 7.7034669 -0.6996783 40
-5.6404185 8.7187595 -0.81360525 26
-6.7383294 7.6890073 -0.86121124 31
-5.8138375 7.6956444 -0.86960608 38
-5.6534176 8.7388535 -0.99962008 26
-5.6939659 6.4972997 -0.88073945 2
-5.8301296 7.7172098 -1.0431906 46
-5.8278112 7.7141409 -1.2141603 37
-5.8261423 7.7119322 -1.3848696 35
-5.8416157 7.7324133 -1.561783 36
