# .PCD v0.7 - Point Cloud Data file format
VERSION 0.7
FIELDS x y z intensity
SIZE 4 4 4 4
TYPE F F F F
COUNT 1 1 1 1
WIDTH 1376
HEIGHT 1
VIEWPOINT 0 0 0 1 0 0 0
POINTS 1376
DATA ascii
5.5074573 -5.5712657 -1.6796007 4
5.1059666 -5.1651235 -1.6859828 4
4.7580886 -4.8132148 -1.6906003 5
3.5393138 -3.5803196 -1.7319189 7
2.6379924 -2.6685557 -1.7491157 11
3.7404294 -3.8396578 1.414975 18
3.8832381 -3.9862552 1.075387 23
3.9943299 -4.1002936 0.80082405 2
7.4856486 -7.6842327 0.93137842 3
13.809155 -14.175492 1.0180929 25
13.864181 -14.231978 0.67056853 29
13.847863 -16.456524 0.59813434 32
13.812147 -12.258688 0.40489849 34
13.900994 -14.269769 0.3192111 23
13.885985 -16.501829 0.21832716 40
13.854234 -12.296041 0.07823953 40
13.941835 -14.311693 -0.033128079 25
11.102346 -13.193807 -0.13001548 0
13.874047 -12.313626 -0.24931347 29
10.630548 -12.633131 -0.41677767 0
13.913435 -12.348584 -0.57909745 29
12.161113 -12.48373 -0.64606237 0
10.549516 -12.536834 -0.70391929 0
13.855806 -12.297437 -0.90444887 33
12.176337 -12.499358 -0.95574099 1
10.50904 -12.488733 -0.98971975 0
13.898413 -12.335251 -1.2365553 35
12.101444 -12.422479 -1.2568189 2
10.519282 -12.500905 -1.2800847 0
12.031345 -12.35052 -1.554587 2
10.746735 -12.771205 -1.6030633 1
11.416817 -10.132762 -1.5562029 3
10.32325 -10.597111 -1.5956697 2
9.0310421 -9.2706232 -1.6253599 2
8.0014868 -8.2137556 -1.6430079 2
7.164578 -7.3546443 -1.6547008 3
6.4979925 -6.6703753 -1.6654708 3
5.9183159 -6.0753207 -1.6681567 3
5.4828448 -5.6282969 -1.6846319 4
5.0679674 -5.2024136 -1.6859828 4
4.73351 -4.8590832 -1.6944778 5
3.5156131 -3.6088774 -1.7332202 7
2.6208899 -2.6904185 -1.7508057 11
3.6947768 -3.8461535 1.4078287 18
3.8335481 -3.9906101 1.0693156 26
3.9848175 -4.148077 0.80470347 1
7.4815125 -7.788033 0.9376061 2
13.823319 -14.389667 1.0265187 28
13.858648 -14.426443 0.67515594 31
13.860292 -16.706661 0.6036942 30
13.818371 -12.437752 0.40761653 34
13.889697 -14.458763 0.32126182 24
13.893033 -16.746124 0.22027074 41
13.863191 -12.478093 0.078780159 43
13.941339 -14.512522 -0.03336684 23
9.5516787 -11.513224 -0.11279468 0
13.882872 -12.495809 -0.25103363 29
12.207144 -12.707275 -0.34079605 0
9.5489073 -11.509884 -0.37751237 21
13.916035 -12.525658 -0.58283114 30
12.009972 -12.502026 -0.64265424 0
10.395396 -12.530209 -0.69945544 0
13.87058 -12.484744 -0.9110806 39
11.969799 -12.460207 -0.94633454 0
9.5675783 -11.532389 -0.90861499 6
13.900952 -12.512082 -1.2445228 35
11.959147 -12.449119 -1.2510364 0
9.5354958 -11.493718 -1.1701044 27
13.304832 -11.975521 -1.5078751 7
11.977947 -12.468689 -1.5588974 1
9.5132818 -11.466943 -1.4309788 34
11.331011 -10.198908 -1.5541744 3
10.254526 -10.674658 -1.5965277 2
8.9880953 -9.3563414 -1.6293472 2
7.957665 -8.2836933 -1.6458446 2
7.1212654 -7.4130268 -1.65661 2
6.4567208 -6.7212558 -1.6668793 3
5.8947911 -6.1363034 -1.6735604 3
5.421742 -5.6438727 -1.6779236 4
5.0396218 -5.2460971 -1.6886963 4
4.7048488 -4.8976083 -1.6964166 5
3.4981937 -3.6415162 -1.7371238 6
2.5945084 -2.7008064 -1.7457359 10
3.6332586 -3.8353536 1.3945569 19
3.8082957 -4.0201268 1.0700746 26
3.96121 -4.1815467 0.80581188 1
7.4845119 -7.9008274 0.94487166 1
13.821425 -14.590223 1.0339171 25
13.848324 -14.618617 0.6796084 28
9.4499569 -11.553815 0.41510233 27
13.82572 -12.620191 0.41042221 34
13.895687 -14.668615 0.32376119 24
9.442996 -11.545305 0.15099072 39
13.858461 -12.650077 0.079253212 41
13.944217 -14.719845 -0.033618864 24
9.4254856 -11.523896 -0.11225182 34
13.892781 -12.681405 -0.25280753 29
12.013618 -12.68186 -0.33785683 0
9.4100933 -11.505076 -0.37519076 37
13.922744 -12.708755 -0.58681381 27
11.853674 -12.513018 -0.63894975 0
9.4398375 -11.541444 -0.64056659 29
13.862755 -12.653996 -0.91634691 39
11.780889 -12.436185 -0.93824059 0
9.4185839 -11.515457 -0.90207821 43
13.892855 -12.681472 -1.2516936 36
11.803352 -12.459897 -1.2438083 0
9.4121027 -11.507534 -1.1647928 47
13.303332 -12.143353 -1.5172763 4
11.904306 -12.566467 -1.5606933 1
9.3901415 -11.480683 -1.4244778 38
11.285986 -10.301908 -1.5578256 3
10.207103 -10.774859 -1.6008171 1
8.9525814 -9.4505558 -1.6348299 3
7.8996401 -8.3390465 -1.6458446 2
7.0693393 -7.4625616 -1.65661 2
6.4204721 -6.7776022 -1.6696961 4
5.8707023 -6.1972518 -1.6789639 3
5.4091058 -5.7099795 -1.686309 4
5.0055537 -5.2839808 -1.6896008 4
4.67588 -4.9359694 -1.6983553 6
3.4700847 -3.6631033 -1.7358227 6
2.5805767 -2.7241178 -1.7491157 6
3.5826335 -3.8351891 1.3853687 21
3.7854993 -4.0523558 1.0715923 25
3.9427378 -4.2206788 0.8080287 0
7.4917388 -8.0198641 0.95282924 0
13.822853 -14.797287 1.0417265 27
13.868733 -14.846402 0.68567997 28
9.3188696 -11.557254 0.41287836 35
13.810644 -12.784319 0.41261417 35
13.891231 -14.870484 0.32606825 24
9.3019094 -11.53622 0.15001895 41
13.866675 -12.836186 0.079810739 38
13.950336 -14.933757 -0.033884156 23
9.2971001 -11.530255 -0.1116788 38
13.894899 -12.862312 -0.25447392 30
11.85108 -12.686515 -0.33576843 0
9.2818546 -11.511348 -0.37327293 42
13.927568 -12.892554 -0.59079641 30
11.692354 -12.5166 -0.63494891 0
9.3013391 -11.535513 -0.63661772 44
13.856168 -12.82646 -0.92180836 36
11.650158 -12.471429 -0.93474054 0
9.2953558 -11.528092 -0.89796245 47
13.900639 -12.867625 -1.2604578 32
11.64527 -12.466197 -1.2362911 0
9.2814732 -11.510875 -1.1585439 42
13.229932 -12.246761 -1.5186193 4
11.843482 -12.678381 -1.5642853 1
9.2572784 -11.480868 -1.4164472 38
11.22255 -10.388557 -1.5590427 3
10.134347 -10.848762 -1.601246 2
8.9080601 -9.5360289 -1.6388173 2
7.8412304 -8.3939934 -1.6458446 2
7.0386353 -7.5348196 -1.6617013 2
6.3676238 -6.8165059 -1.6682878 4
5.8353319 -6.2466903 -1.6812798 3
5.3664408 -5.7447453 -1.6854705 4
4.9685431 -5.3187976 -1.6896008 5
4.6413064 -4.968493 -1.6983553 5
3.4392629 -3.6817117 -1.7332202 7
2.5540712 -2.7341192 -1.7440459 6
3.5426707 -3.8458834 1.3802643 21
3.741152 -4.0613523 1.0670389 27
7.0560646 -7.6599841 1.457001 21
9.1041164 -9.8833265 1.1666449 17
13.819355 -15.002136 1.0493302 28
13.873093 -15.060473 0.69107687 30
9.185709 -11.556299 0.4105432 39
13.826019 -12.978956 0.41577059 37
13.892759 -15.081823 0.32856762 25
9.1738567 -11.541387 0.14924961 42
13.867131 -13.01755 0.080334477 41
13.940594 -15.133752 -0.034116283 24
9.1616211 -11.525994 -0.1110153 43
13.883499 -13.032915 -0.2559253 26
11.710743 -12.713051 -0.33429879 0
9.1514997 -11.513261 -0.37125412 39
13.92467 -13.071564 -0.59453011 28
11.539693 -12.527361 -0.6313926 0
9.1733322 -11.540728 -0.63335568 45
13.865324 -13.015853 -0.92844003 41
11.484335 -12.467264 -0.92839664 0
9.1599913 -11.523944 -0.89263618 41
13.906493 -13.054501 -1.269222 34
11.482275 -12.465029 -1.2281957 0
9.1462955 -11.506714 -1.1516701 43
13.152828 -12.34701 -1.5196265 5
11.789773 -12.798844 -1.5689547 1
9.1298265 -11.485994 -1.4091814 38
11.172961 -10.488441 -1.5622882 2
10.090697 -10.954348 -1.6063933 1
8.8762274 -9.6359329 -1.6452968 3
7.79317 -8.4601774 -1.648114 2
6.9858623 -7.5837736 -1.6617013 2
6.3305531 -6.8723769 -1.6711046 4
5.7836037 -6.278615 -1.6789639 3
5.3394547 -5.796452 -1.6896632 5
4.9260116 -5.3476224 -1.6877918 4
4.6196547 -5.0150452 -1.7032022 7
3.4211645 -3.7139778 -1.7371238 6
2.5447471 -2.7625489 -1.7508057 6
3.4936733 -3.8435378 1.3710761 22
3.7114923 -4.0831695 1.0662799 27
6.9704671 -7.6685057 1.4497964 13
9.0303268 -9.9346437 1.165607 14
13.818972 -15.202834 1.0569341 27
13.880461 -15.270482 0.69647384 31
9.0521202 -11.544594 0.40798566 37
13.832354 -13.158571 0.4185763 33
13.916174 -15.309771 0.33151555 24
9.0502195 -11.542171 0.1484803 42
13.884822 -13.208483 0.080942683 41
13.955608 -15.353155 -0.034401469 23
9.040554 -11.529843 -0.11047244 38
13.895285 -13.218436 -0.25775293 27
11.56161 -12.719416 -0.33244243 0
9.0231276 -11.507619 -0.3691344 40
13.930365 -13.251808 -0.59851271 11
11.381072 -12.520799 -0.62724358 0
9.0546722 -11.547849 -0.63043702 45
13.853956 -13.179121 -0.93351138 28
11.326176 -12.460404 -0.92227149 0
9.0390177 -11.527884 -0.88827831 44
13.900576 -13.22347 -1.2766584 16
11.321531 -12.455295 -1.2198111 0
9.0230312 -11.507495 -1.1457337 44
12.83673 -12.211445 -1.4924304 2
11.750183 -12.926872 -1.5750611 1
8.9994001 -11.477358 -1.4007683 24
11.123337 -10.581511 -1.565128 2
10.036549 -11.041631 -1.609396 1
8.8254719 -9.7092752 -1.6477889 2
7.7342253 -8.5087481 -1.6475465 2
6.9566612 -7.6533165 -1.6667928 2
6.3060222 -6.9375215 -1.6767383 4
5.7603145 -6.3371654 -1.6843674 4
5.3140473 -5.8462081 -1.6938559 4
4.9140239 -5.4061251 -1.6959323 4
4.5836816 -5.0427017 -1.7022328 6
3.3990018 -3.7393854 -1.738425 7
2.5166149 -2.7686346 -1.7440459 7
3.4280348 -3.8246346 1.3557625 21
3.6802745 -4.1060567 1.065521 26
4.0004048 -4.4632239 0.83850992 1
8.9846869 -10.024153 1.1687208 13
13.82448 -15.423876 1.0655655 26
13.877576 -15.483115 0.70173579 31
8.92729 -11.550563 0.4059841 36
13.823622 -13.335333 0.42111897 35
13.915729 -15.525681 0.334079 24
8.9204998 -11.541778 0.14767048 43
13.867124 -13.377298 0.081381947 39
13.949533 -15.563396 -0.034653496 26
8.9133654 -11.532546 -0.10989942 41
13.894781 -13.403978 -0.25947309 25
11.403128 -12.72239 -0.3304314 0
8.9009981 -11.516545 -0.36741844 46
11.240024 -12.540417 -0.62427998 0
8.9273996 -11.550704 -0.62717491 31
11.164268 -12.455895 -0.91614634 0
8.8948355 -11.508571 -0.88198358 12
11.146428 -12.435992 -1.21027 9
8.8912621 -11.503948 -1.1391723 27
12.779856 -12.328436 -1.495788 3
11.691557 -13.044188 -1.5793713 2
8.9166193 -11.536756 -1.400386 5
11.054923 -10.664433 -1.5659393 2
9.9910707 -11.146968 -1.6145433 1
8.757473 -9.7706518 -1.6477889 2
7.6904912 -8.5802279 -1.6509506 2
6.9109678 -7.7105184 -1.668702 2
6.2653193 -6.9901733 -1.678851 4
5.7211714 -6.3830709 -1.6859113 4
5.2574406 -5.8656902 -1.6888247 4
4.8657589 -5.4286933 -1.6923143 4
4.5483646 -5.0745788 -1.7022328 6
3.3728127 -3.7630239 -1.738425 6
2.5093238 -2.7996352 -1.7524956 6
3.3781998 -3.822392 1.3465743 17
3.6567209 -4.1375351 1.0670389 27
3.9534082 -4.4732332 0.83518469 2
8.8405952 -10.003026 1.1590334 10
13.830217 -15.648723 1.0744025 25
13.877689 -15.702436 0.7072677 30
8.8100882 -11.564895 0.40431613 49
13.838817 -13.537782 0.42445076 33
13.915593 -15.745324 0.33670649 23
8.8227386 -11.5815 0.14738704 35
13.867752 -13.566088 0.081939474 36
13.949146 -15.783288 -0.034925416 24
8.861722 -11.632672 -0.11026133 30
13.903791 -13.601344 -0.26140824 26
11.216041 -12.690813 -0.32756951 0
8.8906536 -11.67065 -0.37034568 28
12.80657 -12.527989 -0.55769092 0
11.093966 -12.552687 -0.62102002 0
8.8223248 -11.580956 -0.62545806 8
13.571495 -13.276276 -0.92687964 0
11.008268 -12.455721 -0.91045868 0
8.8675022 -11.640261 -0.88730991 30
12.761677 -12.484074 -1.1879536 2
11.001214 -12.44774 -1.2039093 0
8.8953114 -11.676765 -1.1501079 35
12.776104 -12.498186 -1.5055249 3
11.597569 -13.122507 -1.5790122 2
8.9130707 -11.700078 -1.412623 30
11.002959 -10.763613 -1.5691848 1
9.9551449 -11.264126 -1.6214063 2
8.6890478 -9.8315525 -1.6477889 2
7.6277809 -8.6307411 -1.6503832 2
6.8569703 -7.7585783 -1.668702 2
6.2215815 -7.0396433 -1.6802593 4
5.6738706 -6.4199157 -1.6851394 3
5.2319031 -5.9198346 -1.6938559 4
4.8406429 -5.4771285 -1.6968367 4
4.5205369 -5.1149325 -1.7051411 6
3.3464601 -3.7864788 -1.738425 6
2.4777131 -2.8035023 -1.7440459 7
3.3336468 -3.8254721 1.3394281 20
3.6148462 -4.1481581 1.0632442 26
3.9533145 -4.536562 0.84183514 2
8.6605883 -9.9383173 1.1445022 8
13.822989 -15.862346 1.0824172 29
13.875414 -15.922505 0.71279955 31
8.7939568 -11.712452 0.40731847 26
13.82914 -13.718555 0.42708111 50
13.915692 -15.968726 0.33939812 21
8.8209209 -11.748365 0.14872323 31
13.866417 -13.755535 0.082497001 38
13.956878 -16.015987 -0.035223868 23
8.8643513 -11.80621 -0.11131689 30
13.899362 -13.788217 -0.2631284 27
11.061485 -12.693427 -0.32563582 0
8.8857889 -11.834762 -0.37357572 29
12.622292 -12.521358 -0.55345935 0
10.953542 -12.569558 -0.61805648 0
8.8348389 -11.766902 -0.63215387 34
12.619056 -12.518148 -0.86777937 1
10.863317 -12.466023 -0.90564609 0
8.8651323 -11.807249 -0.89529932 35
12.566538 -12.46605 -1.1778615 2
10.87211 -12.476113 -1.1992834 0
8.8949833 -11.847008 -1.160731 31
12.544223 -12.443913 -1.4884013 2
11.526615 -13.22718 -1.5818857 3
8.924408 -11.886197 -1.4275371 27
10.967098 -10.8794 -1.5748644 1
9.8997812 -11.360333 -1.6252669 2
8.6514912 -9.9278774 -1.65377 2
7.5829506 -8.7016916 -1.6537873 2
6.8156118 -7.8211446 -1.6718842 2
6.1619377 -7.0710316 -1.6774426 3
5.6392283 -6.4712048 -1.6882272 3
5.1904483 -5.9562149 -1.6938559 4
4.8074083 -5.5166631 -1.6986457 4
4.4872684 -5.1492915 -1.7061104 6
3.3224294 -3.8125999 -1.7397263 6
2.4771361 -2.8425972 -1.7575656 5
2.5809629 -3.0038261 1.0454072 10
3.5832393 -4.1703143 1.0624853 26
3.9525273 -4.6001062 0.84848559 3
8.468935 -9.8564787 1.1282412 9
13.821254 -16.085718 1.0910487 26
13.870735 -16.143307 0.7183314 33
8.7999763 -11.892483 0.4114328 29
13.820428 -13.902687 0.42979914 65
13.918556 -16.198961 0.34221786 25
8.8290977 -11.931838 0.15026189 32
13.877206 -13.959803 0.083139002 39
13.956818 -16.243492 -0.035509054 26
8.8602295 -11.97391 -0.11231214 28
13.904275 -13.987033 -0.26506355 24
10.912655 -12.700576 -0.3238568 0
8.8885803 -12.012224 -0.37720954 28
12.44437 -12.518438 -0.54947674 0
10.803002 -12.572959 -0.61450016 0
8.8356771 -11.940729 -0.63816291 33
12.590505 -12.665442 -0.87187546 3
10.710952 -12.465826 -0.90017724 0
8.8798609 -12.000441 -0.90522557 35
12.377905 -12.451578 -1.1683004 1
10.719747 -12.476062 -1.1920552 0
8.8927107 -12.017805 -1.1713542 27
12.358689 -12.432248 -1.4766499 1
11.436587 -13.310349 -1.5822449 2
8.8956852 -12.021826 -1.4363325 9
10.907711 -10.972633 -1.5772984 2
9.8305979 -11.441236 -1.6269827 4
8.5897293 -9.9970646 -1.6552653 2
7.5374999 -8.772438 -1.6571913 2
6.7711387 -7.880517 -1.6744298 3
6.1483479 -7.1556888 -1.6873015 3
5.6067033 -6.525301 -1.6920868 2
5.1563869 -6.0012054 -1.6963716 4
4.7738562 -5.5560012 -1.7004547 4
4.4562688 -5.1863804 -1.7080492 6
3.2908015 -3.8299642 -1.7371238 6
2.4454172 -2.8460724 -1.7491157 7
2.5574293 -3.0188203 1.0443863 16
3.5413442 -4.1802454 1.0586908 26
3.9638464 -4.6789722 0.85790706 3
8.3458233 -9.85151 1.1209755 11
13.814485 -16.306784 1.0994745 26
13.889484 -16.395315 0.72521245 31
8.8039036 -12.073164 0.41554713 28
13.835014 -14.113058 0.43330625 47
13.929216 -16.442215 0.345294 24
8.8280659 -12.106298 0.15167907 22
13.880219 -14.159171 0.083747216 38
13.956841 -16.474823 -0.035800874 31
13.907087 -14.186579 -0.26699871 27
10.751338 -12.69101 -0.32169104 0
12.27551 -12.522212 -0.5458675 0
10.660704 -12.584023 -0.61138839 0
8.8227377 -12.098991 -0.64331359 17
12.431858 -12.681703 -0.86699915 2
10.564282 -12.470206 -0.89514583 0
12.276708 -12.523434 -1.1669725 1
10.573073 -12.480583 -1.1854054 0
12.204631 -12.449909 -1.4685918 2
11.374285 -13.426343 -1.5865552 3
9.1657839 -12.569427 -1.4940764 0
10.847558 -11.065563 -1.5797325 1
9.7633362 -11.524759 -1.6291274 5
8.53512 -10.074959 -1.6582558 2
7.4760728 -8.8248463 -1.6571913 2
6.7312722 -7.9456749 -1.6782484 2
6.1007872 -7.2014427 -1.6880058 2
5.5736957 -6.5792575 -1.6959466 3
5.1093082 -6.0310888 -1.6946944 4
4.7399888 -5.59514 -1.7022637 4
4.4224606 -5.2203255 -1.7090186 6
3.2664282 -3.8557312 -1.738425 7
2.4301751 -2.868608 -1.7524956 6
2.5263746 -3.0247276 1.0403028 22
3.5070393 -4.1988382 1.0571729 26
3.9590185 -4.739975 0.8640033 3
8.2359705 -9.8605986 1.1154399 11
13.818102 -16.543861 1.108928 26
13.884882 -16.623816 0.73101419 26
13.871247 -19.303883 0.66107243 40
13.838991 -14.315685 0.43655035 50
13.929462 -16.677191 0.34817785 23
13.868896 -19.300611 0.24059719 58
13.886675 -14.365012 0.08438921 37
13.927243 -14.406978 -0.26931018 2
10.63684 -12.735065 -0.32091758 0
10.537731 -14.664804 -0.45584112 10
12.101647 -12.518497 -0.54200935 0
10.511092 -12.584512 -0.60783207 0
12.0459 -12.46083 -0.84612876 17
10.418079 -12.47315 -0.89011449 0
9.028306 -12.564218 -0.93815166 1
12.055827 -12.471098 -1.1542245 2
9.6033516 -11.49771 -1.0856578 6
8.9939833 -12.516453 -1.2075977 2
12.347354 -12.772668 -1.4964595 1
11.295597 -13.523768 -1.5887103 3
9.0638695 -12.613709 -1.4917819 0
10.811529 -11.18394 -1.5858178 1
9.6800909 -11.589586 -1.6286985 4
8.4849291 -10.158668 -1.6622432 2
7.4345875 -8.9011354 -1.6617301 2
6.6731057 -7.9894433 -1.6776119 3
6.0579348 -7.252924 -1.6901184 2
5.5251117 -6.614996 -1.6951746 3
5.0771074 -6.0786185 -1.6980486 4
4.7058072 -5.6340756 -1.7040727 4
4.3908834 -5.2570295 -1.7109573 6
3.2467046 -3.88715 -1.7423288 6
2.4031169 -2.877156 -1.7474258 6
2.5065928 -3.0461516 1.0413237 19
3.4661853 -4.2123022 1.0541372 24
3.9543731 -4.8055754 0.87065369 2
8.1153603 -9.8622389 1.1088662 9
13.762458 -16.724907 1.1142712 18
9.4850044 -11.526707 0.50380343 9
13.8102 -19.519287 0.66496438 43
13.824704 -14.512296 0.43944374 50
9.4942694 -11.537967 0.23942435 27
13.858725 -19.587873 0.24290517 44
13.883083 -14.573579 0.085014321 39
9.4649754 -11.502367 -0.024698492 35
10.622416 -15.013685 -0.13867112 0
12.113605 -12.716092 -0.23603611 0
9.5292883 -11.580523 -0.29005563 6
10.434569 -14.748184 -0.456043 2
11.954404 -12.548973 -0.5395202 0
9.4813509 -11.522267 -0.55315387 20
9.2464962 -13.068966 -0.68778068 0
9.4685888 -11.506758 -0.81617528 26
8.9474936 -12.646357 -0.93936217 0
11.878746 -12.469552 -1.1459914 0
9.4529057 -11.4877 -1.0781406 43
2.6878717 -3.7990286 -0.36462262 0
12.624544 -13.252443 -1.5417863 5
9.484971 -11.526667 -1.3458959 40
2.6607628 -3.7607129 -0.44244853 15
10.764938 -11.300348 -1.5910916 3
9.4761105 -11.515899 -1.608538 28
8.4178028 -10.229784 -1.6637385 2
7.3892689 -8.9798527 -1.6662687 2
6.6244001 -8.0503416 -1.6801577 3
6.0071096 -7.3001752 -1.6908226 3
5.4814625 -6.6613793 -1.6967185 2
5.0398698 -6.1247315 -1.7005643 4
4.6643825 -5.6684184 -1.7040727 4
4.3497653 -5.286078 -1.7099879 6
3.2157207 -3.9079235 -1.7410275 6
2.3865697 -2.9002929 -1.7508057 5
2.4706461 -3.0455554 1.0351982 15
3.4267964 -4.2241979 1.0511016 16
6.2267442 -7.6756821 1.3827378 18
7.9960995 -9.8567591 1.1019466 10
9.379612 -11.562209 0.76593304 40
9.3539305 -11.530552 0.50110495 34
13.829837 -14.722131 0.4428632 56
9.3454561 -11.520106 0.23769403 26
2.6532919 -3.806236 0.046969496 16
13.88781 -14.783845 0.085673213 37
9.3340435 -11.506037 -0.024565846 27
2.637341 -3.783354 -0.034773335 26
11.94238 -12.712897 -0.23442347 1
9.3726225 -11.553594 -0.28773519 34
2.6342893 -3.7789764 -0.11628188 32
11.787121 -12.54762 -0.53591096 0
9.3503132 -11.526093 -0.55019027 43
2.6464121 -3.7963667 -0.19881427 20
11.7323 -12.489262 -0.83657134 0
9.3402166 -11.513647 -0.81201893 43
2.6417134 -3.7896264 -0.28011394 32
11.725819 -12.482363 -1.1396174 0
9.3297482 -11.500742 -1.0732256 40
2.6293578 -3.7719021 -0.36024842 37
12.649065 -13.465176 -1.5562239 3
9.3515625 -11.527633 -1.3383529 43
2.6185045 -3.7563324 -0.43977165 45
10.696683 -11.386828 -1.5927144 2
9.3403635 -11.513827 -1.5991013 32
8.3636827 -10.309877 -1.6672275 2
7.3338814 -9.0404453 -1.6679707 2
6.5730128 -8.1025257 -1.6814305 3
5.9559984 -7.3419347 -1.6908226 3
5.4496593 -6.717773 -1.7013501 3
4.9994521 -6.1628046 -1.7014028 4
4.6345148 -5.7129474 -1.7076907 4
4.3152003 -5.3193297 -1.7109573 6
3.190743 -3.9332159 -1.7423288 6
2.3571277 -2.9056215 -1.7440459 4
2.439662 -3.050648 1.0311146 19
3.3947697 -4.2449517 1.0503427 9
6.1457906 -7.6849351 1.3766415 23
7.8847804 -9.8594351 1.0960649 10
9.2462702 -11.561895 0.7616173 33
9.2382488 -11.551864 0.49921602 33
2.6031392 -3.7904239 0.12787776 43
13.832706 -14.932738 0.44628266 61
9.2173433 -11.525723 0.23647639 30
2.610805 -3.8015864 0.046686057 51
13.895709 -15.000751 0.086365893 36
9.2085199 -11.51469 -0.024446465 30
2.6018071 -3.7884846 -0.034652699 35
11.717435 -12.649252 -0.23173575 0
9.2417803 -11.55628 -0.28618824 46
2.5919974 -3.7742004 -0.11557531 50
11.625877 -12.550413 -0.53255063 0
9.2196884 -11.528655 -0.54722667 46
2.6085329 -3.7982779 -0.19795585 41
11.568801 -12.488798 -0.83110988 0
9.2122135 -11.519309 -0.80786258 45
2.6084125 -3.7981026 -0.27938762 43
11.570582 -12.490721 -1.1329778 0
9.1969042 -11.500166 -1.0671539 45
2.5984466 -3.7835913 -0.35962352 36
12.562878 -13.561927 -1.5572311 4
9.2235813 -11.533525 -1.3315282 45
2.5899634 -3.7712386 -0.43938926 40
10.608815 -11.45247 -1.5914974 2
9.2175293 -11.525955 -1.5918093 36
8.2964592 -10.374215 -1.6682243 2
7.2730613 -9.0945187 -1.6685381 2
6.5310845 -8.1667213 -1.685249 2
5.9341078 -7.4202385 -1.6992732 3
5.4001765 -6.7525907 -1.7005782 3
4.9734054 -6.2189388 -1.7072725 4
4.5945177 -5.7451634 -1.7076907 4
4.2925014 -5.3675108 -1.7167736 6
3.1702933 -3.9642577 -1.7462324 7
2.3571641 -2.9474895 -1.7592555 6
2.4159105 -3.0645683 1.0300937 15
3.3456004 -4.2438745 1.0442713 4
6.0625591 -7.6903205 1.3699911 19
5.8667517 -7.4419394 0.82274067 13
9.1183386 -11.566559 0.75771266 32
9.1078758 -11.553287 0.49651757 34
2.5676513 -3.7952578 0.12743297 36
13.836006 -15.147047 0.44978979 61
9.0896082 -11.530114 0.23525877 26
2.5662713 -3.7932179 0.046362132 38
13.885068 -15.200758 0.086957216 36
9.0759039 -11.512731 -0.02430719 31
2.5640886 -3.7899916 -0.034501903 37
11.620751 -12.721884 -0.23157449 0
9.1064062 -11.551423 -0.28448659 48
2.5566227 -3.7789564 -0.11517155 48
11.470567 -12.557469 -0.52943921 0
9.104332 -11.548792 -0.54515219 53
2.5685163 -3.7965362 -0.19692571 47
11.405887 -12.48666 -0.82564849 0
9.0746975 -11.5112 -0.80283123 43
2.5616977 -3.7864575 -0.27720869 43
11.402348 -12.482786 -1.1250104 0
9.0694666 -11.504564 -1.0616606 46
2.560796 -3.785125 -0.35806131 41
12.4894 -13.672842 -1.5599171 3
9.0861111 -11.525679 -1.3232667 52
2.5546474 -3.7760367 -0.43785959 41
10.533973 -11.532127 -1.5923088 2
9.0851336 -11.524438 -1.5828015 36
8.2508593 -10.466166 -1.673707 2
7.229003 -9.1699476 -1.6730767 2
6.4812455 -8.2214212 -1.6871583 3
5.8821602 -7.4614854 -1.6992732 3
5.3577628 -6.7962904 -1.7021221 3
4.9226036 -6.2442932 -1.704757 4
4.554297 -5.7770987 -1.7076907 4
4.2597299 -5.4034424 -1.7187123 6
3.1448817 -3.989264 -1.7475336 7
2.3320401 -2.9581792 -1.7558756 7
2.3802185 -3.0630367 1.0239682 19
3.3014321 -4.2485209 1.0397178 0
4.6791229 -6.0214329 1.0668417 1
5.8660026 -7.5487952 0.8300063 8
8.9883432 -11.566849 0.75360245 32
8.9828434 -11.559771 0.49408895 34
2.5322237 -3.799782 0.12698817 36
13.834302 -15.359156 0.45320925 32
8.9622641 -11.533288 0.23404114 25
2.5308547 -3.7977278 0.046200167 38
13.880335 -15.410263 0.08759921 39
8.9560385 -11.525276 -0.024201073 31
2.5331306 -3.8011429 -0.034441587 38
11.470086 -12.73435 -0.23033813 0
8.9740076 -11.548401 -0.28286228 45
2.523526 -3.7867305 -0.11486873 40
11.299672 -12.545152 -0.52558106 0
8.9793358 -11.555257 -0.54248494 51
2.528652 -3.7944224 -0.19589558 44
11.243567 -12.482864 -0.82018709 0
8.9598026 -11.530121 -0.79976863 24
2.5263443 -3.7909596 -0.27624026 44
11.242804 -12.482015 -1.1178397 0
8.9399691 -11.504597 -1.0558782 7
2.52104 -3.7830002 -0.35618663 39
12.374968 -13.73897 -1.5575669 3
8.9589806 -11.529062 -1.3164421 49
2.5215995 -3.7838397 -0.43671238 38
10.503808 -11.661566 -1.6000167 2
8.9580917 -11.527919 -1.5746515 23
8.1848965 -10.532915 -1.6752023 2
7.1720967 -9.2295713 -1.6747787 2
6.4309602 -8.2758236 -1.6890676 2
5.8371739 -7.5116963 -1.7013859 2
5.3198175 -6.8459249 -1.7052097 3
4.8836899 -6.2846842 -1.706434 4
4.5258083 -5.8241367 -1.7122132 5
4.2266655 -5.439178 -1.7206511 6
3.1192756 -4.0141087 -1.7488348 7
2.3091068 -2.9715252 -1.7541857 7
2.3587773 -3.0795784 1.0239682 18
5.0914221 -6.6472721 1.6180134 20
4.5839791 -5.9847636 1.0546492 2
5.8398166 -7.6243625 0.83381206 6
8.8539371 -11.559546 0.74908125 30
8.8508768 -11.555551 0.49125555 40
2.49247 -3.7973115 0.12632099 31
13.838272 -15.580943 0.45689172 31
8.8474836 -11.551121 0.23314394 25
2.4911108 -3.7952409 0.045957223 37
13.894599 -15.644362 0.088376373 35
8.8729296 -11.584343 -0.02419444 25
2.4911678 -3.7953274 -0.034230471 39
11.301225 -12.724402 -0.22872549 0
8.8493967 -11.553617 -0.28147 51
2.4860568 -3.7875409 -0.11436404 39
11.153406 -12.557969 -0.522843 0
8.85956 -11.566887 -0.54011405 57
2.4955215 -3.8019607 -0.19538052 45
11.095127 -12.492351 -0.81570089 1
8.859663 -11.567021 -0.79801857 5
2.4954348 -3.8018284 -0.27575606 38
11.09973 -12.497534 -1.1122624 0
8.8958254 -11.614235 -1.060215 25
2.4858153 -3.787173 -0.35493687 40
12.27875 -13.825029 -1.5575669 2
8.8492069 -11.55337 -1.3121318 24
2.4754579 -3.7713933 -0.43327069 41
10.422139 -11.734612 -1.6000167 2
8.8846521 -11.599647 -1.5759383 22
8.1184063 -10.59925 -1.6766975 2
7.1123056 -9.2857018 -1.6759135 2
6.3850365 -8.3361921 -1.6922497 2
5.7965636 -7.5678921 -1.7049069 3
5.2862158 -6.9015913 -1.7098414 3
4.8468318 -6.327939 -1.7089497 3
4.4945168 -5.8679628 -1.7158312 4
4.1933107 -5.4747138 -1.7225899 6
3.091177 -4.0357866 -1.7488348 7
2.2905107 -2.9904509 -1.7558756 6
2.3325598 -3.0897975 1.0219264 19
5.0567231 -6.6983275 1.6218081 26
4.5229917 -5.9913263 1.0502156 4
7.4551511 -9.8753767 1.0742682 8
8.7754269 -11.624264 0.74928677 27
8.822979 -11.687254 0.49422386 24
2.4550464 -3.7978292 0.125765 34
13.845085 -15.809546 0.46074957 33
8.8316889 -11.698791 0.23487425 22
2.4536982 -3.7957437 0.045754768 39
13.882546 -15.852324 0.089001477 41
8.8761911 -11.75774 -0.024426568 24
2.4472399 -3.7857528 -0.033989199 38
11.175225 -12.760863 -0.22797294 0
8.8094845 -11.669378 -0.28278491 32
2.4508717 -3.7913711 -0.11396028 34
11.004882 -12.56635 -0.51998049 0
8.8460264 -11.717784 -0.54426306 35
2.4515629 -3.7924404 -0.19400702 42
10.939208 -12.491358 -0.81062961 0
8.8797646 -11.762474 -0.80720633 31
2.455828 -3.7990382 -0.27430344 39
10.928068 -12.478638 -1.1037637 0
8.9034643 -11.793867 -1.0709126 33
2.4528215 -3.7943873 -0.35399953 39
10.950349 -12.50408 -1.4000978 0
8.8547449 -11.729332 -1.3250628 38
2.4490693 -3.7885828 -0.43327069 37
10.376667 -11.848998 -1.6056963 2
8.8873196 -11.772482 -1.5909514 27
8.0442123 -10.655669 -1.6766975 2
7.0830913 -9.3825321 -1.6844234 2
6.3362002 -8.3931723 -1.6947954 3
5.7388434 -7.6018901 -1.7034985 3
5.2449994 -6.9477258 -1.7121572 3
4.8096061 -6.3709869 -1.7114652 3
4.4534411 -5.8991976 -1.7158312 4
4.1432967 -5.4883685 -1.717743 6
3.0652056 -4.060288 -1.750136 7
2.2761307 -3.0150495 -1.7609456 7
2.3132405 -3.1091092 1.0229473 20
4.9957705 -6.7145615 1.6172545 27
4.4550424 -5.9877968 1.0441194 7
7.3360724 -9.8600426 1.0670027 7
8.7799034 -11.800623 0.75668508 27
8.8294659 -11.867237 0.49921602 25
2.4220314 -3.8047571 0.1254314 32
13.841537 -16.029913 0.46434438 31
8.8333588 -11.87247 0.23711726 20
2.4185476 -3.7992847 0.045592804 38
13.894408 -16.091145 0.08979553 35
8.8702965 -11.922115 -0.024638802 22
2.4100111 -3.7858748 -0.033838406 35
10.996994 -12.735642 -0.22614528 0
8.8089685 -11.839687 -0.28541476 34
2.4136069 -3.7915232 -0.11345559 39
10.893371 -12.615636 -0.5188604 0
8.8499031 -11.894706 -0.54959756 39
2.4228809 -3.8060918 -0.19383533 44
10.789072 -12.494847 -0.80594838 0
8.8737221 -11.92672 -0.81420648 31
2.4185255 -3.7992499 -0.27309293 39
10.791127 -12.497228 -1.0987177 0
8.9090242 -11.974168 -1.0816101 26
2.4112818 -3.7878706 -0.35181242 40
10.802875 -12.510833 -1.3923755 0
8.851119 -11.896339 -1.3369161 46
2.4033165 -3.7753584 -0.429829 41
10.301497 -11.930186 -1.6069133 2
8.883255 -11.939532 -1.6051065 24
7.98384 -10.730674 -1.6796881 2
7.0079613 -9.4190454 -1.6821542 2
6.2845225 -8.4467077 -1.6967046 3
5.6926837 -7.651247 -1.7056111 3
5.1869955 -6.9715776 -1.7090695 3
4.7650108 -6.4044089 -1.7114652 3
4.414474 -5.9332705 -1.7167357 4
4.1210957 -5.5389552 -1.7245287 6
3.032269 -4.0755191 -1.7475336 7
2.2636826 -3.042501 -1.7677054 5
2.2960522 -3.1314209 1.0249891 20
4.9441276 -6.7429404 1.6157366 28
4.3920493 -5.9900002 1.0391316 8
7.2458501 -9.8820944 1.0638888 7
8.7752552 -11.967941 0.76346689 29
8.8244095 -12.034979 0.50366849 23
2.3847919 -3.8046339 0.12487541 34
13.838169 -16.254044 0.46802688 50
8.8448553 -12.062863 0.23968068 21
2.3834674 -3.8025208 0.045430839 40
13.890638 -16.315672 0.090505108 33
8.8672657 -12.093428 -0.024864297 7
2.3792732 -3.7958293 -0.033778086 35
10.863736 -12.760332 -0.22523145 0
8.8135948 -12.020228 -0.28827664 33
2.3764594 -3.7913401 -0.11295089 36
10.719502 -12.590919 -0.51475328 0
8.851737 -12.072248 -0.554932 35
2.3771482 -3.792439 -0.19229014 42
10.629059 -12.484685 -0.80048698 0
8.8681774 -12.094671 -0.82142538 7
2.38134 -3.7991269 -0.27188241 38
10.61565 -12.468935 -1.0896878 0
2.3741889 -3.7877181 -0.35025018 39
10.637753 -12.494898 -1.3823028 0
8.8573666 -12.079926 -1.3505654 24
2.3663275 -3.775176 -0.42791694 41
10.217957 -12.001813 -1.6069133 2
8.8655291 -12.091059 -1.6171169 8
7.920465 -10.802154 -1.6821802 2
6.970129 -9.5060587 -1.6889622 2
6.2324047 -8.4999294 -1.6986139 3
5.6530991 -7.7098556 -1.7098365 2
5.1544437 -7.0297756 -1.714473 3
4.7317462 -6.453289 -1.7156579 3
4.3890719 -5.9859405 -1.7230672 4
4.086915 -5.5738502 -1.7264674 6
3.0082157 -4.1026897 -1.750136 6
2.2273805 -3.0377643 -1.7558756 7
2.2628102 -3.1316993 1.0198846 20
4.892334 -6.7709255 1.6142188 28
4.3246045 -5.9851956 1.0330354 8
7.1370096 -9.8775272 1.0580071 6
8.7733774 -12.142239 0.77065974 2
13.907489 -19.24778 0.80144411 29
2.343473 -3.7973711 0.12409703 34
13.82463 -16.469713 0.47144634 53
13.925334 -19.272478 0.38098976 27
2.3463597 -3.8020487 0.045228384 39
13.89212 -16.550117 0.091265373 39
10.825422 -14.982242 -0.030647617 12
2.3401115 -3.791924 -0.033597134 40
10.704959 -12.753152 -0.22378008 0
2.3394325 -3.7908239 -0.1124462 37
10.615917 -12.647075 -0.51400656 0
2.3422186 -3.7953386 -0.19160339 40
10.500544 -12.509625 -0.79736614 0
9.0829401 -12.570668 -0.84942603 0
2.3421779 -3.7952726 -0.27042979 44
10.487285 -12.493831 -1.0854385 0
9.0423851 -12.514541 -1.1189071 2
2.3455935 -3.800807 -0.34993774 39
10.496449 -12.504747 -1.375252 1
2.3378229 -3.7882159 -0.42753452 39
10.164621 -12.109431 -1.6117816 3
8.9299698 -12.358961 -1.6445693 3
7.8518338 -10.866835 -1.6836754 2
2.715523 -3.7582481 -0.66435158 5
6.1844788 -8.5592365 -1.7017961 2
5.6060562 -7.7587075 -1.7119491 1
2.7238686 -3.7697983 -0.91474587 4
2.7143683 -3.7566497 -0.99367291 19
4.3403311 -6.0069609 -1.7203537 3
2.7160277 -3.7589464 -1.1584102 11
2.7269635 -3.7740815 -1.6017973 0
2.2039959 -3.0503013 -1.7541857 6
2.243135 -3.1505709 1.0209055 21
4.8472228 -6.8081141 1.6149777 29
4.2620363 -5.9861975 1.0280476 9
7.0285859 -9.8719254 1.0521255 6
12.546042 -17.621408 1.1128327 1
13.828423 -19.422562 0.80468225 33
2.3086011 -3.7999704 0.12365223 36
13.839342 -16.72295 0.47591794 63
13.887874 -19.506063 0.38368136 28
2.3052218 -3.7944081 0.044944949 39
12.432278 -15.022706 0.082361847 9
10.678803 -14.998797 -0.030528238 11
2.3073514 -3.7979133 -0.033506654 39
9.5395622 -11.527254 -0.20109567 8
10.658265 -14.969952 -0.35541487 0
2.3025296 -3.7899766 -0.11194149 38
9.5128641 -11.494993 -0.46447274 26
9.6676311 -13.578567 -0.6179083 0
2.3073654 -3.7979364 -0.19091664 46
10.341631 -12.496445 -0.79190475 0
8.9764271 -12.607743 -0.84767598 0
2.3073325 -3.7978823 -0.26946136 42
9.5295506 -11.515157 -0.99460906 18
8.9316568 -12.544863 -1.1160158 2
2.2982965 -3.7830088 -0.34681329 38
9.5194607 -11.502965 -1.2577378 37
8.9535618 -12.575628 -1.3918726 0
2.2947805 -3.7772217 -0.42447525 37
9.5064526 -11.487246 -1.520097 38
8.9034424 -12.505234 -1.6557219 2
7.7642684 -10.905219 -1.6811833 0
2.6800334 -3.7642119 -0.66208225 15
2.6866584 -3.7735171 -0.74652457 13
2.6833856 -3.7689204 -0.82745379 1
2.6587863 -3.7343695 -0.90162289 1
2.6744654 -3.7563915 -0.98864162 1
2.6756961 -3.7581201 -1.0709246 1
2.6649601 -3.743041 -1.147747 1
2.6654487 -3.7437272 -1.5809779 11
2.1889555 -3.0744739 -1.7592555 8
2.2155235 -3.1558826 1.0178428 19
4.8064756 -6.8465414 1.6164956 29
4.2063074 -5.9916372 1.0241681 9
2.6674931 -3.7996864 0.40306681 1
13.608665 -19.384743 1.2184644 18
13.830232 -19.70035 0.81237286 5
2.273082 -3.7980428 0.12309624 32
9.4336643 -11.554455 0.32704014 59
2.67029 -3.8036709 0.074467637 2
2.2738442 -3.7993166 0.044823475 37
9.4181385 -11.535439 0.062899105 37
2.6660323 -3.797606 -0.0076934076 22
2.2759502 -3.8028352 -0.033416178 36
9.4047251 -11.51901 -0.19985932 32
2.6448565 -3.7674422 -0.089027748 0
2.267076 -3.7880077 -0.1114368 40
9.3833208 -11.492794 -0.46185917 37
2.6802831 -3.8179054 -0.17292541 2
2.2718651 -3.7960098 -0.19005822 45
9.4095459 -11.524915 -0.72636783 28
2.6620462 -3.7919281 -0.2537559 21
2.2656908 -3.7856932 -0.26752454 43
9.3974409 -11.510088 -0.98876619 49
2.6521857 -3.7778823 -0.33451563 38
2.2690611 -3.7913244 -0.34618843 42
9.3799438 -11.488658 -1.2493439 40
2.6644213 -3.7953112 -0.41810057 5
2.263545 -3.7821078 -0.42332801 40
9.3721752 -11.479143 -1.5107663 37
2.6506627 -3.7757127 -0.49757445 31
2.6566598 -3.7842553 -0.58066368 35
2.6459086 -3.7689409 -0.65981293 52
2.6456888 -3.7686279 -0.7420696 1
2.6424932 -3.7640758 -0.82252431 21
2.6429806 -3.76477 -0.90471065 10
2.6539874 -3.7804487 -0.99031872 26
2.632802 -3.7502713 -1.0636888 17
2.6489959 -3.7733383 -1.1516246 3
2.644907 -3.767514 -1.5835803 48
2.1705997 -3.0918913 -1.7609456 6
2.1912374 -3.1680923 1.0168219 20
4.7496247 -6.8670101 1.6134599 5
2.6162558 -3.782584 0.64343029 24
2.6159658 -3.7821648 0.39926106 35
2.617794 -3.7848079 0.23674667 26
2.615216 -3.7810807 0.15516174 24
2.2424526 -3.8069289 0.12287385 36
9.3076353 -11.563958 0.32546192 38
2.609544 -3.7728801 0.073506348 23
2.2371144 -3.7978668 0.044621021 36
9.2872162 -11.538589 0.062561214 44
2.6235275 -3.7930977 -0.0076469821 44
2.2391958 -3.8014002 -0.033265382 36
9.2789373 -11.528303 -0.19889173 32
2.6207657 -3.7891045 -0.089105092 26
2.2324576 -3.7899611 -0.11103304 40
9.2627478 -11.50819 -0.45986786 38
2.628552 -3.8003619 -0.17129543 36
2.2392242 -3.8014481 -0.18954314 49
9.2837667 -11.534304 -0.72285688 41
2.610517 -3.7742867 -0.2513496 40
2.2392066 -3.8014185 -0.26752454 44
9.2718105 -11.519449 -0.98398572 47
2.6143992 -3.7798998 -0.33307001 52
2.2303936 -3.7864573 -0.34431374 40
9.2570229 -11.501077 -1.243636 38
2.6151984 -3.7810552 -0.41450864 41
2.2290027 -3.7840955 -0.42179838 40
9.2394104 -11.479195 -1.502247 38
2.6219766 -3.7908552 -0.4971455 47
2.6166303 -3.7831256 -0.57767314 42
2.6127751 -3.7775517 -0.65811092 40
2.6148219 -3.7805109 -0.7407968 20
2.6049514 -3.7662401 -0.81900322 45
2.6099358 -3.7734463 -0.90239483 50
2.6119568 -3.7763684 -0.98444891 39
2.6087725 -3.7717648 -1.0645932 37
2.6071355 -3.769398 -1.1448388 36
2.6056306 -3.7672222 -1.575773 44
2.140712 -3.0950427 -1.7541857 7
2.1690671 -3.1833122 1.0168219 21
2.5851998 -3.7940264 0.88717526 25
2.5897853 -3.800756 0.64343029 34
2.5737908 -3.7772825 0.39683917 32
2.5935576 -3.8062921 0.23695217 31
2.5820026 -3.7893343 0.15475696 33
2.2077994 -3.8086545 0.12242906 33
9.1769638 -11.566001 0.32370836 42
2.5786374 -3.7843952 0.073378175 23
2.2045281 -3.8030109 0.044499546 39
9.1567106 -11.540476 0.062223319 44
2.5834694 -3.7914867 -0.0076071885 30
2.2045782 -3.8030977 -0.033144746 38
9.1460218 -11.527004 -0.19776289 36
2.5874937 -3.7973928 -0.088873051 36
2.2019334 -3.7985351 -0.11083116 46
9.134964 -11.513067 -0.45750317 41
2.5974555 -3.8120127 -0.17099908 49
2.2046134 -3.8031583 -0.18885639 49
9.1483831 -11.529981 -0.71856582 42
2.5908515 -3.8023207 -0.25200588 43
2.2046039 -3.8031418 -0.26655611 45
9.1440296 -11.524493 -0.97893965 45
2.5789618 -3.7848716 -0.3319135 47
2.1979051 -3.7915859 -0.34337643 41
9.1319094 -11.509218 -1.2375925 40
2.5842519 -3.7926354 -0.41379026 46
2.1985364 -3.792675 -0.42103356 45
9.1219435 -11.496657 -1.4961617 44
2.5730543 -3.7762017 -0.49285606 52
2.5700428 -3.7717819 -0.57318729 47
2.5662735 -3.7662501 -0.65300488 41
2.5816951 -3.7888827 -0.73888749 41
2.5608578 -3.7583022 -0.81336951 49
2.572479 -3.7753572 -0.89853519 42
2.5723159 -3.7751181 -0.97941768 37
2.5736017 -3.7770052 -1.0609752 35
2.5785723 -3.7842999 -1.1438695 42
2.5707483 -3.7728176 -1.5705682 29
2.1251774 -3.1188998 -1.7592555 7
2.1446352 -3.1951663 1.015801 21
2.5455172 -3.7924168 0.88262177 35
2.5543571 -3.8055868 0.64121348 33
2.5429161 -3.7885416 0.39614722 29
2.5491109 -3.797771 0.2353081 28
2.5577133 -3.8105872 0.15489189 31
2.1732321 -3.8100824 0.12198427 38
9.0442572 -11.563637 0.32186711 40
2.5365517 -3.7790599 0.072929576 22
2.171979 -3.8078854 0.044378076 40
9.0266352 -11.541106 0.061885424 47
2.5480199 -3.7961457 -0.0075806594 31
2.1641014 -3.7940745 -0.032933634 40
9.011116 -11.521264 -0.19658029 36
2.5542333 -3.8054028 -0.088641003 44
2.1694174 -3.8033943 -0.11052835 43
9.0026407 -11.510427 -0.45488957 42
2.5529575 -3.8035018 -0.16981363 51
2.1700888 -3.8045714 -0.18816964 48
9.0209007 -11.533774 -0.71485984 41
2.5508878 -3.8004184 -0.25069335 44
2.1720645 -3.8080354 -0.2658298 43
9.0141735 -11.525174 -0.97362798 52
2.543582 -3.7895339 -0.33075702 44
2.1654539 -3.7964458 -0.34243909 43
9.0022268 -11.509898 -1.2308774 32
2.5443902 -3.7907379 -0.4116351 52
2.1562231 -3.7802622 -0.41797429 43
8.9728155 -11.472295 -1.4848026 7
2.5399795 -3.7841668 -0.49156922 55
2.5325887 -3.7731555 -0.57069522 44
2.5310907 -3.7709236 -0.6507355 40
2.5353732 -3.7773039 -0.73315972 42
2.5433354 -3.7891665 -0.81618637 50
2.5416846 -3.7867069 -0.89699131 42
2.5306399 -3.7702522 -0.97354788 35
2.5319703 -3.7722342 -1.0546438 36
2.5369506 -3.779654 -1.1370838 44
2.5295904 -3.7686887 -1.5614597 30
2.1073925 -3.1396809 -1.7626355 7
2.1350741 -3.229418 1.0219264 19
2.5103154 -3.7969911 0.8795861 35
2.5124335 -3.800195 0.63733405 31
2.5010207 -3.7829323 0.39372537 28
2.5093169 -3.7954807 0.23407505 29
2.5134101 -3.801672 0.1538125 28
2.1387534 -3.8112133 0.12153947 39
8.9144735 -11.563153 0.32011354 43
2.5079012 -3.7933395 0.072865494 27
2.1355557 -3.8055151 0.044175621 41
8.9018822 -11.546821 0.061581317 46
2.5104258 -3.797158 -0.0075474982 30
2.1297321 -3.7951374 -0.032812998 43
8.8938322 -11.536379 -0.19577397 38
2.5077543 -3.7931173 -0.087944873 42
2.1310713 -3.797524 -0.10992271 41
8.8903284 -11.531835 -0.45327163 43
2.5131149 -3.8012257 -0.16892457 48
2.1376085 -3.8091731 -0.18765458 45
8.8889332 -11.530025 -0.71076375 11
2.5088751 -3.7948124 -0.24916205 43
2.1317496 -3.7987328 -0.26413509 42
8.8676977 -11.50248 -0.96645725 31
2.506063 -3.7905591 -0.3293114 44
2.1291401 -3.7940824 -0.34087685 40
8.8754139 -11.512488 -1.224498 11
2.5046813 -3.7884693 -0.40947995 48
2.1258829 -3.7882781 -0.41720948 40
8.9216604 -11.572475 -1.4896708 18
2.5025327 -3.7852194 -0.48942453 53
2.4974301 -3.7775013 -0.56870151 42
2.5047028 -3.788502 -0.6507355 39
2.5089407 -3.7949119 -0.73315972 43
2.4994476 -3.7805529 -0.8105526 45
2.5000348 -3.7814412 -0.89158773 38
2.497786 -3.7780399 -0.97103226 34
2.5012755 -3.7833178 -1.0528347 37
2.4933801 -3.7713754 -1.1293287 41
2.4948745 -3.7736359 -1.5562547 31
2.0874217 -3.157341 -1.7643255 6
2.1272492 -3.266932 1.0290728 19
2.4751742 -3.8012593 0.87655044 39
2.4707108 -3.7944047 0.63345462 32
2.4636776 -3.7836039 0.39199546 30
2.4674997 -3.7894733 0.23263648 32
2.4780827 -3.8057261 0.15327281 29
2.1004996 -3.8050485 0.12087228 37
8.8020802 -11.583711 0.31897372 45
2.4748106 -3.8007011 0.072673231 26
2.1012039 -3.8063242 0.044013657 36
8.8258972 -11.615054 0.061615106 34
2.4729421 -3.7978318 -0.0075143371 29
2.095453 -3.7959063 -0.032692362 40
8.8590565 -11.658693 -0.19679531 22
2.4724832 -3.7971268 -0.08763548 41
2.0948451 -3.794805 -0.10941802 39
8.879756 -11.685934 -0.4568809 29
2.4756105 -3.8019295 -0.16818367 46
2.0974441 -3.7995131 -0.18645278 42
8.8275633 -11.617247 -0.7123242 16
2.464886 -3.785459 -0.24741201 38
2.1013186 -3.8065319 -0.26365086 41
8.8596239 -11.65944 -0.97442472 33
2.4643002 -3.7845597 -0.32728752 41
2.091037 -3.7879071 -0.33900219 38
8.8912897 -11.701112 -1.2379282 32
2.4694765 -3.7925091 -0.40804318 48
2.091687 -3.7890842 -0.41567981 37
8.924921 -11.745372 -1.5038697 32
2.4651957 -3.7859349 -0.4872798 50
2.4601691 -3.7782154 -0.56620938 41
2.4565873 -3.7727146 -0.64506215 40
2.4629924 -3.7825513 -0.72743189 41
2.4622507 -3.7814121 -0.80703151 46
2.4585829 -3.7757795 -0.88618416 38
2.4585445 -3.7757204 -0.96600097 34
2.4599192 -3.7778318 -1.0465033 34
2.4606371 -3.7789342 -1.1264206 38
2.4540212 -3.7687738 -1.5471462 30
2.0673068 -3.1748753 -1.7660154 7
2.1210921 -3.3077481 1.03724 20
2.4358568 -3.7986097 0.87199688 39
2.4313312 -3.7915523 0.6301294 33
2.4264483 -3.7839379 0.39026555 28
2.434516 -3.7965188 0.23201996 31
2.4363482 -3.799376 0.15232834 28
2.0719764 -3.8161061 0.12076109 38
8.8001032 -11.750508 0.32186711 33
2.4352639 -3.7976849 0.072288722 25
2.0650373 -3.8033259 0.043811202 34
8.8261166 -11.785243 0.062189527 31
2.4290953 -3.7880654 -0.0074612787 28
2.0612671 -3.7963822 -0.032571726 38
8.858964 -11.829104 -0.19862296 23
2.4329622 -3.7940958 -0.087171391 41
2.0587611 -3.7917666 -0.10891332 39
8.8770437 -11.853246 -0.46098796 28
2.43822 -3.802295 -0.16744277 44
2.0651467 -3.8035274 -0.1859377 41
8.8300657 -11.790517 -0.71915096 29
2.4297752 -3.7891259 -0.246537 39
2.0632617 -3.800056 -0.26219824 37
8.8521767 -11.82004 -0.98265779 32
2.427052 -3.7848792 -0.32584193 39
2.0626388 -3.7989085 -0.33868974 40
8.8977871 -11.880943 -1.2503512 26
2.4343383 -3.796242 -0.40660641 46
2.0518839 -3.7791004 -0.41300294 40
8.9309645 -11.925244 -1.51888 25
2.4279721 -3.7863138 -0.48513508 47
2.4251635 -3.781934 -0.56421572 37
2.4237778 -3.779773 -0.64336014 37
2.4258678 -3.7830322 -0.72424978 41
2.4187884 -3.7719922 -0.8013978 45
2.4236896 -3.7796357 -0.8830964 38
2.4257925 -3.7829146 -0.96348536 33
2.4229696 -3.7785125 -1.0419807 32
2.4132478 -3.7633522 -1.1167268 39
2.421526 -3.7762616 -1.5432426 31
2.0450921 -3.1892297 -1.7660154 6
2.0917532 -3.3126652 1.0341773 21
2.3966973 -3.7955985 0.86744338 37
2.392112 -3.7883368 0.62680417 31
2.3957171 -3.7940462 0.3895736 27
2.399421 -3.7999117 0.23119792 32
2.3990922 -3.7993913 0.15165374 29
2.0302179 -3.8022614 0.1198715 37
8.7938471 -11.91462 0.32467282 28
2.393744 -3.7909214 0.071840122 27
2.0290148 -3.8000081 0.043608747 38
8.822011 -11.952779 0.062747054 32
2.3961835 -3.7947848 -0.0074413824 29
2.0290611 -3.8000948 -0.032481249 42
8.8545446 -11.996859 -0.20039687 23
2.3978741 -3.797462 -0.086861998 41
2.0209389 -3.784883 -0.10830769 43
8.8771734 -12.027517 -0.46534395 25
2.3988104 -3.798945 -0.16655369 43
2.0291312 -3.800226 -0.18507926 40
8.8282022 -11.961167 -0.72578263 31
2.3883359 -3.7823567 -0.24500571 40
2.0272791 -3.7967575 -0.26098773 37
8.8666153 -12.013212 -0.99354672 33
2.3920493 -3.7882376 -0.32468542 42
2.028554 -3.799145 -0.33743998 45
8.8880024 -12.042189 -1.2607596 17
2.3971412 -3.7963016 -0.40481043 46
2.0198245 -3.7827964 -0.41185573 45
8.8947554 -12.051338 -1.5269936 4
2.3929863 -3.7897213 -0.4834193 47
2.3902256 -3.7853494 -0.562222 39
2.3804188 -3.7698183 -0.63882142 40
2.3909645 -3.7865195 -0.72170407 42
2.3881915 -3.7821281 -0.7999894 44
2.3867664 -3.779871 -0.87923676 39
2.3847063 -3.7766085 -0.95761555 36
2.3819695 -3.7722743 -1.0356493 34
2.3869159 -3.780108 -1.1167268 38
2.3850064 -3.7770839 -1.5367365 31
2.0227773 -3.2034295 -1.7660154 6
2.0706177 -3.3304722 1.0351982 20
2.3618462 -3.798897 0.86440772 37
2.3593311 -3.7948515 0.62514156 34
2.3544431 -3.7869895 0.38715175 27
2.3601789 -3.7962153 0.22996487 33
2.3598444 -3.7956772 0.15084419 30
1.9999073 -3.8092611 0.1196491 38
8.79984 -12.098617 0.3280046 33
2.3608849 -3.7973509 0.07164786 28
1.9950001 -3.7999144 0.043446783 44
8.8136396 -12.11759 0.063287683 5
2.3632965 -3.80123 -0.0074214856 29
2.0024829 -3.814167 -0.032481249 44
2.3607464 -3.7971282 -0.086475261 43
2.0037611 -3.8166013 -0.10881238 45
2.37012 -3.8122051 -0.16640551 46
2.002552 -3.8142989 -0.18507926 55
8.775033 -12.064511 -0.72831833 1
2.3597631 -3.7955465 -0.24478695 41
2.0044363 -3.8178878 -0.26147196 44
2.3571184 -3.7912924 -0.32352895 42
2.0038362 -3.8167446 -0.3377524 41
2.3621659 -3.7994113 -0.40337366 48
2.0063233 -3.8214819 -0.4145326 37
9.456439 -13.001354 -1.6389624 1
2.3601711 -3.7962029 -0.48213246 47
2.3553588 -3.7884626 -0.56022829 44
2.3519518 -3.7829823 -0.63825411 39
2.3540459 -3.7863507 -0.71852195 43
2.3534133 -3.7853332 -0.79717249 45
2.3499582 -3.7797759 -0.87537706 40
2.3541524 -3.7865222 -0.95593846 37
2.3494041 -3.7788846 -1.0329359 33
2.3481734 -3.7769053 -1.1109105 41
2.3505907 -3.7807932 -1.5315317 31
2.0099351 -3.232868 -1.7744653 6
2.0501842 -3.3521595 1.03724 23
2.3195915 -3.792655 0.85909528 37
2.3211157 -3.7951469 0.62237054 34
2.3203824 -3.7939479 0.38611379 28
2.326035 -3.8031905 0.22934833 28
2.3298714 -3.809463 0.15070927 28
1.9719304 -3.8238189 0.1196491 40
13.856905 -19.34798 0.5217737 53
2.3204651 -3.7940834 0.071263351 28
1.9725918 -3.8251014 0.043568257 44
10.990735 -15.346033 0.079726264 2
2.3228469 -3.7979774 -0.0073816921 30
1.9873033 -3.8536289 -0.032692362 26
10.68709 -14.922063 -0.24667951 0
2.3245022 -3.8006842 -0.086165868 43
1.9940578 -3.8667269 -0.10982177 23
10.636322 -14.851176 -0.56864309 6
2.3275125 -3.8056059 -0.16536826 45
1.9782015 -3.8359795 -0.18542264 38
9.1027699 -12.709924 -0.76323235 0
2.3193736 -3.7922988 -0.24347442 42
1.985546 -3.8502214 -0.26268247 29
8.9796286 -12.537986 -1.0262134 1
2.3209374 -3.7948554 -0.32237244 45
1.9922541 -3.8632293 -0.34056443 24
8.970048 -12.524609 -1.2976925 2
2.32178 -3.7962332 -0.4012185 50
1.9892063 -3.8573194 -0.41682705 23
9.3585663 -13.067084 -1.6385567 0
2.3177555 -3.7896531 -0.47912988 50
2.3171709 -3.788697 -0.55773616 41
2.3096964 -3.7764759 -0.63428277 40
2.3159251 -3.7866602 -0.71533984 43
2.3173842 -3.789046 -0.79435563 42
2.3119493 -3.7801592 -0.87151736 39
2.3161294 -3.7869942 -0.95174575 36
2.3114755 -3.7793849 -1.0284133 37
2.3123252 -3.7807741 -1.107033 46
2.3089986 -3.7753348 -1.5224231 32
1.9729418 -3.2258642 -1.7626355 7
2.0347111 -3.3796446 1.0413237 20
2.2890062 -3.8020275 0.85757744 36
2.2925208 -3.8078651 0.62181634 30
2.2856174 -3.7963984 0.38472989 28
2.2911854 -3.8056474 0.22852629 28
2.2970338 -3.8153613 0.1503045 29
1.9596493 -3.8660243 0.12053869 24
13.790665 -19.542269 0.52440405 48
2.2836063 -3.7930584 0.070942916 25
1.9693485 -3.8851588 0.044094637 29
10.904089 -15.451803 0.079878315 1
2.2880228 -3.8003943 -0.0073551629 28
1.9838609 -3.913789 -0.03308443 22
2.6496992 -3.7547963 -0.061763946 0
2.2834725 -3.7928362 -0.085624427 40
1.995941 -3.9376209 -0.1114368 21
2.6624866 -3.7729168 -0.1437476 7
2.2885172 -3.8012154 -0.16447918 43
1.9766686 -3.8996 -0.18782628 26
2.653697 -3.7604613 -0.2246981 0
2.2846017 -3.7947118 -0.2425994 41
1.9820853 -3.9102862 -0.2658298 29
2.6740069 -3.7892418 -0.30860767 0
2.2861567 -3.7972944 -0.32121596 37
1.9922796 -3.9303977 -0.34525108 24
2.6727612 -3.7874763 -0.3904829 16
2.282892 -3.7918718 -0.39906335 44
1.998233 -3.9421425 -0.42447525 23
2.6477463 -3.7520289 -0.46815905 27
2.2850885 -3.7955203 -0.47784305 47
2.276335 -3.7809808 -0.5542472 45
2.2689795 -3.7687633 -0.63031137 40
2.2812855 -3.7892034 -0.71279413 39
2.2807209 -3.7882657 -0.79083455 45
2.2774048 -3.7827578 -0.8684296 38
2.2795484 -3.7863181 -0.94755304 35
2.2729759 -3.7754014 -1.0229863 35
2.2718625 -3.7735519 -1.1002474 41
2.268929 -3.7686796 -1.5133146 29
1.9634627 -3.2613015 -1.7744653 6
2.0110679 -3.3937666 1.0413237 18
2.2523975 -3.8010211 0.85378289 37
2.2537649 -3.8033288 0.61849111 33
2.2489009 -3.7951205 0.38299999 27
2.2421608 -3.7837462 0.2262657 34
2.2581146 -3.8106687 0.14949496 26
1.9540058 -3.9225583 0.12187307 20
2.6435738 -3.8021879 0.1015315 4
2.2489157 -3.795145 0.070686579 23
1.9689288 -3.9525156 0.044702001 26
2.641902 -3.7997835 0.019547211 31
2.2532794 -3.8025093 -0.0073286342 29
1.9832416 -3.9812477 -0.033536814 22
2.6234212 -3.7732029 -0.061763946 12
2.2508225 -3.7983632 -0.085392386 40
1.9969301 -4.0087266 -0.11305183 20
2.62467 -3.7749991 -0.14312531 50
2.2558115 -3.8067822 -0.16403463 48
1.9707789 -3.9562297 -0.18988653 24
2.6205373 -3.7690549 -0.22411294 26
2.2458384 -3.789952 -0.24128687 41
1.9885631 -3.9919302 -0.27042979 28
2.6178687 -3.7652171 -0.30515507 28
2.2473888 -3.7925684 -0.31948122 38
1.9914629 -3.9977517 -0.34993774 23
2.6189499 -3.766772 -0.38645387 56
2.2482412 -3.7940071 -0.39762658 45
1.9884167 -3.9916363 -0.42829937 22
2.6328461 -3.7867584 -0.47018749 42
2.2463715 -3.7908518 -0.47526938 48
2.2417912 -3.7831223 -0.55225354 41
2.2345397 -3.7708855 -0.62804204 41
2.2467244 -3.7914474 -0.71024847 42
