# .PCD v0.7 - Point Cloud Data file format
VERSION 0.7
FIELDS x y z intensity
SIZE 4 4 4 4
TYPE F F F F
COUNT 1 1 1 1
WIDTH 1362
HEIGHT 1
VIEWPOINT 0 0 0 1 0 0 0
POINTS 1362
DATA ascii
2.2650225 -3.7845767 -0.11133587 40
9.3833208 -11.492794 -0.46185917 37
2.6756897 -3.8113623 -0.17262904 2
2.2739174 -3.799439 -0.19022989 44
9.4070196 -11.52182 -0.72617275 28
2.6597514 -3.7886591 -0.25353715 21
2.2656908 -3.7856932 -0.26752454 40
9.3923922 -11.503904 -0.98823506 47
2.6476009 -3.7713516 -0.33393738 38
2.2649653 -3.7844808 -0.34556353 41
9.3849859 -11.494833 -1.2500154 38
2.6667101 -3.7985716 -0.41845977 5
2.2696793 -3.7923577 -0.42447525 38
9.3797255 -11.48839 -1.5119834 39
2.6575177 -3.7854772 -0.49886128 32
2.6520989 -3.7777586 -0.57966685 31
2.6413586 -3.7624598 -0.65867823 56
2.6343439 -3.7524676 -0.73888749 1
2.6379683 -3.7576306 -0.82111585 21
2.6452358 -3.7679822 -0.90548259 11
2.6539874 -3.7804487 -0.99031872 31
2.632802 -3.7502713 -1.0636888 17
2.6489959 -3.7733383 -1.1516246 3
2.6470804 -3.7706101 -1.5848815 41
2.1768489 -3.1007929 -1.7660154 6
2.1956375 -3.174454 1.0188637 21
4.7384543 -6.8508601 1.6096653 5
2.6252694 -3.7956157 0.64564711 26
2.6091652 -3.7723327 0.3982231 26
2.6155214 -3.7815223 0.23654115 25
2.612942 -3.7777927 0.15502681 24
2.238394 -3.8000388 0.12265145 35
9.3051271 -11.560843 0.32537425 39
2.611819 -3.7761693 0.073570438 23
2.2371144 -3.7978668 0.044621021 36
9.2821999 -11.532357 0.062527426 44
2.6076 -3.7700694 -0.0076005561 42
2.2371655 -3.7979534 -0.033235226 39
9.2764292 -11.525187 -0.19883798 32
2.6230407 -3.7923937 -0.089182444 25
2.2344871 -3.7934065 -0.11113399 43
9.265255 -11.511304 -0.45999232 41
2.628552 -3.8003619 -0.17129543 34
2.2392242 -3.8014481 -0.18954314 50
9.286272 -11.537416 -0.72305197 41
2.610517 -3.7742867 -0.2513496 41
2.2371802 -3.7979784 -0.26728243 40
9.2668056 -11.513231 -0.98345453 46
2.6143992 -3.7798998 -0.33307001 42
2.2283697 -3.7830212 -0.34400129 38
9.2570229 -11.501077 -1.243636 38
2.6129322 -3.7777786 -0.41414946 39
2.2310236 -3.7875264 -0.4221808 42
9.2444 -11.485394 -1.5030583 41
2.6129274 -3.7777719 -0.49542972 62
2.6121149 -3.776597 -0.57667631 42
2.6105227 -3.7742951 -0.65754354 40
2.6148219 -3.7805109 -0.7407968 19
2.6139107 -3.7791936 -0.82182008 45
2.607703 -3.7702184 -0.90162289 45
2.6119568 -3.7763684 -0.98444891 35
2.6109891 -3.7749696 -1.0654978 35
2.6071355 -3.769398 -1.1448388 37
2.6077824 -3.7703333 -1.5770743 33
2.1427743 -3.0980244 -1.7558756 7
2.1723094 -3.1904628 1.0188637 20
2.5860856 -3.7981749 0.88793421 25
2.5884585 -3.8016598 0.64343029 32
2.5814433 -3.7913568 0.3982231 31
2.5832355 -3.7939889 0.23613013 29
2.5829298 -3.79354 0.15489189 32
2.2024617 -3.8025048 0.12220666 37
9.1679564 -11.562936 0.323533 41
2.5840688 -3.7952127 0.073570438 27
2.2072098 -3.8107023 0.04458053 39
9.1551676 -11.546805 0.062240213 47
2.5821457 -3.7923882 -0.0076071885 34
2.1992409 -3.7969444 -0.03308443 37
9.1419973 -11.530196 -0.19776289 35
2.5861681 -3.7982957 -0.088873051 36
2.1986032 -3.7958431 -0.11073023 44
9.1210089 -11.503724 -0.45700535 41
2.587126 -3.7997029 -0.17040636 65
2.2052889 -3.8073857 -0.18902808 48
9.1468401 -11.536304 -0.71876085 41
2.578285 -3.7867181 -0.2509121 43
2.2012749 -3.8004558 -0.26631403 44
9.1424856 -11.530811 -0.97920519 46
2.5798857 -3.7890692 -0.33220264 45
2.192584 -3.7854514 -0.34275153 43
9.1278925 -11.512405 -1.2375925 45
2.5851703 -3.7968304 -0.41414946 44
2.1972125 -3.793442 -0.42103356 41
9.1154575 -11.496722 -1.495756 42
2.5762126 -3.7836745 -0.49371395 52
2.5731933 -3.7792399 -0.57418418 44
2.5694156 -3.7736914 -0.65413952 43
2.5803723 -3.7897837 -0.73888749 40
2.5772743 -3.7852337 -0.81900322 44
2.5645342 -3.7665222 -0.89621937 41
2.5754004 -3.7824814 -0.98109478 37
2.5766692 -3.7843449 -1.0627842 35
2.5772512 -3.7851999 -1.1438695 42
2.5673025 -3.7705879 -1.5692669 29
2.1302099 -3.1286318 -1.7643255 7
2.1413655 -3.192703 1.01478 21
2.5485682 -3.7998283 0.8841396 35
2.5552349 -3.809768 0.64176768 33
2.5415936 -3.7894292 0.39614722 28
2.5455601 -3.7953432 0.23510259 29
2.5563831 -3.8114798 0.15489189 31
2.1699221 -3.8073666 0.12187307 35
9.0402193 -11.566792 0.32186711 41
2.5419157 -3.7899094 0.073121831 22
2.1647084 -3.7982185 0.044256601 43
9.0250683 -11.547407 0.061902318 45
2.5489228 -3.8003566 -0.0075872918 31
2.166738 -3.80178 -0.032993954 42
9.0070934 -11.524409 -0.19658029 36
2.5417666 -3.7896874 -0.088254265 46
2.1641297 -3.7972035 -0.11032647 46
9.0010834 -11.516719 -0.45501405 40
2.5538564 -3.8077126 -0.16996183 51
2.1687605 -3.8053288 -0.18816964 47
9.0144129 -11.533773 -0.71466482 42
2.5451117 -3.7946746 -0.25025582 43
2.1707351 -3.8087933 -0.2658298 43
9.0126076 -11.531464 -0.97389352 48
2.53337 -3.777168 -0.32960051 45
2.162154 -3.7937369 -0.34212664 41
8.9957533 -11.509899 -1.2305416 34
2.5408478 -3.7883172 -0.41127592 52
2.1588464 -3.7879333 -0.41873911 43
8.9663591 -11.47229 -1.4843968 8
2.540874 -3.7883563 -0.49199817 54
2.5334823 -3.7773356 -0.57119364 43
2.5341854 -3.778384 -0.65187019 41
2.5340545 -3.7781887 -0.73315972 42
2.5420127 -3.7900541 -0.81618637 50
2.5338039 -3.7778153 -0.89467549 42
2.5358596 -3.78088 -0.97606349 38
2.5306535 -3.7731178 -1.0546438 36
2.5356312 -3.7805395 -1.1370838 47
2.5282748 -3.7695715 -1.5614597 29
2.1002381 -3.1313834 -1.7575656 7
2.1254196 -3.2172554 1.0178428 21
2.5176492 -3.8109744 0.88262177 33
2.5198414 -3.8142929 0.63955086 32
2.4997003 -3.7838051 0.39372537 28
2.5123959 -3.8030224 0.23448607 26
2.5120831 -3.8025491 0.1538125 29
2.1393783 -3.8154469 0.12165067 36
8.9104376 -11.566264 0.32011354 42
2.5065773 -3.7942147 0.072865494 23
2.1283588 -3.795794 0.044054147 37
8.9027348 -11.556266 0.061615106 46
2.5068955 -3.7946966 -0.0075408658 29
2.1284072 -3.7958806 -0.032812998 44
8.8898058 -11.539483 -0.19577397 38
2.5042257 -3.7906556 -0.087867521 44
2.1258342 -3.7912917 -0.10972083 40
8.8887434 -11.538104 -0.45339611 45
2.5117881 -3.8021026 -0.16892457 47
2.1323698 -3.8029475 -0.1873112 45
8.8922234 -11.542622 -0.71134895 11
2.5075505 -3.7956879 -0.24916205 42
2.136282 -3.8099244 -0.2648614 43
8.8709898 -11.515059 -0.96725398 28
2.5003417 -3.784776 -0.32873315 44
2.123915 -3.7878687 -0.34025198 39
8.8738279 -11.518743 -1.2248337 10
2.5055547 -3.7926672 -0.40983915 47
2.1265078 -3.7924929 -0.41759187 38
8.9200497 -11.578742 -1.4900764 19
2.5012116 -3.7860928 -0.48942453 52
2.4939239 -3.7750614 -0.56820309 43
2.4881029 -3.7662501 -0.64676416 41
2.5054393 -3.7924924 -0.73252326 46
2.4981279 -3.7814252 -0.8105526 45
2.4943881 -3.775764 -0.89004385 41
2.4964674 -3.7789116 -0.97103226 32
2.4935119 -3.7744377 -1.0501213 34
2.4963417 -3.7787213 -1.1312675 40
2.4914725 -3.7713506 -1.5549536 31
2.0843213 -3.1550443 -1.7626355 7
2.1293595 -3.2701731 1.0300937 22
2.47946 -3.8078415 0.87806827 34
2.4750338 -3.801044 0.63456303 31
2.4593287 -3.7769246 0.39130351 27
2.4674997 -3.7894733 0.23263648 26
2.4759011 -3.8023758 0.15313789 27
2.102432 -3.8085489 0.12098348 35
8.8044996 -11.586895 0.3190614 43
2.4726281 -3.7973495 0.072609149 26
2.0992711 -3.8028228 0.043973166 34
8.8258972 -11.615054 0.061615106 33
2.4751246 -3.8011835 -0.007520969 28
2.0896535 -3.7854006 -0.032601885 38
8.8542166 -11.652324 -0.1966878 25
2.4681187 -3.7904241 -0.087480783 41
2.0948451 -3.794805 -0.10941802 39
8.8773375 -11.682751 -0.45675644 29
2.4756105 -3.8019295 -0.16818367 46
2.0955126 -3.7960145 -0.18628109 44
8.8251448 -11.614065 -0.71212912 16
2.4670651 -3.788806 -0.24763077 40
2.0974593 -3.7995408 -0.26316667 40
8.8692827 -11.672152 -0.97548705 37
2.4664772 -3.7879031 -0.32757667 42
2.0948915 -3.7948895 -0.33962709 37
8.8888779 -11.697938 -1.2375925 32
2.4716501 -3.7958472 -0.40840238 46
2.0820656 -3.7716551 -0.41376778 39
8.922513 -11.742204 -1.503464 33
2.4695361 -3.7926006 -0.48813769 47
2.455838 -3.7715638 -0.56521255 42
2.4522662 -3.7660785 -0.64392745 36
2.4651473 -3.7858608 -0.72806829 42
2.4515078 -3.7649138 -0.80351049 43
2.4607246 -3.7790685 -0.8869561 39
2.4606788 -3.7789981 -0.96683955 33
2.455667 -3.7713013 -1.0446943 32
2.4585197 -3.7756822 -1.1254512 40
2.4540212 -3.7687738 -1.5471462 29
2.0653284 -3.1718371 -1.7643255 6
2.1106534 -3.2914698 1.0321355 21
2.4337368 -3.7953038 0.87123799 39
2.4398849 -3.8048913 0.63234621 31
2.4285996 -3.7872922 0.39061153 27
2.4302034 -3.7897935 0.23160894 32
2.4320321 -3.7926455 0.1520585 25
2.0662527 -3.8055644 0.12042749 34
8.8024998 -11.753709 0.32195479 33
2.424469 -3.7808511 0.071968287 25
2.0612199 -3.7962954 0.043730218 35
8.8309126 -11.791647 0.062223319 31
2.437732 -3.8015339 -0.0074878079 28
2.0593586 -3.7928672 -0.032541566 40
8.8613615 -11.832306 -0.19867672 23
2.4329622 -3.7940958 -0.087171391 41
2.0587611 -3.7917666 -0.10891332 40
8.8794403 -11.856445 -0.46111241 28
2.4360621 -3.7989302 -0.16729459 46
2.0632398 -3.8000152 -0.18576601 42
8.8228807 -11.780923 -0.71856582 31
2.4254634 -3.7824018 -0.24609949 41
2.0632617 -3.800056 -0.26219824 42
8.8617468 -11.832819 -0.98372012 36
2.4356661 -3.7983124 -0.32699841 42
2.0550275 -3.7848904 -0.33743998 36
8.8977871 -11.880943 -1.2503512 24
2.4343383 -3.796242 -0.40660641 43
2.0556839 -3.786099 -0.41376778 39
8.9333496 -11.928429 -1.5192857 27
2.4301186 -3.7896614 -0.48556402 49
2.4208789 -3.7752523 -0.56321883 38
2.4280527 -3.7864394 -0.64449483 36
2.4216042 -3.7763836 -0.72297692 41
2.4187884 -3.7719922 -0.8013978 45
2.4173338 -3.7697239 -0.88078064 36
2.4279034 -3.786207 -0.96432388 34
2.4208663 -3.7752328 -1.0410763 31
2.4237218 -3.7796857 -1.1215737 39
2.4235678 -3.7794454 -1.5445439 32
2.0431352 -3.186178 -1.7643255 7
2.0947244 -3.319937 1.0362191 20
2.3953724 -3.7964349 0.86744338 39
2.3929031 -3.7925215 0.62735838 31
2.3922663 -3.791512 0.38922763 31
2.3895679 -3.7872353 0.23037589 27
2.3998992 -3.8036096 0.15178865 27
2.0364189 -3.8170807 0.1203163 38
8.7873144 -11.914471 0.32458514 28
2.3902864 -3.7883742 0.071776032 26
2.0276885 -3.8007159 0.043608747 39
8.8178387 -11.955857 0.062747054 31
2.3927245 -3.7922385 -0.00743475 30
2.025852 -3.7972739 -0.032451089 39
8.8503571 -11.999949 -0.20039687 23
2.3944144 -3.7949166 -0.086784653 40
2.0252643 -3.7961724 -0.1086105 41
8.8872137 -12.049921 -0.46609068 25
2.3996172 -3.8031628 -0.16670187 46
2.0278046 -3.8009338 -0.18507926 49
8.8216562 -11.961034 -0.72558761 27
2.3912783 -3.7899461 -0.24544322 42
2.0240746 -3.7939422 -0.26074564 42
8.8553152 -12.006671 -0.99274993 32
2.388598 -3.7856982 -0.32439631 41
2.0215967 -3.7892976 -0.33650264 43
8.8743353 -12.032459 -1.2594166 18
2.3936901 -3.7937689 -0.40445125 43
2.0222526 -3.7905269 -0.41262054 46
8.9047203 -12.073658 -1.5294278 4
2.3937852 -3.7939196 -0.48384824 49
2.3889043 -3.7861836 -0.562222 40
2.3791027 -3.7706492 -0.63882142 39
2.3875353 -3.784014 -0.72106767 41
2.3889725 -3.7862916 -0.80069357 41
2.3875413 -3.7840233 -0.8800087 39
2.3896492 -3.787364 -0.96013117 34
2.3827317 -3.7764006 -1.0365537 34
2.3876672 -3.7842228 -1.1176962 37
2.383688 -3.7779162 -1.5367365 30
2.0255284 -3.2102678 -1.7693954 6
2.0694549 -3.3311946 1.0351982 21
2.3605199 -3.7997212 0.86440772 42
2.3600967 -3.7990398 0.62569577 32
2.353121 -3.7878108 0.38715175 30
2.3567455 -3.7936456 0.22975935 29
2.3627386 -3.8032923 0.15111405 31
1.9967201 -3.8064182 0.1195379 36
8.7956161 -12.101686 0.3280046 32
2.3532279 -3.7879829 0.071455605 28
1.9955317 -3.8041527 0.043487273 46
8.7976522 -12.104487 0.063203216 5
2.3535266 -3.7884638 -0.0073949564 31
1.9974353 -3.8077817 -0.03242093 41
2.3594208 -3.7979519 -0.086475261 42
1.9987136 -3.8102186 -0.1086105 45
2.3708982 -3.816427 -0.16655369 47
1.9937949 -3.8008416 -0.18439251 51
8.806056 -12.116051 -0.73124409 1
2.3542228 -3.7895846 -0.24434945 45
1.9956847 -3.8044446 -0.26050353 45
2.3557947 -3.792115 -0.32352895 42
1.9969465 -3.8068497 -0.33681509 40
2.3587375 -3.7968519 -0.40301448 47
2.0012903 -3.8151302 -0.41376778 39
9.4612589 -13.017529 -1.6405851 1
2.3588459 -3.7970264 -0.48213246 48
2.3519418 -3.785913 -0.55972987 41
2.3401837 -3.7669861 -0.6354174 42
2.3568919 -3.7938809 -0.71979481 43
2.350014 -3.7828095 -0.79646832 50
2.3507099 -3.7839298 -0.876149 39
2.3487027 -3.7806988 -0.95426136 37
2.3480849 -3.7797043 -1.0329359 34
2.3550465 -3.7909107 -1.1147881 41
2.347275 -3.7784007 -1.5302304 32
1.9992408 -3.2181711 -1.7660154 6
2.0501842 -3.3521595 1.03724 21
2.3257391 -3.8027065 0.86137205 38
2.33145 -3.8120441 0.62514156 35
2.3183031 -3.7905483 0.38576782 29
2.3218665 -3.7963748 0.22893731 28
2.3236141 -3.799232 0.1503045 28
1.9682651 -3.8167114 0.11942671 38
13.852248 -19.341478 0.52159834 53
2.3204651 -3.7940834 0.071263351 27
1.974425 -3.8286562 0.043608747 41
10.986077 -15.33953 0.079692475 2
2.3165858 -3.7877402 -0.0073617953 28
1.9799699 -3.8394086 -0.032571726 25
10.740654 -14.996853 -0.24791586 0
2.3265889 -3.804096 -0.086243212 43
1.9922251 -3.8631728 -0.10972083 23
10.63865 -14.854427 -0.56876755 6
2.3337691 -3.815836 -0.16581279 47
1.9782015 -3.8359795 -0.18542264 41
9.0911379 -12.693684 -0.7622571 0
2.3214576 -3.795706 -0.24369317 43
1.985546 -3.8502214 -0.26268247 29
8.9842768 -12.544476 -1.0267446 1
2.3209374 -3.7948554 -0.32237244 46
1.9867709 -3.8525965 -0.33962709 25
8.9677277 -12.521369 -1.2973568 2
2.3176229 -3.7894361 -0.40050012 50
2.001981 -3.882091 -0.41950393 25
9.372468 -13.086495 -1.6409907 0
2.3177555 -3.7896531 -0.47912988 50
2.3213124 -3.7954688 -0.55873305 38
2.3076305 -3.773098 -0.63371539 40
2.3179858 -3.7900293 -0.71597624 42
2.31533 -3.7856872 -0.79365146 46
2.3078537 -3.7734628 -0.86997348 41
2.312048 -3.7803209 -0.95006865 36
2.3114755 -3.7793849 -1.0284133 35
2.3123252 -3.7807741 -1.107033 41
2.3070252 -3.7721083 -1.521122 31
1.9880747 -3.2506073 -1.7761552 6
2.0287266 -3.3697045 1.0382609 21
2.2930574 -3.8087566 0.85909528 35
2.286391 -3.7976837 0.62015373 32
2.2876725 -3.7998126 0.38507587 29
2.289125 -3.8022246 0.22832079 29
2.2929099 -3.8085115 0.15003465 31
1.9560337 -3.8588912 0.1203163 22
13.78836 -19.539003 0.52431637 48
2.2836063 -3.7930584 0.070942916 26
1.9711568 -3.8887262 0.044135127 28
10.913314 -15.464876 0.0799459 1
2.2900858 -3.8038208 -0.0073617953 27
1.9820526 -3.9102216 -0.03305427 22
2.6473932 -3.7515283 -0.061710194 0
2.2896609 -3.8031149 -0.085856475 42
1.9941331 -3.9340541 -0.11133587 22
2.6694024 -3.7827168 -0.14412096 7
2.2926404 -3.808064 -0.16477554 45
1.9730549 -3.8924708 -0.18748289 27
2.658304 -3.7669899 -0.22508819 0
2.2784216 -3.7844467 -0.24194314 39
1.9838904 -3.9138472 -0.26607192 31
2.6694045 -3.7827199 -0.3080765 0
2.2779255 -3.7836227 -0.32005945 45
1.9904767 -3.9268408 -0.34493864 23
2.6681647 -3.7809632 -0.3898114 15
2.282892 -3.7918718 -0.39906335 49
2.0000331 -3.9456937 -0.42485768 23
2.6500411 -3.7552805 -0.46856475 26
2.2850885 -3.7955203 -0.47784305 50
2.276335 -3.7809808 -0.5542472 41
2.2689795 -3.7687633 -0.63031137 42
2.2853591 -3.79597 -0.71406698 44
2.276659 -3.7815187 -0.78942615 49
2.2693076 -3.7693083 -0.86534184 39
2.2755136 -3.7796164 -0.94587594 35
2.2749858 -3.7787397 -1.0238909 32
2.2738643 -3.7768769 -1.1012167 42
2.27088 -3.77192 -1.5146159 30
1.9541129 -3.2457714 -1.7660154 6
2.0083067 -3.3864114 1.0392818 22
2.2557273 -3.8036127 0.85454178 37
2.257113 -3.8059492 0.61904532 31
2.2481928 -3.7909079 0.38265401 29
2.2475567 -3.7898355 0.22667672 32
2.2553658 -3.8030033 0.14922512 26
1.9589431 -3.929033 0.12209547 22
2.6517527 -3.8111129 0.10179453 5
2.2522802 -3.7978003 0.070750661 25
1.9649541 -3.9410892 0.04458053 27
2.6432281 -3.7988615 0.019547211 31
2.2444046 -3.7845204 -0.0072954725 26
1.9828465 -3.9769757 -0.033506654 22
2.6293068 -3.7788537 -0.061871458 12
2.2480681 -3.7906978 -0.085237689 42
1.9983293 -4.0080295 -0.11305183 21
2.6259875 -3.7740831 -0.14312531 41
2.2591791 -3.809433 -0.16418283 47
1.9775091 -3.9662704 -0.19040158 24
2.6195705 -3.7648606 -0.2239179 26
2.2471609 -3.7891681 -0.24128687 43
1.9863935 -3.9840899 -0.26994556 27
2.6169031 -3.7610271 -0.3048895 28
2.2487123 -3.7917838 -0.31948122 37
1.9946377 -4.0006251 -0.35025018 22
2.6111584 -3.7527707 -0.38511083 73
2.243469 -3.7829425 -0.39654902 49
2.0022461 -4.0158854 -0.43097621 23
2.6318948 -3.7825732 -0.46978179 44
2.2456658 -3.7866468 -0.47484043 48
2.2451358 -3.7857533 -0.55275196 41
2.2398953 -3.7769167 -0.62917674 37
2.2520761 -3.797456 -0.71152133 42
2.2475126 -3.7897611 -0.78801769 45
2.2382534 -3.774148 -0.86302602 40
2.2444119 -3.7845328 -0.94336033 33
2.2339747 -3.7669332 -1.0166548 34
2.238868 -3.7751844 -1.0963699 40
2.2342381 -3.7673774 -1.5068085 31
1.9436398 -3.27737 -1.7761552 6
2.0021617 -3.4304116 1.0484699 21
2.2152603 -3.7955246 0.84922934 36
2.2165093 -3.7976649 0.61516589 34
2.2116287 -3.7893023 0.38092411 27
2.2150028 -3.7950835 0.22606018 32
2.21667 -3.79794 0.14841558 29
1.9560935 -3.9928827 0.12365223 22
2.5934269 -3.783354 0.10056704 38
2.2176476 -3.7996149 0.070494317 28
1.9708267 -4.0229568 0.045349859 27
2.5985498 -3.7908275 0.019412054 38
2.2199454 -3.8035519 -0.007302105 28
1.988469 -4.0589695 -0.034079678 22
2.589293 -3.7773235 -0.06154893 31
2.2175171 -3.7993915 -0.085082993 43
1.9966881 -4.0757465 -0.11456592 21
2.5860126 -3.7725377 -0.14237857 46
2.2204397 -3.8043985 -0.16329375 49
1.972628 -4.0266337 -0.19263352 26
2.5841875 -3.7698755 -0.22313769 39
2.2186394 -3.8013144 -0.24106811 43
1.9936624 -4.0695701 -0.27478763 26
2.5860693 -3.7726209 -0.30435833 45
2.2161527 -3.7970536 -0.31861383 40
2.0017481 -4.0860753 -0.35649908 23
2.5916564 -3.7807713 -0.38611811 35
2.2129879 -3.7916312 -0.39583063 48
2.0021892 -4.0869756 -0.43709478 23
2.5986736 -3.7910082 -0.46856475 42
2.2131615 -3.7919285 -0.4735536 48
2.2046473 -3.7773409 -0.549263 43
2.2034934 -3.7753637 -0.62634003 42
2.2115757 -3.7892118 -0.70706636 42
2.2071066 -3.7815547 -0.78308821 49
2.2039366 -3.776123 -0.85993832 40
2.2100501 -3.7865977 -0.94000614 34
2.2017298 -3.7723422 -1.0139414 33
2.1987641 -3.767261 -1.0895841 41
2.2040689 -3.77635 -1.5042061 31
1.924367 -3.2971213 -1.7795352 7
1.9897212 -3.4644279 1.0545954 23
2.1828406 -3.8006804 0.84695262 40
2.1859968 -3.8061757 0.61405748 36
2.1751971 -3.7873716 0.3791942 29
2.1785069 -3.7931345 0.22503264 28
2.1881104 -3.8098557 0.14828065 29
1.9611157 -4.0748973 0.125765 21
2.5736656 -3.8113091 0.10083007 37
2.1870835 -3.8080678 0.070366144 29
1.9773843 -4.1087008 0.046159677 28
2.5630686 -3.7956161 0.019344473 40
2.1833768 -3.801614 -0.0072689438 30
1.9843678 -4.1232114 -0.034501903 23
2.5561452 -3.7853634 -0.061387666 31
2.178988 -3.7939723 -0.084618904 44
1.9959308 -4.1472373 -0.11618094 21
2.552901 -3.7805591 -0.14200521 39
2.1818812 -3.7990098 -0.16240467 49
1.9808624 -4.1159277 -0.19623896 25
2.5622785 -3.794446 -0.22352779 38
2.1801121 -3.7959297 -0.23975559 43
1.9911748 -4.1373553 -0.2784192 27
2.550735 -3.7773516 -0.303296 49
2.1776688 -3.7916753 -0.31687909 41
1.9991132 -4.1538501 -0.36118576 21
2.5540464 -3.7822552 -0.38443932 39
2.1785269 -3.7931695 -0.39439383 48
2.0046885 -4.1654344 -0.44397816 25
2.5521023 -3.7793765 -0.46491358 47
2.1787121 -3.7934921 -0.47183785 54
2.1742697 -3.7857568 -0.54826611 44
2.1613069 -3.7631865 -0.62180132 40
2.1752346 -3.787437 -0.70388424 45
2.1728086 -3.7832131 -0.78027135 54
2.1716564 -3.7812068 -0.8576225 41
2.1757693 -3.7883682 -0.936652 35
2.1695187 -3.7774847 -1.0112278 35
2.1646793 -3.7690585 -1.0857066 41
2.1719999 -3.7818053 -1.5003024 34
1.8958851 -3.3010442 -1.7744653 6
1.9826108 -3.5085387 1.0637835 23
2.1465931 -3.7987309 0.84315801 43
2.1554737 -3.8144464 0.61294907 33
2.1428218 -3.792057 0.37815624 33
2.1441116 -3.7943397 0.22421061 35
2.1496587 -3.8041561 0.14747111 32
1.9599601 -4.1463275 0.12754416 22
2.5270619 -3.7992165 0.10004096 38
2.1466715 -3.7988696 0.069917545 25
1.9777107 -4.1838794 0.046848021 29
2.5298622 -3.803426 0.019293791 42
2.1410403 -3.7889047 -0.0072158859 29
1.9914309 -4.2129045 -0.035135243 21
2.5207958 -3.7897956 -0.061172649 34
2.144578 -3.7951648 -0.084309511 47
2.0011067 -4.2333741 -0.11819972 20
2.5153744 -3.7816451 -0.14138292 44
2.1494062 -3.8037093 -0.16196012 50
1.9742815 -4.1766248 -0.19847091 24
2.5158117 -3.7823026 -0.22177234 43
2.1456988 -3.7971485 -0.23888056 44
1.9878364 -4.2053003 -0.28205076 28
2.5132501 -3.7784514 -0.3019681 47
2.1432939 -3.7928925 -0.31572261 49
1.9939239 -4.2181787 -0.36555997 22
2.5165417 -3.7834001 -0.38276055 43
2.1461129 -3.7978811 -0.39331627 47
1.9993818 -4.2297249 -0.44933191 23
2.5190434 -3.7871611 -0.46369654 48
2.146306 -3.7982228 -0.47055101 53
2.1419294 -3.790478 -0.54677087 46
2.1349821 -3.7781835 -0.62180132 40
2.1429117 -3.7922161 -0.70197493 44
2.1366582 -3.7811496 -0.77675027 49
2.1374824 -3.782608 -0.85453475 43
2.143496 -3.7932503 -0.93413639 36
2.1354265 -3.7789698 -1.0076098 35
2.132586 -3.7739434 -1.0827985 40
2.1381021 -3.7837045 -1.4950976 33
1.869226 -3.3078866 -1.7710854 7
1.9787396 -3.5594773 1.0750135 23
2.1162052 -3.8067589 0.84164017 39
2.113394 -3.8017018 0.60851544 37
2.1104882 -3.7964747 0.37711832 31
2.1136889 -3.8022325 0.22379959 34
2.1172221 -3.8085883 0.14706634 33
1.9629518 -4.2288184 0.12965693 20
2.4895196 -3.8000405 0.099602573 38
2.114269 -3.8032761 0.06972529 30
1.9753984 -4.2556324 0.047495876 25
2.4900954 -3.8009198 0.019192422 43
2.1106505 -3.796767 -0.0072026211 30
1.9838639 -4.27387 -0.035527308 21
2.4855092 -3.7939193 -0.060957629 31
2.1122019 -3.7995577 -0.084077463 46
2.0018082 -4.3125277 -0.12001663 19
2.4779575 -3.782392 -0.14076063 40
2.1150312 -3.8046472 -0.16136742 51
1.9736791 -4.2519288 -0.2013896 24
2.4827769 -3.7897482 -0.22118719 39
2.1055543 -3.7875993 -0.23734929 47
1.9886883 -4.2842631 -0.28640863 28
2.4758744 -3.7792122 -0.30064017 49
2.1090095 -3.7938149 -0.31456611 48
2.0013649 -4.3115726 -0.37243375 20
2.479146 -3.7842062 -0.38108179 40
2.1176116 -3.8092887 -0.39295706 51
1.9999796 -4.308588 -0.45621529 21
2.4794583 -3.7846832 -0.46126243 46
2.1120088 -3.7992101 -0.46883523 50
2.1038456 -3.7845256 -0.54378033 42
2.1027827 -3.7826135 -0.62009931 39
2.1029546 -3.7829227 -0.69752002 46
2.0987308 -3.7753246 -0.77252495 47
2.1053026 -3.7871466 -0.85221893 40
2.105561 -3.7876112 -0.9291051 34
2.0938478 -3.7665408 -1.000374 36
2.1043022 -3.785347 -1.0818291 43
2.1006088 -3.778703 -1.4872903 28
1.8443264 -3.3176866 -1.7693954 5
1.969283 -3.6044326 1.0842017 23
2.0788286 -3.8049369 0.83784556 40
2.0721741 -3.7927568 0.60463601 32
2.0749595 -3.7978554 0.37573439 28
2.0761838 -3.8000963 0.22277203 31
2.0777464 -3.8029563 0.1462568 30
1.960067 -4.3049574 0.1315473 23
2.4442616 -3.7912986 0.098901145 34
2.0709922 -3.7905939 0.069212601 28
1.9706688 -4.3282423 0.048143733 26
2.4513295 -3.8022616 0.019107947 41
2.073173 -3.7945855 -0.0071694599 29
1.9889457 -4.3683844 -0.036190808 17
2.4446282 -3.7918673 -0.060635101 30
2.0747058 -3.7973909 -0.083690725 44
8.8200731 -19.371805 -0.53729898 11
2.4436653 -3.7903736 -0.14038727 38
2.083252 -3.8130331 -0.16107105 50
1.9739215 -4.3353863 -0.20465165 23
2.4419408 -3.787699 -0.22001688 42
2.0681581 -3.7854068 -0.2362555 43
1.9803925 -4.3495984 -0.28979808 15
2.4394543 -3.7838418 -0.29957783 48
2.0734916 -3.7951684 -0.31340963 43
8.9016819 -19.551046 -1.6831381 9
2.4405408 -3.7855272 -0.379403 38
2.0743508 -3.796741 -0.39008352 50
2.4365549 -3.7793448 -0.45842263 43
2.078382 -3.8041196 -0.4675484 48
2.0684357 -3.7859142 -0.54178661 43
2.065506 -3.7805521 -0.6172626 39
2.0713809 -3.7913053 -0.69624716 46
2.0653362 -3.7802417 -0.77041233 47
2.0624309 -3.7749236 -0.84604341 38
2.0646133 -3.7789185 -0.9232353 35
2.0661814 -3.7817883 -1.000374 33
2.0653338 -3.7802372 -1.0760128 38
2.0655987 -3.7807221 -1.4820855 25
1.82691 -3.3438435 -1.7761552 6
1.9587162 -3.6453481 1.0923688 23
2.0447788 -3.8055186 0.8348099 38
2.045645 -3.8071308 0.60463601 31
2.0408502 -3.798207 0.37435049 31
2.0420406 -3.8004222 0.22194999 35
2.0454695 -3.8068039 0.14585203 27
8.839015 -19.778381 0.60247105 12
2.407017 -3.7913899 0.098462753 38
2.0406923 -3.7979133 0.069084436 29
8.8680916 -19.843443 0.22002779 26
2.4075742 -3.7922676 0.01897279 40
2.0371649 -3.7913485 -0.0071362988 31
18.983435 -42.477768 -0.35080954 26
2.4073782 -3.7919588 -0.060366329 28
2.0405729 -3.7976909 -0.083381332 43
8.7580404 -19.597191 -0.54184127 13
2.40643 -3.7904651 -0.13976498 40
2.0471213 -3.8098783 -0.16033016 47
8.6875353 -19.439426 -0.91475171 14
2.4047315 -3.7877898 -0.21904163 40
2.0341191 -3.7856796 -0.23538049 45
8.7154455 -19.501879 -1.2952546 3
2.4044223 -3.7873027 -0.2985155 47
2.0393925 -3.7954938 -0.31225312 42
8.8967695 -19.907614 -1.708446 0
2.405508 -3.7890131 -0.37805998 39
2.0383658 -3.7935832 -0.38828757 49
7.4470372 -16.66366 -1.7529681 1
2.4058452 -3.7895441 -0.45761126 43
2.042362 -3.8010204 -0.46540368 49
2.0363188 -3.7897739 -0.54029137 41
2.0278175 -3.773952 -0.61385858 46
2.0392547 -3.7952378 -0.69433784 42
2.0351677 -3.7876313 -0.76900387 46
2.0397418 -3.7961442 -0.84758729 41
2.0437348 -3.8035755 -0.92575097 38
2.0286636 -3.7755268 -0.99494696 32
2.0370555 -3.7911448 -1.0750434 41
2.0409446 -3.7983825 -1.4833866 31
1.803521 -3.3565159 -1.7761552 6
1.9512866 -3.6931295 1.1025779 21
2.0071533 -3.7988663 0.8302564 38
2.0097635 -3.8038068 0.60186499 28
2.0031142 -3.7912219 0.37227461 32
1.9986633 -3.7827976 0.22010042 36
2.0095055 -3.803318 0.14517741 30
14.13024 -32.220139 0.97843164 26
2.3698914 -3.7911458 0.098024361 38
2.0066547 -3.7979228 0.068828091 28
18.788807 -42.842724 0.47358209 14
2.37256 -3.7954149 0.018905211 42
2.0125153 -3.8090148 -0.0071429312 34
25.801464 -58.833164 -0.48438379 27
2.3638866 -3.7815399 -0.059936292 32
2.0084052 -3.8012357 -0.083149284 44
9.9957495 -22.792566 -0.62824517 23
2.3714328 -3.7936115 -0.13926715 36
2.0130041 -3.8099399 -0.15973744 53
8.6880379 -19.810688 -0.92934513 2
2.3697591 -3.7909338 -0.21826144 40
2.0057747 -3.796257 -0.23516172 49
8.7218018 -19.887676 -1.3168018 0
2.3673458 -3.7870739 -0.2971876 44
2.0184364 -3.8202217 -0.31312048 44
9.0987129 -20.747122 -1.7749968 3
2.3642082 -3.7820544 -0.37570971 36
2.0099707 -3.8041987 -0.38792837 52
7.3465137 -16.751709 -1.7567922 1
2.3730032 -3.796124 -0.45639423 44
2.0083447 -3.801121 -0.4636879 58
2.0116658 -3.8074074 -0.54078978 45
2.0032709 -3.7915182 -0.61442596 45
2.0127094 -3.809382 -0.69433784 48
2.0013175 -3.7878211 -0.76618701 49
2.0150235 -3.8137622 -0.84835923 35
2.0207853 -3.8246675 -0.92742801 23
2.0022562 -3.7895977 -0.99494696 36
2.0141647 -3.8121364 -1.0769821 36
2.026746 -3.8359487 -1.4924952 17
1.7732697 -3.3562031 -1.7693954 7
1.9361538 -3.7272537 1.1087034 24
1.9679111 -3.7883894 0.82494396 38
1.9795077 -3.8107135 0.60075659 39
1.9802724 -3.8121858 0.37296656 29
1.974048 -3.8002033 0.22030592 37
1.984748 -3.8208015 0.14531234 34
13.927082 -32.369423 0.97998846 23
2.3328865 -3.79057 0.097585969 38
1.9874668 -3.8260355 0.069084436 31
20.354616 -47.308346 0.52136141 2
2.3355229 -3.7948537 0.018820737 41
1.9969386 -3.8442695 -0.0071827243 28
24.980661 -58.060234 -0.4765726 18
2.33114 -3.7877326 -0.059775028 34
1.9836632 -3.8187132 -0.083226636 47
2.3344128 -3.7930503 -0.13864487 39
1.993728 -3.838089 -0.16033016 50
9.756216 -22.675468 -1.0605145 35
2.3348594 -3.7937756 -0.21748123 39
1.9921116 -3.8349771 -0.23669301 34
9.7599363 -22.684114 -1.4974111 3
2.334574 -3.7933118 -0.29639083 46
1.9972352 -3.8448403 -0.31398788 23
9.0466366 -21.026258 -1.7934309 1
2.3335686 -3.7916784 -0.37503818 38
1.9870373 -3.8252087 -0.38864675 51
7.2577114 -16.868425 -1.7636756 1
2.3339293 -3.7922645 -0.45396012 43
1.9927593 -3.8362241 -0.46626157 34
2.0033321 -3.8565776 -0.54577398 28
2.0150836 -3.8791997 -0.62634003 21
1.9933482 -3.8373578 -0.69688356 25
2.0038671 -3.8576076 -0.7774545 26
2.0136795 -3.8764973 -0.85916638 23
2.0192769 -3.8872724 -0.93916762 24
1.991917 -3.8346026 -1.0030874 23
2.0143368 -3.8777623 -1.0915229 30
2.033046 -3.9137793 -1.5172182 17
1.7631663 -3.3942387 -1.7829151 7
1.9166712 -3.7503448 1.1117661 27
1.9516788 -3.8188438 0.82873857 43
1.9559931 -3.8272855 0.60131079 26
1.9730804 -3.8607204 0.37642637 18
1.9542543 -3.8238833 0.22092246 29
1.9666407 -3.84812 0.14585203 21
13.733875 -32.512646 0.98154521 24
2.3035481 -3.7991199 0.097410612 38
1.9711483 -3.8569398 0.069404863 15
19.694883 -46.624332 0.51237243 3
2.3020074 -3.7965789 0.018753158 44
1.9932421 -3.9001708 -0.0072623114 18
24.310211 -57.550346 -0.47105351 34
2.2935252 -3.7825897 -0.059452504 31
1.9564726 -3.8282239 -0.083149284 27
2.2926216 -3.7810993 -0.13764921 40
1.9791434 -3.8725836 -0.16121924 23
9.5667362 -22.647642 -1.0562223 38
2.2972181 -3.7886801 -0.21631093 37
1.9938971 -3.9014523 -0.23997433 24
9.5611115 -22.634327 -1.4899058 14
2.294879 -3.784822 -0.29453176 49
1.9952935 -3.9041846 -0.31774646 27
8.9659529 -21.225389 -1.8053038 1
2.2980371 -3.7900305 -0.37335941 41
1.9851922 -3.8844194 -0.39331627 27
7.1782126 -16.993214 -1.7717062 1
2.3004739 -3.7940497 -0.45233738 43
1.9889903 -3.8918512 -0.4714089 31
2.0084145 -3.9298584 -0.5542472 27
2.0127361 -3.9383144 -0.63371539 26
1.9930139 -3.8997242 -0.7057935 24
1.9979491 -3.9093809 -0.78520083 26
2.0182891 -3.9491799 -0.8722893 20
2.0254884 -3.9632668 -0.95426136 21
2.0019045 -3.9171205 -1.0211773 23
2.0150647 -3.9428711 -1.1060636 29
2.0328636 -3.9776981 -1.5367365 17
1.7422658 -3.4090862 -1.784605 6
1.8956499 -3.7740021 1.1148288 24
1.93731 -3.8569422 0.83405101 22
1.9576752 -3.8974869 0.61017805 17
1.9639663 -3.9100113 0.37988615 16
1.9490274 -3.8802702 0.22338857 19
1.9702324 -3.9224865 0.14814574 21
13.54023 -32.688999 0.98399156 27
2.2667217 -3.7979395 0.09697222 36
1.9764867 -3.9349382 0.070558406 14
19.056662 -46.00684 0.50411224 3
2.2692962 -3.802253 0.018702473 41
1.9928963 -3.9676075 -0.0073617953 17
23.975204 -57.881252 -0.47238052 29
2.2629621 -3.7916403 -0.059344992 31
1.9602152 -3.9025435 -0.084464207 24
9.7048225 -23.42951 -0.64015597 0
2.2579727 -3.7832806 -0.13715139 42
1.9861486 -3.9541738 -0.16403463 26
2.2604742 -3.7874718 -0.21533568 39
1.9917094 -3.9652443 -0.24303691 22
9.3784189 -22.641502 -1.4860322 20
2.2602181 -3.7870426 -0.29346943 42
1.9984305 -3.9786253 -0.32266158 22
8.8282404 -21.313253 -1.8074909 1
2.2592649 -3.7854457 -0.37134489 38
1.9830595 -3.9480238 -0.39834496 27
7.0731196 -17.076019 -1.7751479 1
2.2596543 -3.786098 -0.44949761 46
1.9939027 -3.9696112 -0.47912988 29
2.0040884 -3.9898894 -0.5607267 25
2.0100741 -4.0018063 -0.64165813 22
2.0029633 -3.9876499 -0.71915841 23
1.9935833 -3.9689753 -0.79435563 27
2.0135708 -4.0087681 -0.88232446 24
2.0188365 -4.0192509 -0.96432388 22
2.0007427 -3.9832287 -1.0347449 22
2.0136175 -4.0088611 -1.1206044 28
2.0339065 -4.0492535 -1.5588572 17
1.7167963 -3.4179268 -1.7829151 7
1.870968 -3.7906125 1.1158497 25
1.9346719 -3.9196775 0.84467584 17
1.9532114 -3.9572389 0.61738271 18
1.9666054 -3.9843755 0.38576782 17
1.9501796 -3.9510963 0.22667672 18
1.958725 -3.9684093 0.14936003 19
13.337261 -32.845715 0.98588192 28
2.2340765 -3.8033266 0.096709184 36
1.9808308 -4.0131965 0.07171195 15
18.423512 -45.371635 0.49573064 4
2.2345934 -3.8042066 0.018634895 42
1.9917047 -4.0352268 -0.0074612787 17
23.754126 -58.499355 -0.47605991 24
2.2283344 -3.7935512 -0.059129976 31
1.9577037 -3.9663403 -0.085547082 25
9.8479195 -24.252499 -0.66074759 6
2.2234066 -3.785162 -0.13665356 42
1.9779559 -4.0073714 -0.16566461 24
9.2886868 -22.875275 -1.0606862 6
2.2258844 -3.7893806 -0.21455547 41
1.99403 -4.039938 -0.24675575 22
9.1930857 -22.639837 -1.4816743 5
2.2236178 -3.7855217 -0.2921415 47
1.9970924 -4.0461426 -0.32699841 20
8.6762295 -21.366976 -1.806866 1
2.2226896 -3.7839413 -0.3696661 42
1.985424 -4.0225024 -0.40445125 26
6.9777031 -17.18401 -1.7812665 1
2.2230906 -3.7846243 -0.44746917 45
1.9890236 -4.0297947 -0.48470613 29
2.0042903 -4.0607257 -0.56870151 24
2.0101271 -4.0725513 -0.6507355 21
1.9925539 -4.0369477 -0.72552264 23
2.0006812 -4.0534134 -0.80843997 26
2.0185406 -4.0895967 -0.89699131 20
2.0236177 -4.0998836 -0.9802562 21
2.005652 -4.0634847 -1.0519303 20
2.0182161 -4.0889397 -1.1390226 30
2.0323734 -4.1176224 -1.5796766 17
1.6928928 -3.4298289 -1.7829151 5
1.8515627 -3.8216281 1.1209543 25
1.9349979 -3.9938383 0.85757744 20
1.9500597 -4.0249257 0.62569577 19
1.9668835 -4.0596504 0.39164948 17
1.9507742 -4.0264006 0.23017037 18
1.9661869 -4.0582123 0.15219343 18
13.128629 -33.024342 0.98832828 22
2.1961362 -3.8022866 0.0962708 36
1.9810047 -4.0887966 0.072801404 13
17.814112 -44.810413 0.48815882 4
2.1966443 -3.8031662 0.018550422 41
1.9864883 -4.1001148 -0.0075541306 17
23.398548 -58.857754 -0.47756785 26
2.1944652 -3.7993934 -0.058968712 30
1.963451 -4.0525656 -0.087094039 23
11.297771 -28.418917 -0.77198249 14
2.1856022 -3.7840483 -0.13603127 40
1.9746704 -4.0757222 -0.1678873 24
9.0144577 -22.675369 -1.0483247 35
2.1880562 -3.7882972 -0.21358022 41
1.9957085 -4.1191449 -0.25069335 23
9.0018044 -22.643541 -1.4775586 2
2.1818359 -3.7775276 -0.29028243 47
2.0039086 -4.1360703 -0.33307001 19
8.5429392 -21.489292 -1.8118652 1
2.186918 -3.7863269 -0.36832309 38
1.9854139 -4.0978971 -0.41055754 23
6.8618469 -17.260597 -1.7839433 1
2.191308 -3.7939272 -0.44665781 50
1.9958445 -4.1194258 -0.49371395 29
2.0038881 -4.1360278 -0.57717472 24
2.0130224 -4.154881 -0.66151494 20
1.9939014 -4.1154151 -0.73697823 22
2.0035341 -4.1352973 -0.82182008 24
2.0141776 -4.1572652 -0.90857035 20
2.0242054 -4.1779628 -0.99534994 20
2.0029936 -4.1341815 -1.0664022 20
2.0101857 -4.1490259 -1.1516246 27
2.0334702 -4.1970849 -1.6043998 17
1.6661247 -3.4388835 -1.7812251 7
1.8198526 -3.8239839 1.1178916 24
1.9391352 -4.0746274 0.87199688 19
1.9576626 -4.1135583 0.63733405 19
1.976169 -4.1524453 0.39926106 20
1.9449342 -4.086813 0.232842 18
1.9635772 -4.1259866 0.15421727 20
11.376958 -29.210518 0.87179273 8
2.1596582 -3.8001418 0.095832407 36
1.9747552 -4.1494746 0.07363452 15
14.57726 -37.427345 0.40661007 3
2.1601579 -3.8010211 0.018465947 42
1.9887569 -4.178896 -0.0076735108 17
14.539851 -37.331295 -0.30207261 15
2.1560297 -3.7937572 -0.058646183 34
1.9626092 -4.1239529 -0.08833161 25
11.091838 -28.478468 -0.77147776 13
2.1551805 -3.7922626 -0.13578236 40
1.9753706 -4.1507678 -0.17040636 26
8.8472319 -22.715406 -1.0472946 51
2.1497114 -3.7826393 -0.21240993 40
1.9926487 -4.1870737 -0.25397468 23
8.8261156 -22.661192 -1.4746534 45
2.1514664 -3.7857273 -0.28975126 47
2.0024161 -4.2075973 -0.33769599 21
8.4071817 -21.585571 -1.8149897 1
2.1545231 -3.791106 -0.36731583 42
1.9875729 -4.1764078 -0.417023 24
6.7830849 -17.415678 -1.7950332 1
2.154937 -3.7918344 -0.4446294 47
1.9926726 -4.1871233 -0.50014812 30
2.0107808 -4.225174 -0.5876416 24
2.0060875 -4.215312 -0.6688903 21
2.0007598 -4.2041173 -0.75034314 22
2.0101495 -4.2238474 -0.83660859 26
2.0188379 -4.2421036 -0.92400908 20
2.0269229 -4.2590923 -1.0112823 18
2.0075715 -4.21843 -1.0844922 18
2.0228634 -4.2505627 -1.1758591 25
2.0366285 -4.2794867 -1.6304241 17
1.6467509 -3.4602523 -1.7862951 6
1.7898368 -3.8295887 1.1158497 26
1.947225 -4.1663408 0.88869309 20
1.9557335 -4.184546 0.64620131 17
1.9758152 -4.2275133 0.40514269 19
1.9518749 -4.17629 0.23715769 18
1.968578 -4.2120285 0.15691574 19
11.139983 -29.203306 0.86923516 8
2.121366 -3.7941833 0.095306337 39
1.9762195 -4.2283788 0.074788064 15
14.151682 -37.098431 0.40195361 31
2.119905 -3.7915699 0.018347684 45
2.0001814 -4.2796478 -0.0078326846 18
14.153431 -37.103016 -0.2994186 37
2.123636 -3.7982433 -0.058484923 32
1.9693304 -4.2136383 -0.089955926 24
10.891333 -28.551472 -0.77137685 10
2.1227996 -3.7967474 -0.135409 40
1.980194 -4.2368822 -0.17336994 26
8.7696257 -22.989449 -1.0570807 64
2.1174018 -3.7870932 -0.21182477 42
1.9921175 -4.2623944 -0.2576935 22
8.7004318 -22.808056 -1.4802217 37
2.1171937 -3.7867208 -0.28868893 46
2.0033984 -4.2865314 -0.34290019 18
8.2605495 -21.654913 -1.8159269 1
2.120223 -3.7921388 -0.36597282 39
1.9836694 -4.2443185 -0.42241091 25
6.6698542 -17.484926 -1.7973276 1
2.1225865 -3.7963662 -0.44341233 49
1.9987535 -4.2765932 -0.50915593 27
2.0013998 -4.2822552 -0.59362268 21
2.011817 -4.304544 -0.68080437 18
1.9997858 -4.2788019 -0.76116234 22
2.0139561 -4.3091211 -0.85069293 25
2.0190856 -4.320096 -0.937904 21
2.0286033 -4.3404608 -1.0272146 15
2.0094178 -4.2994103 -1.1016777 21
2.0243592 -4.3313799 -1.1942773 22
2.2004862 -4.7082262 -1.7878712 5
1.6179484 -3.4618111 -1.7812251 6
1.7533793 -3.8209 1.1097243 24
1.9475747 -4.2440834 0.90235364 19
1.9611685 -4.2737064 0.6578396 17
1.9778322 -4.3100195 0.41171634 17
1.9576592 -4.2660589 0.24147338 19
1.9724714 -4.298337 0.15961421 18
10.909253 -29.209196 0.86712241 16
2.0928996 -3.8053961 0.095218658 39
1.9816815 -4.3184075 0.076133862 15
13.924528 -37.282501 0.4028849 36
2.0856736 -3.7922573 0.018280106 46
1.9919429 -4.3407688 -0.0079189036 18
13.945839 -37.339561 -0.30053449 33
2.0835764 -3.788444 -0.058108639 32
1.9648856 -4.2818065 -0.091116145 24
10.679148 -28.593096 -0.77046841 8
2.0866091 -3.7939584 -0.13478671 42
1.9805756 -4.3159976 -0.17603718 24
8.6270924 -23.09878 -1.0593127 7
2.0851364 -3.7912805 -0.21123962 41
1.9922963 -4.3415389 -0.2616311 23
8.5745153 -22.958006 -1.4860322 37
2.0849366 -3.7909174 -0.28789216 47
2.0033748 -4.3656807 -0.34810442 9
8.1231213 -21.749411 -1.8190514 1
2.0821733 -3.7858927 -0.36395827 39
1.9872214 -4.3304801 -0.42959476 24
6.5643406 -17.575823 -1.8019166 1
2.0883613 -3.7971442 -0.4417896 50
1.9970461 -4.3518896 -0.51644796 27
5.8167033 -12.675547 -1.751461 1
5.1243887 -11.16688 -1.7604467 2
1.9962182 -4.3500853 -0.77134508 9
4.1384401 -9.0183372 -1.7746243 3
3.7534926 -8.1794739 -1.7700526 3
3.4549367 -7.5288711 -1.776033 3
3.1851661 -6.9409971 -1.7728145 4
2.9733026 -6.4793124 -1.7807528 5
2.170718 -4.7303486 -1.7904737 4
1.5937411 -3.473022 -1.7812251 6
1.7264106 -3.8289187 1.1087034 26
1.9435993 -4.3106108 0.91373742 19
1.9572064 -4.3407888 0.6661526 17
4.4586005 -9.888504 0.94175786 1
1.9539531 -4.3335738 0.24455602 17
1.9718558 -4.3732791 0.1619079 9
10.917283 -29.83288 0.88346851 7
2.0561919 -3.7980928 0.094692588 38
8.9068546 -19.754063 0.34721658 13
13.727813 -37.513016 0.40438306 42
2.0547633 -3.795454 0.018229421 46
8.9523783 -19.855026 -0.036112592 11
10.518436 -28.742979 -0.23077671 2
2.0469794 -3.781076 -0.057786115 35
1.9627466 -4.3530765 -0.092353716 12
10.49065 -28.667049 -0.77056932 20
2.0556903 -3.7971661 -0.13441333 39
8.7507257 -19.407791 -0.7892037 22
8.5176525 -23.275581 -1.0648067 13
2.0523374 -3.7909729 -0.21045941 40
8.7584066 -19.424828 -1.1670585 9
2.0521476 -3.7906225 -0.28682983 45
8.7977858 -19.512163 -1.5511463 1
8.0198078 -21.915155 -1.8284247 1
2.0532231 -3.7926087 -0.36328676 40
6.4544702 -17.637671 -1.8038286 2
2.0536592 -3.7934144 -0.43976119 46
5.7488241 -12.750026 -1.7564453 2
5.0664921 -11.236716 -1.76612 3
4.5271182 -10.040466 -1.7749847 2
4.0882502 -9.0671225 -1.7788496 3
3.708843 -8.2256556 -1.7746842 3
3.3968906 -7.5337915 -1.7718403 4
3.1374614 -6.9584169 -1.7719101 4
2.9191005 -6.4741249 -1.773967 5
2.1392982 -4.7446413 -1.7904737 5
1.5751433 -3.4934306 -1.7862951 6
1.6949426 -3.8302681 1.1056406 26
2.1915772 -4.9525738 1.0465481 19
3.4048572 -7.6943703 1.1771283 18
4.3781691 -9.8938818 0.939336 2
7.8158445 -17.662415 0.99363726 4
11.909731 -26.91387 0.99330497 24
11.113102 -31.037701 0.91682792 12
2.0239882 -3.8017652 0.094429553 39
18.832212 -42.557442 0.74570173 9
15.074123 -42.100407 0.45268875 7
2.0206971 -3.7955832 0.018161843 42
26.121761 -59.030525 -0.10703122 21
9.702672 -27.098518 -0.21702421 9
2.0167737 -3.7882137 -0.057678603 33
8.663022 -19.576885 -0.41404477 10
9.6904211 -27.064304 -0.72565144 37
2.0253732 -3.8043668 -0.13416442 40
8.7072201 -19.676765 -0.79764992 5
8.4573326 -23.62042 -1.077855 5
2.0126789 -3.7805221 -0.20909406 41
8.7615776 -19.799604 -1.1858714 2
8.5707464 -23.937172 -1.5417161 3
2.0200074 -3.7942879 -0.28603309 45
8.7824316 -19.846731 -1.5728306 0
7.8679595 -21.974365 -1.8287371 1
2.0266957 -3.8068507 -0.36328676 41
7.9074101 -17.869337 -1.7618414 1
6.3580227 -17.757275 -1.8114768 1
2.0252559 -3.8041463 -0.43935552 48
6.5434861 -14.787112 -1.7440842 2
5.6869745 -12.851549 -1.7649186 2
5.0007396 -11.30078 -1.7706587 2
4.4585104 -10.075438 -1.7756212 2
4.0264435 -9.0990438 -1.7795539 3
3.6608558 -8.2728815 -1.7793158 3
3.3442121 -7.557323 -1.7718403 3
3.095113 -6.9944038 -1.7755281 4
2.8879647 -6.5262856 -1.7826915 4
2.1091835 -4.7663789 -1.7930762 4
1.5477819 -3.4977114 -1.7829151 5
1.6637416 -3.8354933 1.1035988 23
2.1802201 -5.0261526 1.0586908 26
3.3530929 -7.7300253 1.1787908 19
4.2975965 -9.9074297 0.9376061 2
7.6623173 -17.664261 0.99055463 5
11.680305 -26.927097 0.99060649 30
7.6137595 -21.765846 0.64127916 1
1.9886522 -3.8023252 0.094078839 41
19.630676 -45.255417 0.79043359 2
9.4916668 -27.134315 0.29100841 33
1.9928199 -3.8102939 0.018161843 45
25.256971 -58.225952 -0.10523388 17
9.4799967 -27.100954 -0.21648134 33
1.9945114 -3.8135278 -0.057839867 34
8.6386461 -19.915031 -0.41984588 3
9.4759274 -27.089321 -0.72444016 35
2.0011373 -3.8261969 -0.13441333 40
9.8464451 -22.699423 -0.91723073 37
9.4913225 -27.133333 -1.2349491 34
1.9904671 -3.8057952 -0.20967922 42
9.8178005 -22.633387 -1.3512502 30
9.4800243 -27.101032 -1.7409674 35
1.9939895 -3.8125298 -0.28629866 45
9.781394 -22.549458 -1.7812885 1
7.726419 -22.087912 -1.8334239 1
2.0005829 -3.8251367 -0.36362252 33
7.7825508 -17.941441 -1.7632781 1
6.2631817 -17.904881 -1.8218019 1
2.0046928 -3.8329949 -0.44097823 23
6.472898 -14.922243 -1.7543788 2
5.6036711 -12.918378 -1.7684075 2
4.9256449 -11.355295 -1.7734954 2
4.3923917 -10.125965 -1.7788032 2
3.9627697 -9.1355391 -1.7809622 3
3.6001143 -8.2994938 -1.7793158 3
3.2965066 -7.5995746 -1.776033 3
3.0437584 -7.0169039 -1.7755281 4
2.8354144 -6.5365992 -1.7797834 4
2.0741878 -4.7817116 -1.7930762 4
1.5249865 -3.5156152 -1.7862951 7
1.6338959 -3.8398974 1.101557 23
2.1804447 -5.1243687 1.0761459 28
3.2835348 -7.7167935 1.1732489 21
4.2174029 -9.9115229 0.93518424 2
7.52317 -17.680565 0.98849952 5
11.457599 -26.927055 0.98763818 19
9.2794819 -27.134047 0.79751241 34
1.9657156 -3.8232288 0.094254196 37
18.991673 -44.633244 0.77723193 3
9.2774172 -27.128008 0.2902391 38
1.9753156 -3.8419001 0.018246315 26
24.450497 -57.462292 -0.10354266 30
9.2763348 -27.124844 -0.2161496 35
1.9788123 -3.8487012 -0.058162395 18
9.2658806 -27.094275 -0.72282511 33
1.9853454 -3.8614078 -0.13516007 21
9.6595631 -22.701405 -0.91456354 39
9.2706356 -27.108179 -1.2308286 45
1.9638491 -3.8195984 -0.20967922 22
9.632966 -22.638897 -1.3475314 2
9.2660503 -27.094772 -1.7363673 36
1.9819242 -3.8547537 -0.28842333 25
9.6549721 -22.690617 -1.7870709 1
7.6184874 -22.277147 -1.8446718 1
1.9938778 -3.8780029 -0.36731583 23
7.6711445 -18.028328 -1.7665108 1
6.136745 -17.944399 -1.8214195 1
2.0033588 -3.8964429 -0.44665781 23
6.3856916 -15.007322 -1.7590972 2
5.5242248 -12.982747 -1.7718965 2
4.8586526 -11.418554 -1.7780341 2
4.3308692 -10.178185 -1.7826219 2
3.9019785 -9.170228 -1.7823707 3
3.5528424 -8.3497066 -1.7847193 3
3.2479651 -7.6331997 -1.7785487 3
2.9962225 -7.0415673 -1.7764325 4
2.7866724 -6.5490928 -1.7778445 5
2.0422356 -4.7995563 -1.7943773 4
1.4989861 -3.5228398 -1.784605 5
1.5996016 -3.8333645 1.0964525 26
2.1748652 -5.2119551 1.0913242 26
3.2128005 -7.6993146 1.1671526 21
4.1051354 -9.8377495 0.92549682 4
7.3764772 -17.677355 0.98541689 4
10.613496 -25.434706 0.93016088 2
9.0708141 -27.141285 0.79584444 26
1.9642293 -3.8868265 0.095481694 24
18.956846 -45.429127 0.78876734 5
9.0662489 -27.127625 0.28955075 37
1.9737045 -3.905576 0.018482843 23
24.113436 -57.786629 -0.10382121 27
9.0664558 -27.128246 -0.21566705 34
1.9825637 -3.9231069 -0.05907622 17
9.8505754 -23.606407 -0.49471891 0
9.0663614 -27.127962 -0.72201759 24
1.9871925 -3.9322662 -0.13715139 19
9.4700546 -22.694508 -0.91159993 49
9.0646915 -27.122967 -1.2285967 61
1.9677702 -3.8938334 -0.21299507 20
9.448534 -22.642935 -1.3438126 57
9.0513563 -27.083067 -1.7315253 17
1.983768 -3.9254897 -0.29267266 23
9.4302626 -22.599148 -1.7746387 3
7.4943786 -22.424345 -1.8524829 0
1.993723 -3.945189 -0.37235215 20
7.5834508 -18.173357 -1.7754906 1
6.0491834 -18.100096 -1.8328918 1
2.0084155 -3.9742625 -0.45396012 23
6.2945485 -15.084568 -1.7629577 1
5.4487371 -13.057624 -1.7768807 2
4.7879667 -11.47412 -1.7814381 2
4.2642689 -10.219106 -1.7845311 2
3.8469615 -9.2190485 -1.7865961 3
3.4884181 -8.3598175 -1.7816316 3
3.2021272 -7.6737366 -1.7827414 3
2.9574935 -7.0874844 -1.782764 4
2.7528389 -6.5970397 -1.7855996 7
2.0086787 -4.8136969 -1.7943773 4
1.4785441 -3.5432563 -1.789675 7
1.5669439 -3.8301198 1.0923688 25
2.169656 -5.3033442 1.1072615 26
3.1544726 -7.710556 1.16549 21
4.0604997 -9.9251804 0.93103248 3
7.2317142 -17.676659 0.98253977 4
10.403887 -25.430479 0.92732751 3
8.8724251 -27.177343 0.79506606 13
1.96017 -3.9470067 0.096621506 24
13.994574 -34.207287 0.59221637 1
8.9312592 -27.357559 0.29133233 21
1.9695193 -3.9658325 0.018702473 22
23.885128 -58.383011 -0.10459055 25
9.007185 -27.59013 -0.21883374 12
1.9871491 -4.0013318 -0.060043804 16
9.9399414 -24.296446 -0.50771338 1
9.4575319 -28.969597 -0.76925713 29
1.9863663 -3.9997556 -0.13901824 21
9.2765799 -22.674974 -0.9081918 66
8.9544916 -27.428724 -1.2395847 23
1.9707482 -3.9683068 -0.21631093 22
9.2811575 -22.686165 -1.3425 4
9.0194263 -27.627628 -1.7622725 10
1.9776176 -3.9821393 -0.29585966 24
9.2601814 -22.634892 -1.7723256 2
7.3524952 -22.521608 -1.8562323 0
1.9980441 -4.0232701 -0.37839574 21
7.4865651 -18.299599 -1.7826746 1
5.9325585 -18.172167 -1.8359511 1
2.0089409 -4.0452123 -0.46045107 23
6.2011356 -15.157591 -1.7663893 2
5.3679681 -13.121058 -1.7803696 2
4.7077479 -11.507266 -1.7814381 2
4.2047873 -10.277865 -1.7896224 2
3.7884724 -9.2602577 -1.7894129 3
3.4463198 -8.4239254 -1.7901229 3
3.152921 -7.7067633 -1.785257 3
2.9138448 -7.1223836 -1.786382 4
2.7111256 -6.6268721 -1.7885078 9
1.9707279 -4.8170996 -1.7904737 4
1.4578906 -3.5635583 -1.7947448 5
1.5429475 -3.844017 1.0933897 26
2.162231 -5.3868666 1.121681 29
3.0958867 -7.7129269 1.162719 18
3.9812243 -9.9186096 0.92791867 3
7.0979505 -17.683455 0.98027915 3
10.205213 -25.424721 0.92462903 3
7.5553432 -23.674009 0.69109589 1
1.9655383 -4.0246015 0.098199718 23
13.558821 -33.779724 0.58324438 1
8.7642193 -27.461918 0.29181823 6
1.9730144 -4.0399094 0.018989684 23
23.567421 -58.714615 -0.10490227 25
19.91239 -62.393742 -0.49382356 4
1.9886508 -4.0719261 -0.060903873 18
12.019135 -29.94383 -0.62404507 0
9.262764 -29.024065 -0.76905525 28
1.9913764 -4.077507 -0.14125846 22
9.1170559 -22.713745 -0.90730274 59
9.3373671 -29.257826 -1.3194195 5
1.9741914 -4.0423193 -0.21962678 21
9.0843716 -22.632318 -1.3357186 4
9.4405241 -29.58106 -1.88284 1
1.9879447 -4.0704808 -0.30143693 26
9.2554951 -23.058647 -1.8006597 1
7.2526784 -22.725637 -1.8690425 1
1.9975542 -4.0901566 -0.38343206 21
7.3813572 -18.389519 -1.7866256 1
5.8373308 -18.290768 -1.8439817 1
2.0117552 -4.1192346 -0.46734768 25
6.1093583 -15.22053 -1.768963 2
5.2882195 -13.174788 -1.7828618 2
4.6401749 -11.560284 -1.7848421 2
4.1409421 -10.316522 -1.7915317 2
3.7313726 -9.2961426 -1.7915255 3
3.3918359 -8.4502392 -1.7908949 3
3.1075656 -7.7420235 -1.7886112 4
2.8592861 -7.1234727 -1.7818595 4
2.6656692 -6.6411061 -1.7875384 9
1.9443723 -4.8441052 -1.7956786 5
1.4301726 -3.5630558 -1.789675 7
1.5104114 -3.8402984 1.0893061 26
2.1605072 -5.4932008 1.140654 26
2.6200335 -6.6615696 1.0014458 15
3.9162581 -9.9572868 0.92895657 6
6.9597025 -17.695402 0.9782241 3
10.004054 -25.435822 0.92247027 3
7.5611057 -24.275911 0.70710844 1
1.9616116 -4.0887027 0.099427216 24
13.114794 -33.345036 0.57414418 14
12.073993 -38.765118 0.41102356 3
1.974177 -4.1148934 0.019276895 22
14.691781 -37.35461 -0.066554606 6
9.0958452 -29.203392 -0.23062591 15
1.9861269 -4.1398015 -0.061710194 18
12.386524 -31.493376 -0.65452021 0
9.0646687 -29.103294 -0.76945901 25
1.9939916 -4.1561942 -0.14349869 20
9.0663309 -29.108631 -1.3098049 24
1.9753026 -4.1172395 -0.22294265 23
8.9027567 -22.635717 -1.3322185 21
9.2337799 -29.646246 -1.88284 1
1.9871025 -4.1418347 -0.30568624 23
9.1541586 -23.27492 -1.8125137 1
7.1151924 -22.844248 -1.8746665 0
2.0017102 -4.1722827 -0.3898114 20
7.2746658 -18.496212 -1.7920135 1
5.7213359 -18.369091 -1.8478057 1
2.008769 -4.186996 -0.47343293 23
6.0204177 -15.307221 -1.7741102 2
