# .PCD v0.7 - Point Cloud Data file format
VERSION 0.7
FIELDS x y z intensity
SIZE 4 4 4 4
TYPE F F F F
COUNT 1 1 1 1
WIDTH 1397
HEIGHT 1
VIEWPOINT 0 0 0 1 0 0 0
POINTS 1397
DATA ascii
1.0746357 3.9201412 1.0729717 12
1.6062561 5.8594284 1.1740463 19
2.1742213 7.9312963 1.1505265 17
3.9286838 14.331364 1.2901598 18
7.8395457 28.597713 1.5254953 9
8.8336573 32.224113 1.1276885 61
8.8571453 25.011805 0.73791027 52
2.0599184 10.432013 0.23313665 41
8.837553 32.238323 0.53562868 48
8.8654556 25.035275 0.26885986 73
2.0611699 10.438351 0.044940002 45
8.846077 32.269421 -0.055478755 49
8.8736696 25.05847 -0.20043676 56
2.0602272 10.433578 -0.14293328 34
8.8306894 32.213287 -0.64601195 61
8.8791046 25.073816 -0.6714471 49
2.0625138 10.445157 -0.33142844 41
8.0453138 29.348331 -1.1280901 1
8.8590746 25.017254 -1.1401776 48
2.0579622 10.422107 -0.51863909 66
6.2152009 22.672302 -1.2875925 1
7.0850563 20.00758 -1.2870231 1
0.99198085 5.0236735 -0.34074324 21
5.0079346 18.268339 -1.3727573 1
5.8317595 16.46838 -1.368819 1
0.97522312 4.9388075 -0.42405841 1
1.5619546 5.6978216 -0.53268313 2
1.9817053 5.5961628 -0.5701735 0
0.49105516 2.4868431 -0.25842056 1
0.66554517 2.4278283 -0.27152124 1
0.59388697 2.1664279 -0.28210786 1
0.54958111 2.0048056 -0.29785192 9
0.54290134 1.9804385 -0.33094013 18
0.54235804 1.9784565 -0.36689654 3
1.3157184 4.7995815 -0.97881669 1
1.3256058 4.8356495 -1.0750115 1
0.86695963 3.162564 -0.81912684 0
0.86799431 3.1663384 -1.1294558 0
0.48308089 1.7622207 -0.85174334 29
1.0998801 3.9050977 1.0709299 16
1.62157 5.7573452 1.1558323 22
2.2402787 7.9540553 1.1560686 3
4.0372825 14.334273 1.2929276 21
6.723176 23.870474 1.2758015 0
9.0746651 32.219379 1.1297123 51
9.0628462 25.035835 0.74046785 62
2.1359048 10.433048 0.23348737 42
9.083003 32.248985 0.53684628 13
9.0658855 25.04423 0.26962921 72
2.1372013 10.439382 0.045007579 49
10.334489 36.692356 -0.063205324 5
9.0783453 25.078651 -0.20110025 56
2.1386318 10.446369 -0.14330956 37
9.0737972 32.216297 -0.64732689 72
2.1377892 10.442253 -0.3318018 41
8.2196636 29.183718 -1.1239411 1
9.0579948 25.022434 -1.143268 37
2.1330755 10.419228 -0.51922423 61
6.340848 22.513027 -1.2810298 1
7.2014575 19.893806 -1.2829072 1
5.1256146 18.198372 -1.3701552 1
5.9302988 16.382269 -1.3650696 1
1.0120767 4.9435935 -0.42506567 7
1.6168152 5.7404633 -0.5377118 1
2.0356333 5.6233749 -0.57438004 0
0.51000071 2.4911511 -0.25923193 1
0.69110364 2.4537468 -0.27495277 1
0.61222488 2.1736896 -0.2836031 2
0.56141686 1.9932971 -0.29671723 8
0.55885535 1.9842024 -0.33221298 17
0.55829197 1.9822022 -0.36830497 4
1.361962 4.8356133 -0.98807991 0
1.3603928 4.8300419 -1.07585 1
0.89217359 3.1676409 -0.82203501 0
0.8952055 3.1784055 -1.1359619 0
0.49930322 1.7727641 -0.85850322 27
1.1260413 3.8936086 1.069909 16
1.6409935 5.6742024 1.1414129 21
2.6490309 9.1597786 1.3339678 16
4.1527548 14.359332 1.2977713 19
7.2570028 25.093155 1.3438251 1
11.559525 39.970348 1.4042811 42
9.2457304 24.994455 0.741135 7
2.2120063 10.433531 0.23383808 43
11.561289 39.976448 0.66681218 35
2.2141771 10.443771 0.045092054 48
10.57595 36.569359 -0.063119106 12
9.9234657 26.826612 -0.21566705 25
2.215656 10.450747 -0.14357834 36
11.561722 39.977947 -0.80488509 34
8.4847307 22.937208 -0.61734372 1
2.213125 10.438807 -0.3321752 42
8.4187613 29.110264 -1.1233484 1
9.2588053 25.029802 -1.14653 23
2.2090771 10.419715 -0.52000445 77
6.4767804 22.395313 -1.2768735 1
7.3221583 19.794365 -1.2797599 1
1.1381801 5.3685374 -0.36517689 0
5.2348037 18.100824 -1.3655292 2
6.036222 16.318027 -1.3631949 1
1.0564846 4.9831982 -0.42909473 39
1.67456 5.7902679 -0.54345894 1
2.0997069 5.6762452 -0.58126342 0
0.53398222 2.5186729 -0.2624774 1
0.70932192 2.4526825 -0.27538171 1
0.6240772 2.1579247 -0.28210786 1
0.57861906 2.0007403 -0.29841924 8
0.57159692 1.976459 -0.33157656 18
0.57211667 1.9782563 -0.36830497 4
1.3989587 4.8372984 -0.99039572 1
1.4027719 4.8504834 -1.0825584 1
0.91426599 3.1613352 -0.82203501 0
0.92262709 3.1902459 -1.142468 0
0.50864553 1.7587868 -0.85343331 24
1.1498951 3.8745298 1.0668463 17
1.6671578 5.6174278 1.1323059 19
2.7827928 9.3765202 1.3683285 7
4.2687731 14.383476 1.302615 17
7.2535667 24.44063 1.3115602 5
11.862171 39.969158 1.4071146 47
13.481975 35.679008 1.0607182 20
2.2873619 10.429553 0.23410112 41
11.871955 40.002121 0.66860658 35
10.75781 28.469717 0.3080956 0
2.2904615 10.443687 0.045159634 47
10.859443 36.5905 -0.063284911 10
10.13737 26.827772 -0.21624008 21
2.2911322 10.446744 -0.1437396 33
8.2574253 27.823095 -0.56131572 1
8.5499535 22.626795 -0.6105808 3
2.2885168 10.434819 -0.33254856 38
8.5706034 28.87834 -1.1166803 1
9.4714594 25.065489 -1.1511656 2
2.2843339 10.415747 -0.52058959 79
6.6216059 22.311262 -1.274686 1
7.4517021 19.720358 -1.2783073 1
2.2854278 10.420735 -0.70990384 47
5.3587723 18.056189 -1.3649509 1
6.1415381 16.253109 -1.3613204 1
1.0929557 4.9834876 -0.42976624 22
1.7206099 5.7975326 -0.54525489 1
2.1843207 5.7806368 -0.59350055 0
0.54814285 2.4993355 -0.26085466 1
0.73434794 2.4743588 -0.27838433 1
0.63573939 2.142101 -0.28061259 2
0.59820545 2.0156317 -0.30125594 7
0.58313388 1.9648486 -0.33030373 17
0.58255249 1.9628896 -0.36619231 5
1.4315783 4.8236513 -0.98962379 1
0.93300134 3.1437142 -0.81912684 0
0.94380039 3.1801014 -1.1411668 0
0.52297467 1.7621443 -0.85681325 15
1.181421 3.8812072 1.0709299 16
1.7017592 5.5906234 1.1292702 19
2.8516455 9.3682327 1.3699911 8
4.3795276 14.387634 1.3057289 17
7.2716269 23.888765 1.2846384 3
12.167693 39.973335 1.4102178 43
13.5033 34.994617 1.0431489 4
2.364537 10.43283 0.23453951 39
12.176553 40.002438 0.67001647 34
1.7048575 4.4182415 0.047941279 0
2.3668523 10.443046 0.045227211 42
11.142581 36.605633 -0.063444085 10
1.7077762 4.4258056 -0.03576858 7
2.3675439 10.446097 -0.14395462 30
8.3023958 27.275051 -0.55141515 2
1.707281 4.4245224 -0.11971381 12
2.3657277 10.438083 -0.33317083 40
8.7522135 28.752792 -1.1141613 1
8.7254744 22.612597 -1.0412855 0
2.3596425 10.411234 -0.52117473 82
6.760922 22.210997 -1.2716234 1
7.5661955 19.608255 -1.2744336 0
2.3634152 10.427881 -0.71149737 49
5.4637847 17.949638 -1.3597467 1
6.2247076 16.131706 -1.354759 0
1.1312442 4.9912848 -0.43110925 5
1.7749634 5.8311138 -0.5495652 1
1.7129027 4.4390912 -0.45698011 0
0.56997591 2.5148525 -0.26288307 1
0.76665938 2.5186312 -0.28396058 1
0.66223586 2.1755786 -0.28559682 1
0.6076504 1.9962544 -0.29898658 7
0.60143667 1.9758413 -0.33284941 17
0.60197484 1.9776092 -0.3697134 7
1.474362 4.8435774 -0.9957993 0
1.4703585 4.8304248 -1.0825584 0
0.96509647 3.1705372 -0.8278513 1
0.97258723 3.1951458 -1.1489741 0
0.53631967 1.7619187 -0.85850322 17
1.206184 3.8654811 1.0688881 17
1.7231994 5.5223703 1.1178864 23
2.9334981 9.4010391 1.3777499 8
4.4858003 14.375731 1.3074589 19
7.3144712 23.440828 1.2632654 0
12.47504 39.979004 1.413456 40
1.72189 4.3712726 0.13065772 14
2.4418695 10.435538 0.2349779 36
12.484116 40.008087 0.67155451 36
1.7210015 4.3690171 0.047536369 20
2.4451685 10.449636 0.04532858 45
8.7455912 28.027164 -0.0486807 0
1.710779 4.3430657 -0.035195559 25
2.4413245 10.433209 -0.14400837 32
8.4163666 26.972094 -0.54646486 5
1.7073517 4.3343654 -0.11759409 17
2.4421847 10.436886 -0.33366865 43
8.9432058 28.660467 -1.1129758 1
1.7385442 4.4135518 -0.20379321 18
2.4349992 10.406178 -0.52175993 106
6.8932137 22.090815 -1.267467 0
1.7311041 4.3946638 -0.28640863 19
2.4416134 10.434444 -0.71309084 51
5.5663834 17.838696 -1.3542534 2
1.7260618 4.3818636 -0.36899686 17
1.8298688 5.8642159 -0.55387551 1
1.7161249 4.3566375 -0.44971433 20
0.58207887 2.4875638 -0.26044896 1
0.78303933 2.5094213 -0.28353164 1
0.68804789 2.2050004 -0.29008263 1
0.62628973 2.0070829 -0.30125594 5
0.61874491 1.9829038 -0.33475867 18
0.61459351 1.9695997 -0.3690092 7
1.5069712 4.8294201 -0.99502736 1
1.5122004 4.8461776 -1.0884281 1
0.98142743 3.1451995 -0.82300442 1
0.99486965 3.1882782 -1.1489741 0
0.55292678 1.771975 -0.86526304 19
1.2331406 3.8569663 1.0688881 15
1.7593186 5.5027242 1.1163685 26
3.0231855 9.4557953 1.388834 12
4.5921192 14.363042 1.3091887 17
7.2699151 22.738541 1.2281233 0
12.784277 39.986134 1.416829 43
1.7240289 4.2886567 0.12854496 16
2.5221698 10.449335 0.23567933 43
12.79235 40.011383 0.67309254 34
1.7171477 4.2715392 0.046605077 19
2.5227532 10.451754 0.045413055 46
8.173624 25.565123 -0.044502385 0
1.7097273 4.2530804 -0.034562219 18
2.5187943 10.435351 -0.14427714 34
8.5910635 26.870775 -0.545614 78
1.7181803 4.2741079 -0.11628188 19
2.5224926 10.450673 -0.33466431 38
9.040822 28.27751 -1.1005287 5
1.7290684 4.3011928 -0.19915766 26
2.5141501 10.416111 -0.52312529 65
7.0144277 21.939436 -1.2615607 1
1.7274903 4.297267 -0.28084025 22
2.5200183 10.440423 -0.71468437 39
5.6834946 17.7766 -1.3525187 1
1.719426 4.2772064 -0.36118576 22
1.3757094 5.6995568 -0.49389541 6
1.9047335 5.9575472 -0.5639329 1
1.7153105 4.2669687 -0.44168371 22
0.61156905 2.5337274 -0.26572287 1
1.5986563 5.0002112 -0.56620538 0
0.70705068 2.211484 -0.29157791 1
0.64631552 2.0215189 -0.30409262 5
0.63016778 1.9710128 -0.33348584 17
0.63312525 1.9802631 -0.37182605 10
1.5430403 4.8262577 -0.99657124 0
1.5507603 4.8504038 -1.0917823 1
1.0217111 3.1956661 -1.1541789 0
0.56859612 1.7784315 -0.87033296 20
1.2660543 3.8666408 1.0739926 14
1.7940253 5.4791107 1.1140918 24
3.0780308 9.4005766 1.3838462 9
3.7944963 11.588725 1.0586991 2
8.3918467 25.629436 1.387393 1
8.3770151 25.584139 0.90857315 30
1.7250997 4.2062273 0.12643218 17
2.6008501 10.454758 0.2362054 6
8.3782206 25.58782 0.43142524 34
1.721125 4.1965361 0.045916729 20
9.0838375 36.514721 0.1589288 31
8.233654 25.146303 -0.043872319 16
1.7181286 4.1892304 -0.034139995 18
9.0869617 36.527279 -0.50588381 14
8.7772007 26.806343 -0.54553664 105
1.7115608 4.1732163 -0.11385934 20
8.3598614 25.531752 -0.99591404 1
1.7287254 4.2150683 -0.19572391 22
2.5887356 10.406059 -0.52351534 4
7.1500216 21.836792 -1.2584981 1
1.7347231 4.2296915 -0.27720869 20
2.5957348 10.434195 -0.7154811 19
5.8024931 17.721323 -1.3513621 1
1.7235202 4.2023764 -0.35587418 23
1.5136151 6.0843487 -0.52814239 4
1.9747907 6.0311842 -0.57219434 1
1.7178619 4.18858 -0.43480033 21
0.63116413 2.5371196 -0.26653424 1
0.84027529 2.5662744 -0.29125261 1
0.7187674 2.1951787 -0.29008263 1
0.66534096 2.0320098 -0.30636197 5
0.64637023 1.9740714 -0.33475867 17
0.64448398 1.9683106 -0.37041762 10
1.5779172 4.819098 -0.99734318 0
0.98539501 3.0094829 -0.79101485 1
1.043996 3.1884553 -1.1541789 0
0.58099794 1.7744186 -0.87033296 24
1.2905592 3.8503737 1.0719508 18
1.8359771 5.4776239 1.1163685 25
3.13603 9.3563223 1.3805209 6
3.7967887 11.327691 1.0372484 5
7.3797536 22.017439 1.1946254 0
8.4944372 25.34309 0.90209687 23
1.726648 4.1276851 0.12443062 18
9.3909626 36.655048 0.82961226 5
8.4765759 25.289801 0.42738783 18
1.7195091 4.1106191 0.04510691 24
9.3534269 36.508537 0.15918222 23
8.4191771 25.118551 -0.043925378 28
1.7180048 4.1070228 -0.033566974 19
8.4007225 32.789917 -0.45492452 3
8.3998203 25.060801 -0.51119405 33
1.7144202 4.0984535 -0.11214337 18
8.3745918 32.687927 -1.0504153 7
8.4083281 25.086184 -0.98079973 13
1.736519 4.1512823 -0.19332027 22
6.3360043 24.730856 -1.2463722 1
7.3010263 21.782558 -1.2582793 1
1.7318527 4.1401272 -0.2721245 23
5.9133902 17.642557 -1.3484709 1
1.7281935 4.1313796 -0.35087508 23
1.5728716 6.1392732 -0.53385025 2
2.0421691 6.0927963 -0.57937819 2
1.7132574 4.0956736 -0.42638731 22
0.65083623 2.5403609 -0.26734561 1
1.6758974 5.0000272 -0.56877905 11
0.74164277 2.2126856 -0.29307318 1
0.69083589 2.0611038 -0.31146801 4
0.662646 1.9769995 -0.33603153 16
0.65445554 1.9525633 -0.36830497 13
1.6190062 4.8302927 -1.0019748 0
1.6680495 4.976613 -1.125324 0
0.98443139 2.9370437 -0.71907526 0
1.0710381 3.1954346 -1.1593838 0
0.59106708 1.7634443 -0.86695302 24
1.3225168 3.8517838 1.0750135 16
1.8760805 5.4640188 1.1163685 23
3.2199681 9.3780441 1.3871714 11
3.8305464 11.156332 1.0241011 2
8.5839443 25.000435 1.3598548 48
8.5917025 25.023031 0.89292204 48
1.7270284 4.0450478 0.12231786 19
8.5129738 32.243099 0.73114949 31
8.5928936 25.026501 0.42399129 44
1.7244662 4.0390468 0.044459056 23
8.5098381 32.23122 0.14080074 50
8.601779 25.05238 -0.043918747 50
1.7276467 4.0464964 -0.033174906 20
8.5142517 32.247936 -0.44825897 21
8.5988827 25.043945 -0.51212227 44
1.7130146 4.0122252 -0.1101246 17
8.5129385 32.242966 -1.0380942 33
8.5971842 25.038998 -0.98139244 53
1.7339498 4.0612593 -0.18971483 23
6.4824419 24.552408 -1.2397406 1
7.4345622 21.652903 -1.2539042 1
1.727664 4.0465369 -0.26679823 27
5.15133 19.51079 -1.3427886 1
6.0270104 17.553455 -1.3450015 1
1.7318124 4.056253 -0.34556353 21
1.6310596 6.1776786 -0.53821504 2
2.0958326 6.1040387 -0.58189255 3
1.7244728 4.0390625 -0.42179838 19
0.67858303 2.5701499 -0.27099675 1
1.7176701 5.0026541 -0.57049483 13
0.76170909 2.218451 -0.29456845 1
0.70464009 2.0522397 -0.31090066 4
0.67712027 1.9720891 -0.33603153 16
0.67386556 1.9626098 -0.37112182 16
1.5128949 4.4062529 -0.91628975 0
1.023649 2.9813416 -0.73173827 0
1.0932047 3.1839204 -1.1580826 0
0.60515523 1.7624933 -0.86864299 19
1.3455305 3.8315101 1.0719508 13
1.9167829 5.4581985 1.1178864 26
3.2853601 9.3553362 1.3871714 12
3.8053479 10.836045 0.99711466 4
8.7767992 24.992666 1.3627319 52
8.7940016 25.041651 0.89575547 45
1.7233125 3.9595671 0.1200939 19
8.7472944 32.217617 0.7319386 53
8.7939043 25.041372 0.425273 44
1.720698 3.9535601 0.043649238 23
8.7524624 32.236652 0.14108795 69
8.798996 25.055874 -0.044031493 52
1.7191411 3.9499826 -0.032481249 20
8.7559423 32.249466 -0.44911903 51
8.784112 25.013489 -0.51274103 70
1.7218338 3.9561698 -0.10891332 19
8.7577314 32.256058 -1.0404588 31
8.7956181 25.046253 -0.98405969 72
1.7367433 3.9904265 -0.18696783 23
6.6296134 24.417875 -1.2352544 1
7.5630479 21.536409 -1.2501854 1
1.7271916 3.9684799 -0.26244035 24
5.2696362 19.408871 -1.3382736 1
6.1348672 17.469543 -1.3418211 1
1.7282598 3.9709344 -0.33931464 21
1.6814585 6.1930676 -0.54056537 4
2.1489551 6.1193285 -0.58476609 4
1.7224381 3.9575579 -0.4145326 23
0.70797879 2.6075935 -0.27545926 1
1.76573 5.0280628 -0.57478428 14
0.78638321 2.2392917 -0.29805741 1
0.72157401 2.0547421 -0.31203532 3
0.69217992 1.9710398 -0.33666795 16
0.69015992 1.9652878 -0.37253025 16
1.5514218 4.4178023 -0.92092133 0
1.0354254 2.9484599 -0.66999549 0
1.1166589 3.1797793 -1.1593838 0
0.61624354 1.7548048 -0.86695302 28
1.3774742 3.8365831 1.0760344 18
1.9694399 5.4853439 1.1262344 25
3.3599627 9.3582706 1.3910508 12
3.8337736 10.677943 0.98500538 2
8.9753637 24.998459 1.3664311 50
8.9902248 25.039848 0.89791423 48
1.7265952 3.8926141 0.11842593 18
8.9881229 32.213543 0.73325378 62
8.9914865 25.043362 0.42636245 34
1.7223089 3.8829505 0.043001384 27
8.9955788 32.240261 0.14137515 69
9.0061445 25.084188 -0.044190668 42
1.7255917 3.890352 -0.032089181 20
8.9991465 32.253048 -0.45003286 53
8.9801474 25.01178 -0.5139786 80
1.7202274 3.878258 -0.10709642 19
9.0041962 32.271149 -1.0429479 26
8.9945726 25.051956 -0.98672688 71
1.735393 3.9124489 -0.18387745 23
6.769856 24.263247 -1.229793 1
7.7078171 21.468048 -1.2493104 1
1.7321901 3.9052281 -0.25905091 25
5.3867717 19.306255 -1.3337587 1
6.243197 17.388742 -1.3389299 1
1.7284527 3.8968022 -0.33400309 22
1.7257243 6.1850171 -0.54090112 5
2.2023933 6.1341734 -0.58763963 5
1.7241943 3.8872013 -0.40841404 22
0.73151326 2.6217523 -0.2774877 1
1.804821 5.0268426 -0.57607108 14
0.80870289 2.252424 -0.30054954 1
0.73723912 2.053381 -0.31260267 2
0.70725787 1.9698762 -0.33730438 16
0.70785499 1.9715394 -0.37464291 18
0.69761175 1.9430095 -0.40603909 0
1.0599492 2.9522026 -0.6725111 0
1.1477778 3.1968257 -1.1684923 0
0.63092959 1.7572843 -0.87033296 23
1.4028925 3.8232424 1.0750135 14
2.0103922 5.4788351 1.1277523 25
3.4334011 9.3569002 1.394376 11
3.8313518 10.441418 0.96563047 0
9.1730595 24.998945 1.3699248 48
9.1882267 25.040277 0.90020794 29
1.7306747 3.8294549 0.11686915 20
9.2326241 32.219208 0.73483199 9
9.1964111 25.062584 0.42777234 7
1.7213715 3.8088698 0.042313036 25
10.491992 36.61404 0.16087168 10
9.8782682 26.92082 -0.047546584 4
1.7247055 3.8162467 -0.031576481 21
9.172451 24.997288 -0.51498413 67
1.717618 3.8005643 -0.10527951 23
9.4021816 32.810913 -1.0624876 7
1.7346857 3.83833 -0.18095876 26
6.9401798 24.219234 -1.229988 1
7.8286104 21.334976 -1.2447165 1
1.7363911 3.8421035 -0.25566146 26
5.5247211 19.27969 -1.3345555 1
6.3479481 17.299789 -1.3354604 1
1.7244116 3.8155966 -0.32806665 24
1.7787434 6.2073035 -0.5439229 5
2.2492809 6.1298685 -0.58871722 5
1.7234135 3.8133881 -0.40191305 23
0.76076049 2.6548357 -0.28154454 1
1.8467206 5.0327878 -0.57821584 13
0.83261096 2.2690787 -0.30354008 1
0.75974029 2.0704875 -0.31600669 2
0.71963251 1.9611834 -0.33666795 16
0.72295797 1.9702462 -0.37534714 18
0.72197551 1.9675688 -0.41221458 0
1.1815807 3.2201109 -0.73540181 0
1.1713706 3.192286 -1.1697935 0
0.6494267 1.7698547 -0.87878281 26
1.4349797 3.8278408 1.0790972 15
2.0513496 5.4720211 1.1292702 26
3.5111551 9.366086 1.3993639 12
3.8537946 10.280085 0.95317519 0
10.462145 27.908007 1.5333046 17
13.449224 35.87611 1.2931044 16
1.7356298 3.7700627 0.11542358 20
11.748032 39.942123 0.91281897 39
10.139099 27.046276 0.46282724 1
1.7144672 3.7240942 0.041503217 23
10.754121 36.562923 0.16097306 0
10.065969 26.8512 -0.047546584 7
1.7195245 3.7350795 -0.031003458 20
8.2488947 28.04541 -0.39289182 1
1.720698 3.7376285 -0.10386637 22
8.2388763 28.011351 -0.90890795 0
8.6166506 22.985111 -0.90996993 2
1.7380432 3.7753048 -0.17855513 21
7.0786519 24.066704 -1.2247217 1
7.9633451 21.242403 -1.2425289 1
1.7347871 3.7682321 -0.2515457 26
5.6253963 19.12578 -1.326588 2
6.462966 17.240107 -1.3343039 1
1.7309958 3.7599969 -0.32431731 22
1.8287832 6.2176781 -0.54593742 3
2.2976141 6.1289372 -0.59015399 1
1.7233526 3.7433946 -0.39579448 24
0.77478451 2.6341891 -0.2799218 0
1.8887907 5.0383921 -0.58036053 13
0.84703863 2.2594945 -0.30304164 1
0.76722687 2.0465951 -0.31317002 1
0.73607886 1.9635069 -0.33794081 16
0.735313 1.9614639 -0.37464291 18
0.74396026 1.9845308 -0.41684622 0
1.1923006 3.1804886 -1.1684923 0
0.65285832 1.7415143 -0.86695302 30
1.4575194 3.8068941 1.0760344 13
1.6892942 4.4122667 0.91297847 13
1.6883708 4.4098549 0.66061056 12
1.6912999 4.4175053 0.41067839 14
10.505321 27.438839 1.5115206 10
13.460647 35.157856 1.2705722 4
1.7296565 3.6890683 0.11331081 19
12.050851 39.939533 0.91466022 39
1.678854 4.3849978 0.075236663 0
1.7234446 3.6758196 0.041098308 25
11.02529 36.540569 0.16120958 1
1.7005203 4.4415879 -0.0078857429 0
1.7217859 3.672282 -0.030581232 20
8.3208628 27.577423 -0.38714007 1
8.6740465 22.655737 -0.46919402 3
1.7212865 3.6712167 -0.10235228 22
8.2436714 27.32159 -0.8883726 1
8.6625671 22.625755 -0.89811558 3
1.7338201 3.6979487 -0.17546476 24
7.2187972 23.9249 -1.2200404 1
8.092885 21.137802 -1.2396852 0
1.7390174 3.7090337 -0.24839835 27
5.743793 19.036367 -1.3231355 1
6.5731807 17.168486 -1.33228 0
1.7284242 3.6864405 -0.31900576 29
1.8825082 6.2391033 -0.5489592 2
2.344619 6.123909 -0.59123158 0
1.7223995 3.6735904 -0.38967595 30
1.5713676 5.2079058 -0.55456972 1
1.9296069 5.0399389 -0.58207631 11
0.89401156 2.3350682 -0.31400695 1
0.8013165 2.0929582 -0.32111272 1
0.74694473 1.9509445 -0.33666795 16
0.75039643 1.95996 -0.37534714 17
0.76621664 2.0012808 -0.42147782 1
1.2104181 3.1614902 -1.1645887 0
0.667593 1.7436857 -0.87033296 24
1.486877 3.8038306 1.0780762 19
1.6857411 4.3125782 0.89476442 11
1.6859452 4.3131008 0.64786392 15
1.6901809 4.3239365 0.40306681 13
1.7204764 4.4014406 0.24311745 14
1.7115833 4.3786898 0.15866974 11
1.7312517 3.6263864 0.11175404 20
12.356568 39.942299 0.91667682 40
1.7094259 4.3731704 0.075236663 13
1.7266625 3.6167736 0.040571924 27
11.30731 36.550598 0.16159816 3
1.7067304 4.3662748 -0.0077729947 12
1.7232555 3.6096373 -0.030159006 24
8.410346 27.186235 -0.38246343 53
1.7326213 4.4325109 -0.092044324 6
1.721033 3.6049817 -0.10083819 32
8.3715858 27.060942 -0.88177639 3
1.7346663 4.4377422 -0.1766299 14
1.742377 3.6496902 -0.17374788 24
7.3797436 23.854837 -1.2190652 1
1.7259897 4.415545 -0.2596623 16
1.7304659 3.6247406 -0.24355628 26
5.8718328 18.980555 -1.3220731 1
1.7226027 4.4068804 -0.34290019 19
1.7335017 3.6310992 -0.31525642 23
1.9283751 6.2334247 -0.5496307 2
1.7186924 4.3968768 -0.42564362 0
1.7274189 3.6183581 -0.38508701 25
1.6170956 5.227221 -0.55781519 1
0.93774474 2.3990028 -0.32347703 1
0.82744074 2.1168156 -0.32565144 1
0.76773506 1.9640726 -0.33985007 16
0.76406109 1.9546735 -0.37534714 13
0.76873833 1.966639 -0.41530234 1
1.2758125 3.2638712 -0.75133407 2
1.2255746 3.1353488 -1.1580826 0
0.68238968 1.745736 -0.8737129 24
1.5133961 3.7933576 1.0780762 16
1.6881561 4.2313972 0.88034499 13
1.6910599 4.2386756 0.63844246 14
1.693746 4.2454081 0.39683917 15
1.712675 4.2928538 0.23777421 22
1.7213709 4.3146505 0.15678081 14
1.7442918 3.5890381 0.11097565 37
12.661701 39.938927 0.91860574 41
1.7191659 4.3091235 0.074339464 14
1.7361349 3.5722547 0.040207509 52
11.592422 36.56609 0.16202053 4
1.7104907 4.2873788 -0.007653614 18
1.7414197 3.5831287 -0.03003837 39
8.5310392 26.909538 -0.37939942 40
1.7279567 4.3311577 -0.090187967 21
1.7479062 3.5964751 -0.10093913 41
8.5554676 26.986593 -0.88127857 6
1.7315372 4.3401327 -0.17322177 25
1.7468518 3.5943055 -0.17168763 42
7.5219531 23.726568 -1.2151642 1
1.7242134 4.3217754 -0.25484967 20
1.7417669 3.583843 -0.24161944 48
5.9909306 18.897249 -1.3191516 1
1.7178458 4.3058147 -0.33596122 23
1.744864 3.5902157 -0.31275687 44
1.9850953 6.2616048 -0.55332404 1
1.7463937 4.3773704 -0.42492524 19
1.7369734 3.5739799 -0.38164532 61
1.6619668 5.2423582 -0.56065494 2
1.7433665 4.3697829 -0.50744015 23
0.9647646 2.4182017 -0.32696599 0
0.83926409 2.1036322 -0.32451674 1
0.78142804 1.9586649 -0.33985007 14
0.78352487 1.9639207 -0.37816399 12
0.77517736 1.9429975 -0.41144264 1
1.3058139 3.2730484 -0.75552684 0
1.2502365 3.1337428 -1.1606849 0
0.70396453 1.7645011 -0.88554269 22
1.534009 3.7683713 1.0739926 15
1.6880407 4.1467581 0.86516666 15
1.692232 4.1570544 0.62791258 17
1.6978009 4.1707344 0.39095753 17
1.7169985 4.2178941 0.23428056 16
1.7167833 4.2173657 0.15367758 18
1.7604411 3.5588536 0.11041967 42
12.974801 39.956055 0.92106074 42
1.7069849 4.1932955 0.072545059 14
1.7681252 3.5743878 0.04036947 48
8.2993698 25.55801 0.11349884 0
1.7162504 4.2160563 -0.0075474982 16
1.7646185 3.5672989 -0.030008212 42
8.7186937 26.849325 -0.37939942 30
1.7310102 4.252315 -0.088795699 20
1.7747445 3.587769 -0.10104007 41
8.2781382 25.492628 -0.83435833 1
1.7271314 4.2427864 -0.16981363 22
1.7683582 3.5748587 -0.17134425 50
7.6602645 23.589878 -1.2108731 1
1.7227196 4.2319484 -0.25025582 20
1.7738254 3.5859113 -0.24258786 51
6.1165481 18.835983 -1.3178238 1
1.7222929 4.2309003 -0.33104613 22
1.7716539 3.5815213 -0.31306931 41
2.0496886 6.3120408 -0.55903184 0
1.7423639 4.2802057 -0.4166638 25
1.770709 3.5796113 -0.38355738 53
1.710815 5.2684755 -0.56471181 2
1.7438419 4.2838364 -0.49886128 26
1.7343009 4.2603984 -0.57767314 18
0.85243678 2.0940545 -0.32394943 1
0.80401647 1.9751074 -0.34366861 13
0.80018556 1.9656967 -0.37957242 11
0.80204111 1.9702549 -0.4183901 1
1.2519518 3.0754836 -0.71192259 0
1.2720835 3.124938 -1.1606849 0
0.71216506 1.7494698 -0.88047278 23
1.5676953 3.775429 1.0790972 16
1.6943579 4.0804667 0.85378289 14
1.6938673 4.0792851 0.61793691 14
1.6993687 4.0925341 0.38472989 15
1.7234238 4.150465 0.23119792 18
1.7170554 4.1351285 0.15111405 20
1.7960304 3.5679054 0.11108685 38
8.4932966 25.546677 0.59025043 38
1.7132113 4.1258707 0.071583778 15
1.7948343 3.5655293 0.040409964 47
8.3413076 25.089514 0.11167421 23
1.7134287 4.1263943 -0.0074082208 16
1.8002707 3.576329 -0.030189164 37
8.3418903 25.091269 -0.35537115 25
1.7253801 4.1551762 -0.087016694 22
1.8069402 3.5895786 -0.10144383 40
8.3512182 25.119324 -0.82402843 14
1.7337157 4.1752505 -0.16759095 25
1.7986627 3.5731347 -0.17185932 44
7.8096395 23.49033 -1.2085325 1
1.7261835 4.1571112 -0.246537 21
1.8024068 3.5805726 -0.24307206 53
6.2353063 18.754951 -1.3151679 1
1.7242489 4.152452 -0.32584193 19
1.7966143 3.5690656 -0.31306931 43
2.0886748 6.2824488 -0.55768883 0
1.737064 4.1833143 -0.40840238 31
1.7956561 3.567162 -0.38355738 53
1.745043 5.2488518 -0.56390041 2
1.746254 4.2054462 -0.49114028 27
1.7381274 4.1858754 -0.56919992 23
0.89740419 2.1611891 -0.33529615 1
0.82081443 1.9767406 -0.34494147 12
0.81388909 1.9600624 -0.37957242 11
0.811261 1.9537333 -0.41607428 2
1.3198881 3.1786435 -0.73791742 0
1.3011212 3.1334476 -1.167191 0
0.72714186 1.7511519 -0.88385272 23
1.5909984 3.7572699 1.0770553 14
1.689113 3.9889753 0.83708668 15
1.6898668 3.9907556 0.60629863 15
1.7030365 4.0218568 0.3791942 16
1.7196468 4.0610833 0.22688222 15
1.7162645 4.0530958 0.1485505 18
1.8263633 3.5659568 0.11142045 40
8.5774078 25.210388 0.58384997 34
1.7123429 4.0438342 0.070366144 12
1.8251524 3.5635924 0.040531434 47
8.5304327 25.072323 0.11186005 40
1.7141199 4.0480313 -0.0072888406 15
1.8361343 3.5850346 -0.030370118 36
8.5336037 25.081642 -0.35606995 40
1.7309554 4.0877895 -0.085856475 22
1.8337789 3.5804355 -0.10154477 40
8.5302429 25.071762 -0.8244018 47
1.7332079 4.0931091 -0.16477554 26
1.8272073 3.5676048 -0.17220269 43
7.9502783 23.367153 -1.2050216 1
1.7286881 4.0824351 -0.24281816 22
1.8346401 3.5821171 -0.24404047 50
6.3648024 18.707184 -1.3149023 1
1.7220836 4.0668383 -0.32005945 21
1.8269407 3.5670841 -0.31400663 36
5.2933345 15.557966 -1.3843173 2
1.7382653 4.1050525 -0.40193689 45
1.8332211 3.5793467 -0.38623425 47
1.7906165 5.2629118 -0.56674021 3
1.7414551 4.1125855 -0.48170352 28
1.7363567 4.1005449 -0.55923146 23
0.91864598 2.1694558 -0.33756551 1
0.82997507 1.9600525 -0.34303218 9
0.82908845 1.9579587 -0.38027665 15
0.82335043 1.9444078 -0.41530234 3
1.3374718 3.1585464 -0.73540181 0
1.2695882 2.998234 -0.81331056 17
1.3273896 3.1347368 -1.1710948 0
0.74217683 1.7527099 -0.88723266 23
1.6125915 3.735419 1.0739926 15
1.6920145 3.9193947 0.82494396 14
1.6894243 3.9133949 0.59632295 16
1.6947454 3.9257209 0.37123665 16
1.7257901 3.997633 0.22400509 16
1.720751 3.9859605 0.14652665 19
1.8530611 3.5566654 0.11153165 38
8.7045622 25.010151 0.58060586 59
1.7199247 3.9840465 0.069533035 14
1.8481381 3.5472164 0.040490944 46
8.7092056 25.023493 0.11191074 59
1.7169722 3.9772074 -0.0071827243 15
1.8592695 3.5685813 -0.03033996 33
8.7150707 25.040344 -0.35633874 44
1.7309194 4.0095143 -0.084464207 22
1.8679684 3.5852776 -0.10204946 39
8.7274075 25.07579 -0.82651758 48
1.736392 4.0221915 -0.16240467 24
1.8576089 3.5653942 -0.17271776 42
8.0961447 23.262032 -1.2024859 1
1.7286522 4.0042629 -0.23888056 19
1.8632928 3.5763037 -0.24452469 46
6.4873753 18.639677 -1.3133088 1
1.7219709 3.9887862 -0.31485525 21
1.8591692 3.5683889 -0.31525642 40
5.4096808 15.543221 -1.3863319 1
1.7353017 4.0196657 -0.39475304 54
1.8636842 3.5770547 -0.38738146 51
1.8390868 5.2841072 -0.57039136 3
1.7354463 4.0200009 -0.47226676 31
1.7366267 4.0227351 -0.55025983 22
0.9620176 2.2284248 -0.34777758 0
0.84989923 1.9687129 -0.34557787 6
0.84273726 1.9521229 -0.38027665 19
0.83846033 1.9422158 -0.41607428 5
1.8818935 4.3592324 -1.0179906 0
1.3657323 3.1635926 -1.1854081 0
0.76014256 1.7608 -0.89399248 21
1.626169 3.6957498 1.0658253 14
1.6987731 3.8607552 0.81507802 16
1.6927717 3.847116 0.58800995 17
1.6948266 3.8517861 0.36535498 18
1.7230883 3.9160156 0.22010042 16
1.7243851 3.918963 0.1445028 17
1.8890792 3.5648403 0.11219884 37
8.9030876 25.016588 0.58218408 56
1.7187023 3.9060478 0.068379492 12
1.8915857 3.5695703 0.040895853 47
8.9078293 25.029913 0.11221485 67
1.7189205 3.9065437 -0.0070766085 15
1.8935018 3.5731862 -0.030490754 37
8.9124689 25.04295 -0.35725257 46
1.7298763 3.9314425 -0.08307194 22
1.9023142 3.5898159 -0.10255416 38
8.9210224 25.066984 -0.82825994 48
1.7322321 3.9367967 -0.15944108 25
1.895553 3.5770569 -0.17391957 43
8.2342339 23.13719 -1.198975 1
1.7276105 3.9262934 -0.23494297 21
1.897562 3.5808482 -0.24573521 50
6.5986114 18.541292 -1.3095907 1
1.7240674 3.9182413 -0.31022927 21
1.8896374 3.5658937 -0.31619376 43
5.5020232 15.460013 -1.3823028 1
1.7360457 3.9454637 -0.38864675 43
1.894204 3.5745113 -0.3885287 47
1.8812687 5.2861357 -0.57201409 3
1.7394432 3.9531851 -0.46583262 27
1.7358965 3.9451246 -0.5412882 23
1.006256 2.2868905 -0.35798964 1
0.86998451 1.97719 -0.34812358 2
0.86585993 1.9678162 -0.38450193 18
0.85516047 1.9434999 -0.41761816 16
1.9264573 4.3782072 -1.0255375 0
1.2354485 2.8077703 -1.0552865 0
0.77095652 1.7521318 -0.89230251 23
1.655095 3.6913652 1.0678672 17
1.6935489 3.7771294 0.7998997 15
1.7001395 3.7918284 0.58135951 17
1.6988502 3.7889528 0.36051127 19
1.7176981 3.8309894 0.21599023 17
1.7271686 3.8521116 0.14247896 19
1.9271983 3.5762045 0.11297722 37
9.099391 25.013954 0.58358693 58
1.7164763 3.8282645 0.067225948 16
1.929742 3.5809247 0.041179288 46
9.1083336 25.038536 0.11253584 65
1.7117846 3.8178005 -0.0069373315 19
1.9297861 3.5810065 -0.030671708 35
9.113061 25.051533 -0.35827389 49
1.7261928 3.8499351 -0.08160232 24
1.9330202 3.587008 -0.10285698 38
8.4383917 23.196886 -0.76839626 5
1.731872 3.8626015 -0.15692203 26
1.9223751 3.5672543 -0.17409126 42
8.3832664 23.045351 -1.1972196 1
1.7321019 3.8631144 -0.2318804 21
1.928197 3.5780578 -0.24646151 47
6.712883 18.453514 -1.3066692 1
1.7219996 3.8405831 -0.30502504 23
1.922053 3.5666566 -0.31744352 38
5.6016431 15.39875 -1.3802882 2
1.7505084 3.9041665 -0.38577321 37
1.9191124 3.5611999 -0.3885287 51
1.9276493 5.2990503 -0.5748539 3
1.740966 3.8828838 -0.45896953 29
1.7325447 3.8641016 -0.53181815 26
1.052976 2.3484571 -0.36876905 0
0.90153885 2.0107059 -0.35512424 0
0.87474376 1.9509448 -0.38238928 18
0.8719191 1.9446449 -0.41916203 21
1.1652653 2.5988963 -0.9798159 0
0.78465307 1.7500151 -0.89399248 21
1.6808249 3.6797209 1.0678672 17
1.6970321 3.7152021 0.78927481 16
1.6969432 3.7150073 0.57138383 18
1.7004247 3.7226293 0.35532156 18
1.7228246 3.7716677 0.21331862 17
1.7207992 3.7672338 0.13978049 16
1.9501963 3.5591562 0.11286602 35
1.7182345 3.7616191 0.066264659 16
1.9643044 3.5849042 0.041381747 45
1.7217765 3.7693734 -0.0068710088 14
1.9605052 3.5779705 -0.030762186 41
1.7281034 3.7832246 -0.080442101 22
1.9599365 3.5769324 -0.10295791 40
8.4914789 22.845102 -0.75868863 2
1.7305619 3.7886066 -0.15440297 26
1.952993 3.5642605 -0.17460632 45
8.5230684 22.93009 -1.1942939 1
1.7274994 3.7819021 -0.22772406 23
1.958885 3.5750134 -0.24718782 50
6.810956 18.323896 -1.3008264 2
1.7205904 3.7667766 -0.30010995 23
1.9584033 3.5741346 -0.31931821 40
5.6951227 15.321908 -1.3769307 2
1.7429618 3.815753 -0.37823015 34
1.9554074 3.5686669 -0.39082316 46
1.9770744 5.3190341 -0.57850504 3
1.7399406 3.809139 -0.4516775 30
1.7363927 3.8013718 -0.52484024 23
1.7290494 3.7852957 -0.59627116 22
1.6621082 3.6387453 -0.64469683 0
0.88670653 1.941209 -0.38168508 17
0.8919968 1.9527906 -0.42224976 20
2.1110477 4.6215796 -1.1794643 0
2.2847795 5.0019193 -1.3736128 0
1.1440916 2.5046854 -0.94728553 0
0.79534489 1.7411969 -0.89230251 21
1.698316 3.6503637 1.0627626 17
1.6931077 3.6391692 0.77561432 17
1.704456 3.6635611 0.56528759 17
1.7062001 3.66731 0.35116979 17
1.7238374 3.7052195 0.21023597 17
1.7217619 3.7007587 0.13775663 18
1.9905626 3.5733993 0.11375561 35
10.388838 27.363195 0.64171761 1
1.7208341 3.6987643 0.06536746 16
1.999016 3.5885746 0.041584201 42
10.726305 28.252052 0.12763974 1
1.7143034 3.6847272 -0.0067383638 20
1.9951687 3.5816681 -0.03091298 33
8.7052746 22.928854 -0.32962275 0
1.7291681 3.7166772 -0.079281874 24
1.9965359 3.5841224 -0.10356355 37
8.5783854 22.594639 -0.75234133 2
1.7367352 3.7329421 -0.15262483 26
1.9894972 3.5714867 -0.17563646 41
8.6786871 22.858824 -1.1937087 1
1.7252184 3.7081878 -0.22400522 21
1.9954535 3.5821793 -0.24864045 50
6.9259639 18.242321 -1.2984362 2
1.7232848 3.7040319 -0.29606223 23
1.985248 3.5638585 -0.31963065 40
5.7821426 15.229606 -1.3722302 2
1.7460313 3.752923 -0.37320146 30
1.9918994 3.575799 -0.39311764 46
2.0254593 5.3348641 -0.58175051 3
1.7446822 3.7500234 -0.44610122 30
1.7377765 3.7351804 -0.51736385 28
1.7236987 3.7049215 -0.58549178 21
1.694134 3.6413751 -0.64724255 0
0.90688086 1.9492515 -0.38450193 17
0.9089191 1.9536326 -0.42379364 20
0.90409923 1.9432727 -0.45952129 1
2.1859944 4.6985812 -1.2029812 0
1.1280434 2.4246187 -0.91995996 0
0.81818652 1.7586118 -0.90413231 22
1.7005765 3.5894868 1.0484699 21
1.6982946 3.5846705 0.76650727 20
1.7011575 3.590713 0.55586612 27
1.7010499 3.590486 0.34494218 34
1.7257178 3.6425536 0.20735884 17
1.7184585 3.6272314 0.13546294 19
2.0174313 3.5628953 0.11386681 37
1.7129174 4.4184523 0.10389881 0
1.7192165 3.6288309 0.064342089 17
2.0220494 3.5710514 0.041543707 44
1.7176514 4.4306631 0.020070948 6
1.7211471 3.6329062 -0.0066654091 15
2.0240662 3.5746131 -0.030973298 36
1.7146202 4.4228444 -0.063752867 9
1.7328136 3.6575313 -0.078276351 24
2.02742 3.5805359 -0.10386637 36
1.7052739 4.3987355 -0.14685902 14
1.7268139 3.6448672 -0.14951305 30
2.0222585 3.5714207 -0.17632321 45
1.7127352 4.4179816 -0.23132981 0
1.732254 3.6563501 -0.22159891 22
2.0263147 3.578584 -0.24936676 48
1.7081058 4.4060402 -0.3144505 0
1.7286043 3.6486464 -0.29259273 24
2.025799 3.5776732 -0.3221302 39
1.7216902 4.441081 -0.40122706 6
1.7448982 3.6830387 -0.36745438 27
2.0246618 3.575665 -0.39464727 44
1.71744 4.4301181 -0.48438641 18
1.7401708 3.6730604 -0.43838024 31
1.7366226 3.665571 -0.5093891 24
1.7223973 3.6355453 -0.57641435 22
1.7161324 3.6223214 -0.64596969 1
0.91540939 1.9321977 -0.38238928 16
0.91749465 1.9365991 -0.42147782 15
0.95113432 2.0076039 -0.47629216 1
2.2170751 4.6796846 -1.2020768 0
0.83354837 1.7594098 -0.90751225 22
1.7222337 3.57056 1.0464281 27
1.7198663 3.5656521 0.76498944 34
1.7227416 3.5716131 0.55475771 42
1.7260745 3.5785229 0.34494218 36
1.725073 3.5764468 0.2042762 32
1.7298448 3.5863397 0.13438356 35
2.0482388 3.5591209 0.1142004 38
1.7245926 4.3580461 0.10275899 18
1.7358204 3.5987284 0.064021662 27
2.0569057 3.5741813 0.041746162 42
1.7205762 4.3478966 0.019749949 17
1.7273519 3.5811713 -0.0065924544 38
2.0569527 3.5742629 -0.031093935 33
1.7130777 4.3289475 -0.062570266 15
1.7287687 3.5841088 -0.076961435 32
2.0663288 3.590555 -0.10457294 36
1.7065183 4.3123722 -0.14436989 16
1.733115 3.5931194 -0.14788309 44
2.0551157 3.5710707 -0.17700996 40
1.7288355 4.3687677 -0.22937931 14
1.733445 3.5938039 -0.21853635 43
2.0612059 3.5816531 -0.25057727 49
1.7226692 4.3531857 -0.31152907 15
1.7297689 3.5861824 -0.28854501 53
2.0606716 3.580725 -0.32369241 38
1.7174529 4.340004 -0.39316896 34
1.7428756 3.6133554 -0.3617073 27
2.0595052 3.5786982 -0.39655933 47
1.7190408 4.3440166 -0.47627273 20
1.7398546 3.6070921 -0.4319461 34
1.743204 3.6140361 -0.50390643 35
1.7339743 3.5949011 -0.57187569 39
1.7430946 3.6138093 -0.64660615 0
0.94085068 1.9505855 -0.38731879 12
0.94463313 1.9584272 -0.42765334 10
0.93794 1.944551 -0.46287549 2
2.271697 4.7097154 -1.2138352 0
0.84896106 1.7600785 -0.91089219 21
1.7437098 3.5515063 1.0443863 26
1.7429864 3.5500329 0.76423055 32
1.7511259 3.5666111 0.55586612 39
1.7527714 3.5699625 0.34528816 33
1.7499993 3.5643165 0.2042762 30
1.75484 3.5741758 0.13438356 37
2.0851469 3.565444 0.11486759 38
1.7295192 4.2828617 0.10126846 17
1.750326 3.5649819 0.063637145 28
2.0797884 3.5562813 0.041705672 42
1.7284217 4.2801437 0.019496527 21
1.7575997 3.5797966 -0.0066123512 31
2.0899322 3.5736265 -0.031214571 38
1.7118069 4.2390003 -0.061441422 15
1.7502232 3.5647726 -0.076806739 46
2.0933635 3.5794935 -0.10467388 38
1.7066416 4.2262092 -0.14188075 17
1.7616807 3.5881088 -0.14817944 52
2.0900831 3.5738845 -0.17786838 41
1.729373 4.2824998 -0.22547831 18
1.7567321 3.5780294 -0.21831758 45
2.0922067 3.5775158 -0.25130358 50
1.7201396 4.259635 -0.30568624 21
1.7600379 3.5847626 -0.28941238 41
2.0896456 3.5731363 -0.32431731 39
1.7193524 4.2576857 -0.38678962 17
1.7575245 3.5796432 -0.35955215 54
2.0985093 3.5882926 -0.39923617 48
1.7195245 4.258112 -0.46815905 23
1.7684999 3.6019974 -0.43280399 58
1.7578971 3.5804024 -0.50091588 43
1.7555392 3.5755997 -0.570741 42
1.086031 2.211977 -0.39712816 1
0.96312219 1.9616421 -0.39083987 9
0.94444442 1.9236001 -0.42147782 22
0.95321643 1.9414665 -0.463714 5
2.2839148 4.6517706 -1.2029812 0
0.86122799 1.7541088 -0.91089219 21
1.7758632 3.5571649 1.0494908 26
1.7735093 3.5524499 0.76726621 32
1.7765113 3.5584631 0.55642033 31
1.7817494 3.5689554 0.34632608 32
1.7753842 3.5562057 0.20448172 31
1.7874342 3.5803425 0.13505818 35
2.1250792 3.579041 0.11575717 39
1.7244023 4.189939 0.099339537 18
1.7828631 3.5711865 0.063957572 29
2.1196656 3.5699236 0.042029601 37
1.7202344 4.179812 0.019091053 22
1.7884495 3.5823762 -0.0066388804 30
2.1258404 3.5803232 -0.031395525 36
1.7109612 4.15728 -0.060420085 15
1.7720406 3.5495081 -0.076729387 41
2.1252236 3.5792847 -0.10507764 38
1.7087657 4.1519456 -0.13976498 19
1.7800826 3.5656168 -0.14773491 45
2.1239414 3.5771251 -0.17872682 44
1.7288471 4.2007389 -0.22177234 19
1.7893435 3.5841668 -0.21941136 41
2.1342337 3.5944591 -0.25348252 46
1.7240489 4.1890802 -0.30143693 22
1.78912 3.5837193 -0.29027975 43
2.1173694 3.5660565 -0.3249422 41
1.7217638 4.1835284 -0.38108179 18
1.7830061 3.5714726 -0.35991132 47
2.1303928 3.5879903 -0.40076584 45
1.715923 4.1693363 -0.4596397 22
1.7870208 3.5795145 -0.43151715 56
1.7922409 3.5899706 -0.50390643 44
1.7792145 3.5638778 -0.570741 41
1.1147885 2.2329912 -0.40221956 0
0.97259349 1.9481655 -0.38943145 5
0.96945286 1.9418747 -0.4268814 21
0.96607161 1.9351017 -0.463714 11
2.3547447 4.716701 -1.2237847 0
1.2480515 2.4999251 -0.69795424 0
0.87446201 1.7516021 -0.91258216 21
1.8094115 3.5619211 1.0545954 28
1.8036029 3.5504868 0.76954293 31
1.8120755 3.5671654 0.55974555 29
1.8192555 3.5812995 0.34874794 35
1.8092139 3.5615323 0.20550926 29
1.8160073 3.5749052 0.13532802 35
2.1541443 3.5709658 0.11597957 39
1.7257518 4.1114259 0.097761326 23
1.8113739 3.5657842 0.064085744 27
2.1548667 3.5721633 0.042232055 43
1.726151 4.1123772 0.018837633 19
1.8206618 3.5840681 -0.0066654091 31
2.1611137 3.5825195 -0.031546321 37
1.7151746 4.0862269 -0.059560012 16
1.8040227 3.5513129 -0.07703878 44
2.1584218 3.5780568 -0.10548139 36
1.7098569 4.0735583 -0.13752475 20
1.8176043 3.5780492 -0.14877217 50
2.1529911 3.5690541 -0.1790702 39
1.7225668 4.103838 -0.21728618 18
1.8233663 3.5893919 -0.22050513 42
2.1654625 3.5897284 -0.25420883 45
1.7269917 4.1143799 -0.296922 23
1.817709 3.5782552 -0.290858 39
2.1607518 3.5819192 -0.3277542 41
1.7231599 4.1052513 -0.37503818 19
1.820526 3.5838006 -0.36242568 45
2.1615596 3.5832584 -0.40191305 44
1.7203459 4.098547 -0.45314875 23
1.8155693 3.574043 -0.43237504 59
1.8154621 3.5738323 -0.50340801 40
1.8183979 3.5796115 -0.57527971 38
1.8153572 3.5736256 -0.64596969 44
1.0040035 1.9764334 -0.39647362 1
0.98298603 1.9350594 -0.4268814 19
0.97955751 1.9283103 -0.463714 20
1.2654737 2.4911513 -0.69795424 5
0.88831115 1.7486869 -0.91427213 20
1.8431121 3.5663815 1.0596999 27
1.8391643 3.5587423 0.77409649 31
1.8423908 3.5649855 0.56140816 30
1.8478724 3.5755923 0.34943992 32
1.8395358 3.5594611 0.20612578 32
1.8464266 3.5727949 0.13573278 34
2.195735 3.5831139 0.11686915 36
1.7260903 4.0331011 0.096183121 23
1.8454045 3.570817 0.064406171 28
2.1964712 3.5843155 0.04255598 43
1.7249159 4.0303569 0.018516632 24
1.8511481 3.5819309 -0.0066853059 28
2.1881618 3.5707555 -0.031576481 32
1.7137595 4.0042901 -0.058538675 15
1.839788 3.5599492 -0.077502869 39
2.1917057 3.5765386 -0.10588515 39
1.7162306 4.0100636 -0.13578236 18
1.8480449 3.5759261 -0.1492167 51
2.1924715 3.5777884 -0.18027201 42
1.7260233 4.0329447 -0.21416537 21
1.857549 3.5943165 -0.22159891 40
2.1988153 3.5881405 -0.25517726 41
1.7274064 4.0361767 -0.2921415 21
1.8444771 3.5690227 -0.29114714 46
2.1961234 3.5837479 -0.32931641 40
1.725117 4.030827 -0.36933035 18
1.8528172 3.5851605 -0.36386245 44
2.1948442 3.5816605 -0.40344271 43
1.7238655 4.0279031 -0.44665781 21
1.8459539 3.5718803 -0.43366188 55
1.8513007 3.582226 -0.50639856 43
1.8469794 3.5738645 -0.57641435 44
1.8493267 3.5784063 -0.6491518 63
1.8873166 3.651916 -0.73520148 0
1.000075 1.9351231 -0.42842528 18
0.99119997 1.91795 -0.46287549 19
1.2935246 2.5029416 -0.70377052 6
1.1166165 2.1606283 -0.83668214 0
0.9004975 1.7424427 -0.91427213 20
1.8697647 3.5568507 1.0607208 28
1.8621366 3.5423398 0.77333754 32
1.8764502 3.5695686 0.56417918 30
1.8857691 3.587296 0.35186177 33
1.8717755 3.5606761 0.20694782 32
1.8769046 3.5704331 0.13613756 36
2.2164702 3.5609086 0.11664676 36
1.7238216 3.9513099 0.094517231 21
1.8777322 3.5720074 0.064662516 25
2.225668 3.5756855 0.042636964 36
1.722621 3.9485579 0.018195633 24
1.8835545 3.5830829 -0.006711835 28
2.2278326 3.5791628 -0.031787593 33
1.7144842 3.9299068 -0.05762485 17
1.8701787 3.5576384 -0.07773491 43
2.2250733 3.5747302 -0.10628891 39
1.7074142 3.9137008 -0.13291985 17
1.8785441 3.5735517 -0.14966124 45
2.2195075 3.565788 -0.1804437 43
1.7301726 3.9658673 -0.21123962 21
1.8863134 3.5883315 -0.22203642 39
2.2280312 3.5794818 -0.25566146 44
1.7252189 3.9545126 -0.28709543 21
1.8823428 3.5807781 -0.29317099 43
2.227411 3.5784855 -0.33025375 36
1.7229323 3.9492714 -0.36295101 19
1.8796548 3.5756645 -0.36422163 45
2.2240036 3.5730112 -0.40420753 42
1.7137538 3.9282324 -0.43692142 22
1.8800976 3.5765071 -0.43580657 53
1.8781108 3.5727274 -0.50689697 41
1.8847814 3.585417 -0.58038574 36
1.8779383 3.5723994 -0.65042466 58
1.9054369 3.6247098 -0.73238462 1
1.0245177 1.9489385 -0.43305689 16
1.0100251 1.9213696 -0.4653911 17
1.1369531 2.1628244 -0.84058577 0
0.9160139 1.7425319 -0.91765201 20
1.9036676 3.5607641 1.0658253 27
1.8979312 3.5500343 0.77789104 33
1.9050602 3.5633688 0.56528759 32
1.9164034 3.5845861 0.3528997 33
1.8984715 3.5510447 0.20715334 29
1.9130939 3.5783958 0.1369471 31
2.2583685 3.572386 0.11753634 34
1.7237458 3.8770585 0.093026698 21
1.9101661 3.5729194 0.064918861 25
2.2591257 3.5735838 0.042798929 42
1.7257696 3.8816104 0.017942211 23
1.9122947 3.576901 -0.0067250994 28
2.2613146 3.5770466 -0.031908229 34
1.7110053 3.8484025 -0.056603514 15
1.9006265 3.5550759 -0.077966958 41
2.258522 3.5726292 -0.10669266 35
1.715204 3.8578463 -0.13142638 18
1.9091001 3.5709255 -0.15010577 44
2.2571597 3.5704739 -0.18147382 41
1.7269783 3.8843288 -0.20753366 23
1.9169677 3.5856416 -0.22269268 38
2.2636333 3.5807142 -0.25687197 38
1.7235985 3.8767269 -0.28231493 24
1.918581 3.5886593 -0.29490572 40
2.2587316 3.5729604 -0.33119109 36
1.7229332 3.8752308 -0.35724318 19
1.9120847 3.576508 -0.3656584 45
2.2616589 3.5775912 -0.40650198 39
1.7265861 3.8834469 -0.43327025 19
1.9143955 3.5808301 -0.4379513 55
1.9123631 3.5770288 -0.5093891 42
1.9041659 3.5616961 -0.57868373 44
1.9102801 3.5731328 -0.65297037 61
1.1120063 2.0799809 -0.42182538 0
1.0362483 1.9382774 -0.43228495 15
1.027102 1.9211694 -0.4670682 13
0.99751657 1.8658305 -0.49114197 1
0.9298659 1.7392915 -0.91934198 21
1.9340216 3.5575814 1.0688881 29
1.9264201 3.5435987 0.77940887 30
1.9355667 3.5604234 0.5669502 40
1.9470917 3.5816236 0.35393766 30
1.9365715 3.5622716 0.20859189 31
1.9418479 3.5719776 0.13721694 33
2.2832532 3.5565326 0.11753634 33
1.7227187 3.8030038 0.091536164 21
1.9446143 3.5770664 0.065239288 27
2.2948232 3.5745544 0.043001384 34
1.7280687 3.8148143 0.01768879 24
1.9525032 3.5915778 -0.0067781573 28
2.3013582 3.5847342 -0.032119341 33
1.7147253 3.785358 -0.055850949 16
1.9349496 3.5592885 -0.078353696 42
2.29421 3.5735996 -0.10719736 34
1.7107505 3.7765832 -0.1290617 20
1.9358923 3.5610225 -0.15025395 44
2.2906668 3.5680804 -0.18216057 42
1.727677 3.8139496 -0.20441285 21
1.9476762 3.5826986 -0.22334896 38
2.2950473 3.5749035 -0.25759828 45
1.7226241 3.8027949 -0.27780002 21
1.9454932 3.5786829 -0.29519486 39
2.3008552 3.5839505 -0.33369064 37
1.7219856 3.8013854 -0.35153535 21
1.9389095 3.5665724 -0.36601761 55
2.2973354 3.5784676 -0.40841404 41
1.7191736 3.7951777 -0.42475089 20
1.9488447 3.5848479 -0.44009602 52
1.948662 3.584512 -0.51237965 41
1.946005 3.5796244 -0.58378977 37
1.9389508 3.5666482 -0.65424323 57
1.9426956 3.5735369 -0.72745514 20
1.0516292 1.934444 -0.43305689 11
1.0498294 1.9311332 -0.47126091 16
1.0291281 1.8930538 -0.50018698 2
0.9437173 1.7359428 -0.92103195 19
1.9644234 3.5541472 1.0719508 32
1.9682103 3.5609987 0.78623915 32
1.9680408 3.5606918 0.56916702 33
1.9816872 3.5853817 0.35566756 31
1.9652585 3.5556581 0.20900291 28
1.9744729 3.5723293 0.13775663 33
2.3233113 3.5639529 0.11831473 33
1.7240939 3.7364175 0.090220995 22
1.9830824 3.5879061 0.065687887 25
2.3306437 3.5752003 0.043203838 34
1.7211409 3.7300179 0.017350895 27
1.9813993 3.5848608 -0.0067914217 28
2.3350654 3.5819833 -0.032239977 33
1.7243525 3.7369778 -0.055313405 18
1.9674892 3.5596941 -0.078663088 39
2.3343883 3.5809445 -0.10790394 36
1.7136227 3.7137246 -0.12731931 19
1.9781084 3.5789068 -0.15158758 42
2.3351624 3.5821321 -0.18370576 41
1.7341743 3.7582633 -0.20207225 23
1.9823008 3.5864918 -0.22444274 37
2.3330309 3.5788624 -0.25905091 37
1.7240474 3.7363167 -0.27381626 25
1.9742893 3.5719969 -0.29577309 41
2.3323526 3.577822 -0.33462799 37
1.7217623 3.7313645 -0.34616327 20
1.9714701 3.5668964 -0.36745438 44
2.3331335 3.5790198 -0.41032609 41
1.7239523 3.7361107 -0.41947702 20
1.983443 3.5885584 -0.44224074 54
1.9832386 3.5881886 -0.51487172 41
1.9728633 3.569417 -0.58435708 38
1.9733548 3.5703063 -0.65742534 65
1.9809293 3.5840104 -0.73238462 40
1.0689057 1.9339252 -0.43460077 5
1.0632855 1.9237568 -0.47126091 18
1.053628 1.906284 -0.50561392 6
0.95932096 1.7356583 -0.92441189 20
1.989188 3.5403466 1.0719508 33
1.9968702 3.5540195 0.78775698 32
2.006434 3.5710411 0.57304645 32
2.0066693 3.5714598 0.35566756 31
2.0017741 3.5627472 0.21023597 28
2.0130718 3.582855 0.1387011 34
2.3569636 3.5609834 0.11875952 34
1.728026 3.6772389 0.089081176 22
2.0100412 3.577461 0.065751977 25
2.3665845 3.5755191 0.043406293 35
1.7250234 3.6708493 0.017131263 25
2.002459 3.5639665 -0.0067781573 29
2.3688462 3.5789359 -0.032360613 33
1.7180789 3.6560712 -0.054292068 19
1.9962103 3.552845 -0.078817785 39
2.3725734 3.5845671 -0.10850957 38
1.7174021 3.6546311 -0.12570137 20
2.0108774 3.5789492 -0.15218028 43
2.3689361 3.5790718 -0.18439251 41
1.7297835 3.6809788 -0.19856134 23
2.01316 3.5830121 -0.225099 38
2.3711815 3.5824645 -0.26050353 36
1.7280222 3.6772306 -0.27036369 26
2.0148122 3.5859523 -0.29808608 42
2.3682787 3.5780785 -0.33619019 38
1.7223415 3.6651423 -0.34112695 22
2.0119348 3.5808313 -0.37032792 42
2.3778417 3.5925267 -0.41376778 39
1.7246063 3.6699615 -0.41339174 23
2.0142915 3.5850258 -0.44352755 52
2.0140724 3.5846357 -0.51636702 39
2.0113108 3.5797207 -0.58832842 36
2.0098381 3.5770998 -0.66124386 57
2.013617 3.5838251 -0.73520148 49
1.1304439 2.0119584 -0.4538992 0
1.074774 1.9128773 -0.47042236 19
1.0726364 1.9090728 -0.50832742 14
0.98029417 1.7447225 -0.93286175 19
2.0272813 3.5498822 1.0790972 35
2.0294237 3.5536335 0.79079264 33
2.0352447 3.5638268 0.57415485 33
2.0374823 3.5677447 0.35670549 32
2.0365028 3.5660295 0.21126352 30
2.0420008 3.5756569 0.13897094 35
2.4062974 3.5809484 0.1199827 35
1.7329433 3.6217973 0.088029034 24
2.0369508 3.5668144 0.06581606 27
2.398181 3.5688696 0.043527763 40
1.7264385 3.6082025 0.016894737 28
2.047128 3.5846348 -0.0068444801 32
2.4071596 3.5822313 -0.032541566 33
1.7228454 3.600693 -0.053647015 31
2.0348482 3.5631323 -0.079359226 41
2.4086914 3.5845108 -0.10901427 36
1.7238925 3.6028812 -0.12433234 38
2.0437431 3.5787077 -0.15277301 43
2.4050095 3.5790317 -0.18525095 40
1.7312979 3.6183584 -0.19583063 23
2.0460477 3.5827432 -0.22597401 41
2.4072683 3.5823932 -0.26171404 39
1.7243669 3.6038728 -0.26584876 27
2.0417759 3.575263 -0.29837522 41
2.4065454 3.5813174 -0.33806485 37
1.7238019 3.6026919 -0.33642638 26
2.0447872 3.5805359 -0.37176469 42
2.4095261 3.5857532 -0.414915 39
1.7261394 3.6075773 -0.40771216 41
2.0451872 3.5812364 -0.44481438 52
2.0429852 3.5773807 -0.51736385 37
2.0421438 3.5759072 -0.59003043 38
2.0406373 3.5732694 -0.66315311 57
2.0424929 3.5765185 -0.73660994 44
