# .PCD v0.7 - Point Cloud Data file format
VERSION 0.7
FIELDS x y z intensity
SIZE 4 4 4 4
TYPE F F F F
COUNT 1 1 1 1
WIDTH 1344
HEIGHT 1
VIEWPOINT 0 0 0 1 0 0 0
POINTS 1344
DATA ascii
-2.2916317 -3.3783722 -1.9029027 7
-1.5880007 -2.3062413 0.73913556 1
-2.2272966 -3.2346859 0.75891811 14
-2.5791218 -3.7456386 0.63622564 23
-5.2318978 -7.5982451 0.80094397 22
-5.1087136 -7.4193459 0.46342337 7
-5.11936 -7.4348073 0.30465668 18
-5.9475999 -7.4185085 0.26442897 16
-8.9175911 -15.205743 0.38648602 16
-9.2180042 -13.387237 0.26044446 3
-12.151884 -15.157183 0.19666451 6
-12.021703 -20.49869 0.10037164 40
-12.635532 -18.350487 -0.036941621 39
-13.25804 -16.536903 -0.15981257 3
-11.986328 -20.43837 -0.31844181 42
-13.120824 -19.055271 -0.44745919 20
-16.11314 -20.098103 -0.6502499 16
-11.955314 -20.385487 -0.73566413 38
-13.141472 -19.085258 -0.85899621 11
-13.2462 -16.522135 -0.90977275 61
-11.987298 -20.440023 -1.1568441 43
-12.618904 -18.326338 -1.2186847 13
-13.25409 -16.531977 -1.284844 6
-5.7745342 -9.8463907 -0.75956792 0
-6.7967515 -9.8708696 -0.86852628 1
-16.074017 -20.049301 -2.0133917 12
-5.766881 -9.8333406 -0.96025896 0
-6.8277135 -9.9158363 -1.085481 0
-16.119164 -20.105614 -2.4749584 10
-5.6628475 -9.6559486 -1.1411884 60
-6.6444669 -9.6497078 -1.2636675 70
-6.6331687 -9.6333008 -1.4688548 37
-6.6446333 -9.64995 -1.6787502 31
-6.6314664 -9.6308279 -1.8844495 27
-6.741632 -9.7908201 -2.1260281 2
-6.0342989 -8.763566 -2.0927224 2
-5.2236109 -7.5862103 -1.9747677 2
-4.9940195 -7.2527761 -2.0441637 3
-4.6042347 -6.6866946 -2.0279448 4
-3.2155285 -4.6698875 -1.9505234 6
-2.3213298 -3.3712497 -1.9079727 7
-1.5952002 -2.2824185 0.73505193 0
-2.2205768 -3.1772099 0.74905217 15
-2.616555 -3.743777 0.63899666 24
-5.246007 -7.5060072 0.7950623 23
-5.1878467 -7.422791 0.46588948 6
-5.1825905 -7.4152703 0.30533132 18
-6.0269957 -7.4109306 0.26565215 19
-9.0951777 -15.263355 0.38955477 15
-9.2539606 -13.240602 0.25884232 2
-12.217023 -15.022329 0.19601665 7
-12.084662 -20.280251 0.099712737 30
-12.692299 -18.160191 -0.036736023 40
-13.33026 -16.391191 -0.15929987 1
-12.052969 -20.227064 -0.31645289 46
-12.765547 -18.264994 -0.43098402 111
-16.427139 -20.199184 -0.6572147 16
-12.019568 -20.171013 -0.73093474 44
-12.745431 -18.236212 -0.82476676 27
-13.323398 -16.382753 -0.90719748 19
-12.058124 -20.235716 -1.1500174 44
-12.730522 -18.21488 -1.2171533 8
-16.364458 -20.12211 -1.5727053 19
-5.863565 -9.8401232 -0.76222372 0
-6.9089208 -9.8853111 -0.87401962 22
-16.40481 -20.171728 -2.0371375 17
-5.9843349 -10.042798 -0.98476905 0
-6.9446979 -9.9365005 -1.0930241 0
-16.44252 -20.218098 -2.5028744 6
-5.7484536 -9.646946 -1.1448395 67
-6.7412887 -9.645462 -1.2692437 55
-6.7320905 -9.6323004 -1.4758327 35
-6.7526693 -9.6617451 -1.6889622 30
-6.734736 -9.6360865 -1.8946323 29
-6.816587 -9.7531986 -2.1281407 1
-6.1088223 -8.7405262 -2.0973539 2
-5.5206623 -7.8989849 -2.0661688 3
-5.0132823 -7.1730237 -2.0315008 2
-4.648581 -6.6512074 -2.0269754 6
-3.2567194 -4.6597266 -1.9557282 5
-2.3468859 -3.3579333 -1.9096626 8
-1.6133332 -2.2743809 0.73607284 1
-2.2267981 -3.1392069 0.74373972 16
-2.6632552 -3.7544982 0.6439845 23
-5.2475576 -7.3976932 0.78745073 23
-5.2811427 -7.4450393 0.46958867 5
-5.266614 -7.4245577 0.30722025 18
-6.1040311 -7.3995185 0.26676413 21
-9.2781382 -15.326065 0.39279887 12
-9.3045197 -13.116957 0.25768879 2
-12.265606 -14.868793 0.19512586 6
-12.157587 -20.082474 0.09915521 52
-12.714629 -17.924324 -0.036437571 30
-13.373099 -16.211334 -0.15845542 1
-12.123456 -20.026096 -0.31462523 42
-13.63318 -19.219242 -0.45573545 20
-16.728065 -20.278341 -0.66357386 16
-12.102118 -19.990847 -0.72744995 43
-12.814615 -18.065279 -0.82106227 25
-13.371327 -16.209187 -0.90273356 22
-12.12875 -20.03484 -1.1433856 47
-13.684648 -19.2918 -1.2954677 15
-16.674768 -20.213732 -1.5889263 21
-5.9734554 -9.8672352 -0.76753539 0
-13.699317 -19.312479 -1.7159466 18
-16.725409 -20.27512 -2.0593212 18
-6.0542984 -10.000775 -0.98476905 0
-7.0761318 -9.9755077 -1.1027223 0
-13.264083 -16.07918 -2.0019171 1
-5.8589368 -9.6780682 -1.1533589 49
-6.85218 -9.6597939 -1.2773937 63
-6.8405046 -9.6433344 -1.4848044 36
-6.8543196 -9.6628103 -1.6974722 32
-6.8406858 -9.6435909 -1.9054515 39
-6.8913455 -9.7150068 -2.1302533 2
-6.1628819 -8.6880627 -2.0950382 2
-5.5847249 -7.8730116 -2.0695229 3
-5.0226588 -7.0806446 -2.0152197 3
-4.7016377 -6.628088 -2.0298836 5
-3.289171 -4.6368766 -1.9557282 6
-2.3639784 -3.3325956 -1.9045928 8
-1.6223928 -2.2536464 0.73301017 2
-2.228008 -3.0948989 0.73690951 15
-2.6963441 -3.7454593 0.64564711 27
-5.243196 -7.2832603 0.77914721 21
-5.3633294 -7.4501362 0.47226027 3
-5.3393378 -7.41681 0.30843455 19
-6.1940289 -7.4027224 0.26843211 20
-9.4582262 -15.380143 0.39586762 13
-9.3514662 -12.990009 0.25647116 2
-12.266442 -14.660097 0.19350623 9
-12.21787 -19.867634 0.098513216 62
-12.781026 -17.753969 -0.036271766 43
-13.408947 -16.025549 -0.15755065 36
-12.189639 -19.821728 -0.31274381 45
-13.883847 -19.285885 -0.45960283 21
-13.363999 -15.97183 -0.52569097 46
-12.147139 -19.752617 -0.72184938 42
-12.884369 -17.897522 -0.81750596 30
-13.394406 -16.008169 -0.89672452 26
-12.195073 -19.830564 -1.1365589 48
-13.952002 -19.380558 -1.3079367 8
-13.371932 -15.981311 -1.263539 44
-6.0631027 -9.8592892 -0.77019125 0
-13.980651 -19.420355 -1.7341614 14
-13.347885 -15.952571 -1.6297101 52
-6.0613308 -9.8564081 -0.9746964 0
-7.1618924 -9.9484987 -1.1052366 0
-13.324911 -15.925114 -1.9942689 39
-5.9492898 -9.6742163 -1.1578214 47
-6.9519782 -9.6569099 -1.2833989 68
-6.9401221 -9.64044 -1.4917823 35
-6.9632502 -9.6725674 -1.7076843 32
-6.9516792 -9.6564941 -1.9175435 26
-6.9612994 -9.669857 -2.1309576 2
-6.2119184 -8.6289015 -2.0911784 2
-5.6326952 -7.8243093 -2.0670073 3
-5.0287142 -6.9853263 -1.9980344 4
-4.7613978 -6.6140008 -2.0356998 6
-3.3214612 -4.613802 -1.9557282 5
-2.3914225 -3.3218963 -1.9079727 8
-1.6312424 -2.2328963 0.72994745 2
-2.2310262 -3.0538993 0.73083812 16
-2.736448 -3.7457368 0.64897233 24
-5.2492509 -7.1853409 0.77257359 22
-5.4122114 -7.4084063 0.30964887 20
-6.2817793 -7.4019794 0.26998886 22
-9.6501131 -15.449408 0.39937475 12
-9.3876629 -12.85013 0.25499716 6
-12.363314 -14.568005 0.19342524 8
-12.282107 -19.663115 0.0979219 53
-12.866907 -17.612631 -0.036165647 43
-13.458383 -15.858352 -0.15682682 46
-12.249325 -19.61063 -0.3107549 41
-14.140827 -19.356411 -0.46362495 13
-13.423431 -15.817168 -0.52367222 41
-12.216965 -19.558825 -0.71786678 44
-12.952413 -17.729673 -0.81394964 20
-13.45412 -15.853329 -0.89329076 75
-12.257023 -19.622955 -1.1295371 49
-12.831177 -17.563721 -1.1913402 20
-13.428924 -15.823639 -1.2584548 46
-6.1465874 -9.840416 -0.77205032 0
-12.823855 -17.553699 -1.5754327 14
-13.394423 -15.782986 -1.621899 50
-6.0940971 -9.756382 -0.96898854 0
-7.0220156 -9.6119566 -1.0732685 14
-13.373932 -15.758841 -1.9850911 44
-6.0440898 -9.6763229 -1.1630954 39
-7.0638013 -9.6691542 -1.2915488 58
-7.0517387 -9.6526432 -1.5012523 34
-7.0679798 -9.6748743 -1.7167617 32
-7.0585275 -9.6619358 -1.9283627 28
-7.0193472 -9.608305 -2.1281407 1
-6.2743235 -8.5884924 -2.0919504 2
-5.7010255 -7.8037443 -2.0720387 3
-5.0589709 -6.9248796 -1.9907984 2
-4.8143244 -6.5899997 -2.0386081 5
-3.3513594 -4.5874467 -1.954427 5
-2.4102781 -3.2992649 -1.9045928 8
-1.644488 -2.2183466 0.72892654 4
-2.2218874 -2.9972346 0.72097218 15
-2.774327 -3.7424531 0.65174335 16
-5.2541957 -7.0876937 0.76599997 22
-6.1448288 -8.2891207 0.53083044 10
-5.4923687 -7.4089794 0.31126794 18
-6.3750353 -7.4064326 0.27176803 11
-9.834856 -15.503229 0.40253118 8
-9.4271269 -12.716806 0.25365138 1
-12.412526 -14.420711 0.19261542 7
-12.344089 -19.458673 0.097330578 44
-12.944293 -17.461319 -0.036039636 38
-13.503529 -15.688223 -0.15607285 51
-12.323801 -19.426693 -0.30919603 41
-12.989524 -17.522333 -0.42185694 19
-13.489178 -15.67155 -0.52195626 44
-12.293246 -19.378529 -0.71438199 45
-12.966372 -17.491102 -0.80713344 29
-13.504503 -15.689355 -0.88934195 48
-12.318813 -19.418829 -1.1227103 46
-12.953483 -17.473715 -1.1913402 20
-13.48176 -15.662932 -1.2531285 58
-6.2643104 -9.8747807 -0.77815872 0
-12.891445 -17.39003 -1.5687828 7
-13.452249 -15.628646 -1.6156501 47
-6.2068992 -9.7842798 -0.97603941 0
-7.1269073 -9.613905 -1.0790156 26
-13.413486 -15.583613 -1.974766 46
-6.1434712 -9.6842947 -1.1691806 45
-7.1666579 -9.6675262 -1.2979829 38
-7.1567717 -9.654191 -1.5092272 36
-7.1707215 -9.673008 -1.7252717 31
-7.1634364 -9.6631813 -1.9385455 28
-7.0909448 -9.5653925 -2.1295493 1
-6.3341298 -8.5444803 -2.0919504 2
-5.7576962 -7.7668948 -2.0728772 4
-5.123435 -6.9113026 -1.9971298 2
-4.8555918 -6.549993 -2.0366693 4
-3.3878093 -4.5700154 -1.9570295 6
-2.4418888 -3.2940075 -1.9113526 8
-1.6297119 -2.1666317 0.71565473 3
-2.2238715 -2.9565413 0.71490085 15
-2.7932429 -3.7134962 0.65008074 11
-5.2604313 -6.9935164 0.7597723 22
-6.1473184 -8.172595 0.52610373 10
-5.5776029 -7.4151831 0.31315687 19
-6.4581409 -7.397892 0.2731024 22
-10.029473 -15.568666 0.40603831 5
-9.4627857 -12.580366 0.25224149 1
-12.460291 -14.273439 0.1918056 7
-12.421142 -19.281233 0.096874423 39
-12.988938 -17.268234 -0.035827402 61
-13.557485 -15.530291 -0.15543951 49
-12.374643 -19.209053 -0.30709958 41
-13.049032 -17.348125 -0.41984588 18
-13.543034 -15.513737 -0.51983654 45
-12.343787 -19.161156 -0.70952815 40
-13.049723 -17.349043 -0.80476254 23
-13.558517 -15.531473 -0.88573653 53
-12.380513 -19.218164 -1.1160786 47
-13.08476 -17.395624 -1.1922153 16
-13.538265 -15.508275 -1.2482864 56
-6.3590317 -9.8710699 -0.78134573 0
-14.806377 -19.684441 -1.7850471 18
-13.505956 -15.471264 -1.6090888 44
-6.2923212 -9.7675161 -0.97872543 0
-7.3495111 -9.7708588 -1.1023631 30
-13.472203 -15.432599 -1.9675002 42
-6.2410989 -9.6880045 -1.1748601 43
-7.2841783 -9.684001 -1.3069907 39
-7.2669396 -9.6610832 -1.5181987 32
-7.2737794 -9.6701756 -1.7337818 29
-7.2663312 -9.6602745 -1.9480919 28
-7.1575508 -9.5156555 -2.1295493 1
-6.4101415 -8.522007 -2.0973539 2
-5.811779 -7.7265096 -2.0728772 3
-5.3074074 -7.0559692 -2.0495906 3
-4.8918695 -6.50353 -2.0327919 6
-3.4196315 -4.5462527 -1.9570295 5
-2.4648259 -3.2768798 -1.9113526 7
-1.6307199 -2.1367548 0.70952934 1
-2.2277792 -2.9190896 0.70958841 12
-2.8166964 -3.6907558 0.64952654 7
-5.272862 -6.9091034 0.75458264 20
-6.1533298 -8.0627918 0.521788 10
-5.6607642 -7.4173765 0.31491086 20
-6.5414367 -7.3885503 0.2744368 22
-10.210161 -15.608707 0.4089317 2
-9.5115595 -12.463127 0.25121611 1
-12.522514 -14.144175 0.19123873 8
-12.481 -19.080235 0.096300006 40
-13.036374 -17.081739 -0.035628434 17
-13.596638 -15.357397 -0.15465538 40
-12.447143 -19.028477 -0.30559447 36
-14.974975 -19.621916 -0.47739291 19
-13.587393 -15.346955 -0.51741397 42
-12.426919 -18.997561 -0.70666569 40
-13.114746 -17.184431 -0.80135441 21
-13.613633 -15.376594 -0.88230276 51
-12.442206 -19.020929 -1.1096419 53
-15.054708 -19.726389 -1.3591254 12
-13.593268 -15.353592 -1.2434443 53
-6.4627476 -9.8798761 -0.78559506 0
-15.088662 -19.77088 -1.8023944 16
-13.563411 -15.319867 -1.6031523 42
-6.3821778 -9.7567062 -0.98208302 0
-7.446548 -9.7573137 -1.1066735 0
-13.521547 -15.272582 -1.9590871 42
-6.3325448 -9.68083 -1.1793227 48
-7.3902106 -9.6834946 -1.3138539 37
-7.3727341 -9.6605949 -1.5261736 36
-7.405972 -9.7041464 -1.7490999 4
-7.37672 -9.6658173 -1.9595475 18
-7.2214189 -9.4623241 -2.128845 2
-6.4575744 -8.4614487 -2.0934944 2
-5.8726964 -7.6950746 -2.0753927 4
-5.3541737 -7.0156469 -2.0486863 3
-4.9512801 -6.48773 -2.0386081 5
-3.4581709 -4.5312886 -1.9609331 5
-2.4898422 -3.2624741 -1.9130425 7
-2.992856 -3.8653274 1.2904246 12
-2.2240596 -2.8724129 0.70199925 16
-3.1940548 -4.1251793 0.729886 7
-5.2770524 -6.8154078 0.74835497 16
-6.1483264 -7.9406738 0.51665026 10
-5.7270923 -7.3966427 0.31572041 19
-6.6302576 -7.3843546 0.27599356 20
-12.425137 -18.708416 0.49240145 25
-9.5248785 -12.301551 0.24929355 1
-12.570181 -13.99986 0.1904694 8
-12.536447 -18.876015 0.095708683 54
-13.081841 -16.895433 -0.03542947 42
-13.658092 -15.211505 -0.15414268 47
-12.52215 -18.854488 -0.30419683 23
-15.258498 -19.706625 -0.48203382 18
-13.630087 -15.180315 -0.51499146 44
-12.599058 -18.970289 -0.70890588 19
-13.178108 -17.019764 -0.79794627 22
-13.664583 -15.218735 -0.87869728 53
-12.501752 -18.823776 -1.1032052 29
-15.353437 -19.829241 -1.3735633 10
-13.630772 -15.181077 -1.2371497 54
-6.5492296 -9.8611155 -0.78771973 0
-15.38752 -19.873259 -1.8214766 14
-13.624742 -15.174361 -1.5978408 44
-6.4832144 -9.7617178 -0.98711932 0
-15.275304 -19.728331 -2.2496254 16
-13.582619 -15.127447 -1.9525862 41
-6.4374018 -9.6927376 -1.1862193 54
-7.5063276 -9.6945572 -1.3224328 53
-7.4813032 -9.6622372 -1.5346467 34
-7.5026259 -9.6897764 -1.7559079 7
-7.4681954 -9.6453085 -1.9659117 2
-7.2945328 -9.4210205 -2.1309576 2
-6.5236964 -8.4254713 -2.0958102 2
-5.9310622 -7.6600738 -2.0770698 4
-5.4077916 -6.9842601 -2.0504951 2
-4.9940753 -6.4499383 -2.0376387 7
-3.4897203 -4.5070362 -1.9609331 5
-2.4992397 -3.227813 -1.9029027 7
-3.0436585 -3.8747532 1.3006335 18
-2.2270763 -2.835197 0.6966868 16
-3.1934114 -4.0653973 0.72323561 9
-5.2752714 -6.7157259 0.74143535 7
-6.1468568 -7.825304 0.51192355 12
-5.8181024 -7.4067812 0.31787917 20
-6.7220273 -7.3822351 0.27766153 22
-10.599244 -15.719941 0.41568291 0
-9.5981731 -12.219029 0.24897312 1
-12.616444 -13.855574 0.18970007 7
-12.609778 -18.701803 0.095269427 4
-13.152526 -16.743927 -0.035303455 50
-13.704706 -15.050721 -0.15347917 41
-12.832353 -19.031908 -0.30849722 15
-15.54887 -19.794611 -0.4868294 18
-13.68727 -15.031572 -0.51317453 39
-12.845179 -19.05093 -0.71525317 10
-13.242284 -16.858192 -0.79468632 24
-13.711301 -15.057963 -0.87492019 52
-12.668598 -18.78904 -1.1063261 5
-15.634593 -19.903742 -1.3862511 16
-13.682657 -15.026506 -1.2323076 53
-6.6625381 -9.8813372 -0.79303139 6
-13.135391 -16.722113 -1.5410271 5
-13.660538 -15.002214 -1.5897171 40
-6.6069131 -9.7988386 -0.9955132 0
-15.567698 -19.818581 -2.2722545 20
-13.631598 -14.970432 -1.9445555 42
-6.533833 -9.6904526 -1.1914932 46
-7.6180444 -9.6982117 -1.3301537 38
-7.6196723 -9.7002831 -1.549101 3
-7.650805 -9.7399178 -1.7746301 3
-7.5914564 -9.6643629 -1.9805495 3
-7.3528285 -9.3605757 -2.128845 2
-6.5872064 -8.3858948 -2.0973539 2
-5.984395 -7.6184807 -2.0770698 4
-5.4467907 -6.9340801 -2.0468771 3
-5.0269957 -6.3996563 -2.0327919 7
-3.5187635 -4.4795895 -1.9596318 5
-2.5261919 -3.2159884 -1.9062827 7
-3.0899169 -3.8776071 1.3088008 18
-2.2223403 -2.7888656 0.68909764 14
-3.1822155 -3.9934344 0.71436834 5
-4.9072919 -6.1582723 0.68365669 16
-6.156527 -7.7259655 0.50822443 11
-5.9020581 -7.4066267 0.31963319 20
-6.8195162 -7.3850651 0.27955189 22
-9.204401 -13.447726 0.35728917 2
-11.891572 -14.923004 0.30575308 17
-12.666737 -13.717202 0.18901172 7
-11.786619 -17.220373 0.088139847 2
-13.216752 -16.586002 -0.035164177 33
-13.755174 -14.895905 -0.152876 46
-13.07334 -19.100286 -0.31107742 15
-13.269131 -16.651733 -0.41180167 22
-13.734908 -14.873958 -0.51105481 43
-12.582678 -18.383423 -0.69347328 68
-13.220153 -16.590271 -0.78638828 65
-13.761868 -14.903153 -0.87148643 50
-12.673088 -18.515514 -1.0954032 11
-13.19948 -16.564327 -1.1600583 24
-13.730347 -14.869018 -1.2272234 55
-6.749393 -9.8609333 -0.79515606 27
-13.197117 -16.561361 -1.5346663 8
-13.70001 -14.836166 -1.5822185 40
-6.7066774 -9.7985258 -1.0002137 0
-13.210546 -16.578215 -1.9112656 5
-13.681754 -14.816395 -1.9369074 40
-6.6417818 -9.7037125 -1.1987956 62
-7.7276983 -9.6976643 -1.3374457 38
-7.7218347 -9.6903057 -1.5560789 3
-7.74576 -9.7203302 -1.7808708 13
-7.7005792 -9.6636314 -1.9913687 6
-7.4179983 -9.3090153 -2.128845 2
-6.6578207 -8.3550501 -2.1012137 3
-6.037436 -7.5765162 -2.0770698 3
-5.5047803 -6.9080739 -2.0504951 4
-5.0957365 -6.3947554 -2.0424855 6
-3.5593801 -4.4667468 -1.9648367 6
-2.5553606 -3.2067802 -1.9113526 7
-3.1315002 -3.8739877 1.3149263 20
-2.2368183 -2.7671742 0.68757981 10
-3.1851139 -3.9403131 0.7088263 8
-4.9150929 -6.0804753 0.67881298 10
-6.1600895 -7.6206636 0.50411421 11
-5.9812665 -7.3994412 0.32111734 19
-6.9119029 -7.3810544 0.28121987 21
-10.920371 -15.71821 0.41962844 21
-11.952723 -14.786745 0.30466363 16
-12.71298 -13.575886 0.18828289 8
-11.792439 -16.973419 0.087295108 9
-13.266843 -16.412449 -0.034991741 33
-13.801416 -14.7382 -0.15224266 44
-12.708874 -18.292488 -0.29935893 48
-13.34986 -16.515148 -0.4107188 3
-13.783748 -14.719332 -0.50903606 41
-12.681055 -18.252447 -0.69185531 52
-13.28791 -16.438509 -0.78357291 3
-13.808211 -14.745457 -0.867881 48
-12.697181 -18.275658 -1.0864309 29
-16.247417 -20.099726 -1.4155642 17
-13.787422 -14.723256 -1.2231077 58
-6.8590608 -9.8725729 -0.79993653 1
-16.286892 -20.148558 -1.8775665 14
-13.75964 -14.693588 -1.5772194 44
-6.8431473 -9.8496675 -1.0102865 0
-16.168467 -20.002054 -2.3189497 16
-13.722262 -14.653673 -1.9281119 43
-6.7434216 -9.7061281 -1.2048807 55
-7.850214 -9.7115211 -1.3468826 35
-7.8591566 -9.7225838 -1.5700349 3
-7.8034749 -9.6536999 -1.7786014 1
-7.8448148 -9.7048416 -2.0110977 7
-7.4902329 -9.2661877 -2.1309576 5
-6.7184544 -8.3114185 -2.1019857 3
-6.0877242 -7.5311403 -2.0762312 3
-5.5651207 -6.8846259 -2.0550177 5
-5.1353769 -6.3529892 -2.0405469 4
-3.590477 -4.4417892 -1.9648367 5
-2.5754068 -3.1860428 -1.9096626 8
-3.1731818 -3.869976 1.3210517 20
-2.2560818 -2.7514913 0.68757981 6
-3.1849146 -3.8842854 0.70273006 10
-4.9852152 -6.0799112 0.68261874 10
-6.1523509 -7.5033364 0.49918199 12
-6.068264 -7.400785 0.32300627 20
-7.0155778 -7.3877096 0.28333265 24
-11.066713 -15.693879 0.4210313 19
-11.994798 -14.628717 0.30312556 18
-12.768888 -13.446196 0.18771602 7
-11.922174 -16.907022 0.087379582 7
-13.327836 -16.254477 -0.034852464 32
-13.851641 -14.586382 -0.15166964 44
-13.578465 -19.255835 -0.31666788 13
-16.48237 -20.101709 -0.50276315 16
-13.836608 -14.570553 -0.50721914 40
-12.775918 -18.117729 -0.69011289 18
-13.351653 -16.283524 -0.78060931 9
-13.858532 -14.593638 -0.8646189 46
-12.789925 -18.137592 -1.0835052 3
-16.56461 -20.202007 -1.4308771 14
-13.826638 -14.560054 -1.2175393 61
-13.558926 -19.228125 -1.5656129 17
-16.589048 -20.231812 -1.8960704 16
-13.801473 -14.533553 -1.5703456 45
-6.9255271 -9.8211985 -1.012301 0
-16.489578 -20.1105 -2.3448114 16
-13.785844 -14.517095 -1.9227582 44
-6.8545914 -9.7206039 -1.2125888 52
-7.9909458 -9.7456656 -1.359322 26
-8.030014 -9.793313 -1.5904702 2
-7.956038 -9.7030926 -1.7978909 4
-7.9273973 -9.6681623 -2.0149164 3
-7.5447516 -9.2014923 -2.1281407 4
-6.7862678 -8.276454 -2.1050735 4
-6.1376719 -7.4854341 -2.0753927 3
-5.6105766 -6.8425946 -2.0541131 5
-5.1796026 -6.3169837 -2.0405469 4
-3.621398 -4.4166155 -1.9648367 6
-2.6044822 -3.1763964 -1.9147326 8
-3.2185552 -3.8726408 1.329219 20
-2.2692604 -2.7304273 0.68606198 7
-3.1852863 -3.8326111 0.69718802 13
-5.0407119 -6.0651031 0.68469465 10
-6.1560206 -7.4070683 0.49548283 10
-6.1555433 -7.4064937 0.32503012 21
-7.1143255 -7.3928795 0.2853342 16
-11.221733 -15.6917 0.42296022 26
-12.037871 -14.484249 0.30177978 16
-12.796766 -13.297811 0.18682522 8
-12.1085 -16.931694 0.087920211 5
-13.373987 -16.091894 -0.03469329 33
-13.903697 -14.448082 -0.15118709 42
-13.829185 -19.33778 -0.3195169 16
-16.778925 -20.188795 -0.50771338 18
-13.877482 -14.420841 -0.50520039 43
-12.826027 -17.935034 -0.68637919 18
-13.33672 -16.047054 -0.77349669 1
-13.905134 -14.449575 -0.86152852 51
-12.83092 -17.941875 -1.0768734 0
-13.346333 -16.05862 -1.1436516 11
-13.873063 -14.416249 -1.2131814 55
-13.804558 -19.303345 -1.5791576 20
-13.316072 -16.022211 -1.5098017 38
-13.85608 -14.398602 -1.5656589 45
-7.034564 -9.8366508 -1.0186803 0
-16.788107 -20.199844 -2.3681591 16
-13.821079 -14.362229 -1.9143451 39
-6.9536324 -9.7234812 -1.2186739 54
-8.1291227 -9.7811508 -1.3717613 8
-8.0668859 -9.7062654 -1.5849875 31
-8.0860186 -9.7292871 -1.8126416 14
-8.6375189 -10.392864 -2.1778407 1
-7.6307802 -9.1815338 -2.1351829 3
-6.8535533 -8.246356 -2.108933 3
-6.1946826 -7.4535871 -2.0779083 3
-5.6633067 -6.8142233 -2.0568266 5
-5.2337871 -6.2974153 -2.0453937 4
-3.6578636 -4.401227 -1.9687403 6
-2.6208572 -3.1534767 -1.9113526 8
-3.2629616 -3.8707757 1.3363653 20
-2.2832046 -2.7085125 0.68454415 7
-3.1864328 -3.7799916 0.69164598 12
-5.1188898 -6.0724206 0.68953836 11
-6.1457887 -7.2906065 0.49055061 9
-6.2431726 -7.4061308 0.32691902 20
-7.2104454 -7.3888183 0.28711337 25
-11.359191 -15.651814 0.42401236 33
-12.07941 -14.329523 0.30030578 18
-12.844596 -13.162347 0.18617736 8
-12.329782 -16.989191 0.088663578 5
-13.418973 -15.918617 -0.03452085 32
-13.942766 -14.287683 -0.1505236 44
-14.100102 -19.428513 -0.32263464 17
-13.444837 -15.949299 -0.40344808 50
-13.919173 -14.263507 -0.50308061 44
-12.882821 -17.751223 -0.68276995 11
-13.427815 -15.929107 -0.77231127 51
-13.944269 -14.289224 -0.85775143 54
-12.930047 -17.816296 -1.0747279 0
-13.401484 -15.897869 -1.138839 47
-13.920388 -14.264752 -1.2085814 59
-14.06557 -19.380932 -1.5934992 16
-13.365891 -15.855648 -1.5028627 51
-13.894991 -14.238727 -1.5587852 43
-7.0421934 -9.7034292 -1.0099506 13
-13.395591 -15.89088 -1.8739096 46
-13.868174 -14.211246 -1.9070793 45
-7.0540662 -9.7197886 -1.2243536 60
-13.374935 -15.866375 -2.2382271 37
-8.2137499 -9.7437811 -1.6004387 27
-8.2022343 -9.7301197 -1.823421 7
-8.7098637 -10.33231 -2.1778407 1
-7.6921563 -9.1250267 -2.1344788 2
-6.9185462 -8.2073107 -2.111249 3
-6.2566504 -7.4221191 -2.0812626 3
-5.70823 -6.7715411 -2.055922 4
-5.2751226 -6.2577558 -2.0444243 4
-3.6909385 -4.3784747 -1.9700416 5
-2.6404722 -3.1323309 -1.9096626 7
-3.3150382 -3.8772974 1.3465743 21
-2.2995057 -2.6895216 0.6837852 4
-3.1870015 -3.7275445 0.68610394 13
-5.1948242 -6.075911 0.69403607 10
-6.1679816 -7.2141247 0.48829001 7
-6.3310957 -7.4049044 0.32880795 20
-7.3181028 -7.3951416 0.28933734 22
-11.520355 -15.642974 0.42594129 30
-12.124575 -14.181007 0.29896 20
-12.891157 -13.026865 0.1855295 8
-12.564315 -17.06052 0.089491427 7
-13.469994 -15.754622 -0.03436831 34
-13.983089 -14.130291 -0.14989026 42
-12.93329 -17.561533 -0.29312342 11
-13.490884 -15.779055 -0.40151435 50
-13.970596 -14.117666 -0.50136465 41
-12.906857 -17.525642 -0.67754281 58
-13.481547 -15.768134 -0.76905131 53
-13.990277 -14.137555 -0.85448933 51
-12.888271 -17.500404 -1.0610744 19
-13.460236 -15.743208 -1.1344639 49
-13.971892 -14.118977 -1.2044656 55
-12.913016 -17.534006 -1.4490218 15
-13.429593 -15.707368 -1.4976585 42
-13.935153 -14.081851 -1.5522239 45
-7.2373991 -9.8273401 -1.0280814 11
-13.449248 -15.730357 -1.8660073 50
-13.899831 -14.046157 -1.8979015 48
-7.1783848 -9.7472067 -1.23409 30
-13.42335 -15.700068 -2.2279325 59
-13.421772 -15.69822 -2.5937972 2
-10.320728 -12.071213 -2.2755885 1
-8.7843513 -10.274253 -2.178477 1
-7.7684669 -9.0860662 -2.1379998 2
-6.9629226 -8.1438942 -2.1073892 3
-6.3057723 -7.3752861 -2.0804241 3
-5.7629614 -6.7404094 -2.0586357 4
-5.3161592 -6.2178259 -2.0434549 5
-3.7189584 -4.3497257 -1.9687403 6
-2.6693435 -3.1220872 -1.9147326 7
-3.3597615 -3.8745141 1.3537207 21
-2.3182251 -2.673403 0.6837852 6
-3.1895883 -3.6782687 0.6811161 11
-5.2710528 -6.0786366 0.69853383 11
-6.1815538 -7.1286368 0.48541287 6
-6.4140639 -7.39677 0.33042705 19
-7.4148684 -7.3890295 0.29111651 21
-11.698704 -15.655063 0.42848396 31
-12.170873 -14.035585 0.29767829 20
-12.939289 -12.894199 0.18492214 8
-12.807623 -17.139004 0.090369947 13
-13.527238 -15.599761 -0.034235664 35
-14.044563 -13.995623 -0.14949819 43
-13.005299 -17.403532 -0.29199457 11
-13.545689 -15.621037 -0.39989007 49
-14.020662 -13.971805 -0.49964869 42
-12.990603 -17.383865 -0.67555147 255
-13.528446 -15.601154 -0.765495 53
-14.037682 -13.988765 -0.85139894 44
-12.986218 -17.377998 -1.0591239 20
-13.504396 -15.57342 -1.1289951 47
-14.013557 -13.964725 -1.1996236 60
-12.934769 -17.309149 -1.4378674 17
-13.481419 -15.546922 -1.4912978 40
-13.987927 -13.939184 -1.5472248 44
-12.958187 -17.340487 -1.8234847 7
-13.503926 -15.572878 -1.8584642 54
-13.966528 -13.917859 -1.893695 46
-7.2891355 -9.7542315 -1.2413923 30
-13.483123 -15.548887 -2.2197826 64
-12.537788 -14.458716 -2.4033992 3
-10.399558 -11.992886 -2.2744539 2
-8.8713846 -10.230579 -2.1822956 1
-7.8162303 -9.0137634 -2.1337745 2
-7.0324626 -8.1099138 -2.111249 3
-6.3519816 -7.3251753 -2.0787468 2
-5.786902 -6.6735196 -2.0504951 4
-5.369606 -6.1922894 -2.0473325 4
-3.7492332 -4.3236575 -1.9687403 5
-2.6981995 -3.1115935 -1.9198024 7
-3.3969452 -3.862581 1.3578043 20
-2.3368325 -2.6571536 0.6837852 5
-3.1994932 -3.6380632 0.67779088 10
-5.3607321 -6.0955534 0.70476151 13
-6.233809 -7.0883074 0.48561838 6
-6.5077887 -7.3998427 0.33258581 18
-7.5147533 -7.3847299 0.29300687 22
-11.894693 -15.687728 0.43164039 31
-12.218379 -13.893211 0.29646066 20
-13.023283 -12.797949 0.18484116 5
-13.035715 -17.192602 0.091130212 31
-13.577702 -15.438863 -0.034089755 32
-14.084867 -13.841165 -0.14889501 41
-14.921947 -19.680326 -0.33193418 15
-13.59895 -15.463025 -0.39826575 50
-14.066522 -13.823137 -0.49783179 40
-13.044013 -17.203548 -0.67206669 12
-13.584239 -15.446297 -0.7625314 53
-14.075137 -13.831603 -0.84779352 46
-13.143431 -17.334667 -1.0620496 3
-13.557399 -15.415777 -1.1244012 47
-14.067987 -13.824576 -1.195992 59
-14.900011 -19.651394 -1.6410385 16
-13.536934 -15.392508 -1.4855154 42
-14.042233 -13.799269 -1.542538 42
-14.930835 -19.692047 -2.0816803 16
-13.543913 -15.400442 -1.8491253 70
-13.998032 -13.755832 -1.8848996 44
-7.3931189 -9.7506704 -1.2474775 39
-13.533567 -15.38868 -2.2103457 58
-12.68298 -14.421497 -2.4118726 2
-10.517025 -11.958644 -2.2818294 1
-8.9556313 -10.183224 -2.1854777 1
-7.8945694 -8.976717 -2.1379998 2
-7.0966845 -8.0694618 -2.1135647 3
-6.4158802 -7.2953362 -2.0829396 2
-5.8101926 -6.6066236 -2.0423546 4
-5.4024544 -6.1429949 -2.0434549 4
-3.7843227 -4.3030581 -1.9713428 5
-2.7150681 -3.0872357 -1.9164225 7
-3.4521456 -3.8705208 1.3690343 21
-2.3422556 -2.6261201 0.67999065 4
-3.1958089 -3.583118 0.67169464 7
-5.4137664 -6.0698757 0.70614541 15
-6.1767845 -6.9253664 0.47739801 13
-6.6045275 -7.4049487 0.33487952 19
-7.6206818 -7.3849559 0.29511964 22
-12.030743 -15.639174 0.43260482 30
-12.261832 -13.747878 0.29517895 23
-10.751235 -10.418673 0.15155761 0
-13.092008 -17.018749 0.090690948 27
-13.61593 -15.266083 -0.033917315 32
-14.12945 -13.692391 -0.14835215 47
-15.224806 -19.791248 -0.3355895 17
-13.658656 -15.313987 -0.39687347 49
-14.10525 -13.668941 -0.49581301 39
-13.107726 -17.039183 -0.66920418 20
-13.630548 -15.282472 -0.75912327 55
-14.13118 -13.694068 -0.8453899 47
-13.108219 -17.039824 -1.0495664 0
-13.603546 -15.252198 -1.1193699 46
-14.10968 -13.673234 -1.1913921 57
-15.180414 -19.733541 -1.6567079 21
-13.580332 -15.226171 -1.4785764 45
-14.080954 -13.645395 -1.5362892 43
-15.221053 -19.786369 -2.1028328 16
-13.598063 -15.24605 -1.8419414 69
-14.050835 -13.616208 -1.8791634 47
-7.5240941 -9.7808285 -1.2580253 29
-13.579787 -15.22556 -2.20048 52
-12.79392 -14.344451 -2.4138663 2
-10.605527 -11.890841 -2.282964 1
-9.0317621 -10.126348 -2.1867507 2
-7.9727721 -8.9390144 -2.142225 2
-7.1371722 -8.0021467 -2.108933 4
-6.4744654 -7.2591243 -2.0854552 2
-5.8043027 -6.5077429 -2.0242648 4
-5.4658747 -6.1282992 -2.0512099 5
-3.8142715 -4.2765336 -1.9713428 5
-2.7437947 -3.0763228 -1.9214923 7
-3.5024323 -3.8721402 1.3782225 21
-2.3605323 -2.6097043 0.67999065 6
-3.1941721 -3.5313408 0.6661526 6
-5.4372978 -6.0112453 0.70372355 25
-6.2517791 -6.9117012 0.47945312 12
-6.6962886 -7.4031315 0.33690336 16
-7.7298679 -7.3868227 0.29734358 18
-12.210984 -15.646228 0.43514749 28
-9.9723988 -11.02506 0.23820671 3
-10.901786 -10.417974 0.15265086 0
-13.168666 -16.873329 0.090403736 48
-13.66851 -15.111323 -0.033784673 32
-14.158186 -13.529857 -0.1476585 98
-15.50779 -19.870504 -0.338761 14
-13.687435 -15.132246 -0.39463037 49
-14.151189 -13.52317 -0.49409705 45
-13.179626 -16.887373 -0.66683948 17
-13.675236 -15.118758 -0.75571513 55
-14.177321 -13.548143 -0.84247124 45
-15.426831 -19.766771 -1.2241365 16
-13.658791 -15.100577 -1.1152135 48
-14.152837 -13.524745 -1.1870342 55
-15.470057 -19.822157 -1.673174 18
-13.632776 -15.071817 -1.4727939 41
-14.123978 -13.497168 -1.5306652 44
-15.515765 -19.880724 -2.124321 15
-13.642705 -15.082794 -1.8336799 65
-14.099493 -13.473769 -1.8730448 27
-7.6362634 -9.7845287 -1.2653277 26
-13.637732 -15.077295 -2.192759 60
-12.885764 -14.245953 -2.4123709 2
-10.685626 -11.813574 -2.2823966 1
-9.0916424 -10.051332 -2.1842048 1
-8.0217772 -8.868536 -2.1387041 2
-7.2086611 -7.9695892 -2.1135647 3
-6.5223618 -7.2108459 -2.0846167 2
-5.8182292 -6.4323869 -2.0134108 5
-5.4903021 -6.0698442 -2.0444243 4
-3.8440344 -4.2498012 -1.9713428 6
-2.7579083 -3.0490263 -1.9164225 7
-3.5267646 -3.8447454 1.3772016 20
-2.3813481 -2.5960555 0.68074954 4
-3.2160692 -3.506037 0.66559839 3
-5.4845176 -5.9790139 0.7044155 22
-6.3511844 -6.923821 0.48335779 10
-6.7856402 -7.3974485 0.33879229 15
-7.8452682 -7.3930063 0.29978997 17
-12.399352 -15.660927 0.4379532 25
-10.022087 -10.925701 0.23756586 8
-11.079045 -10.440363 0.15410854 2
-13.219105 -16.69631 0.089947581 47
-13.725 -14.962476 -0.033665292 46
-14.307606 -13.482804 -0.14823152 38
-13.210581 -16.685545 -0.28602782 10
-13.741376 -14.980328 -0.39316076 48
-14.3733 -13.544711 -0.49853837 22
-13.155743 -16.61628 -0.65974545 104
-13.734512 -14.972846 -0.75319612 57
-14.245383 -13.42417 -0.84092605 38
-13.210938 -16.685995 -1.0390337 2
-13.707179 -14.943048 -1.1106197 45
-14.281781 -13.458468 -1.1899395 29
-13.177666 -16.64397 -1.412637 6
-13.675634 -14.908659 -1.4661441 41
-14.331047 -13.504894 -1.5428505 23
-13.137933 -16.593786 -1.7828584 7
-13.6965 -14.931406 -1.8268553 60
-6.3779631 -6.0102878 -0.8416847 0
-7.7612004 -9.8027372 -1.2746583 17
-13.675447 -14.908454 -2.1820354 56
-12.982219 -14.152724 -2.4118726 2
-10.786573 -11.759114 -2.2863681 1
-9.1455727 -9.9701576 -2.1803863 1
-8.1074486 -8.8384342 -2.1450419 2
-7.2826934 -7.9393167 -2.1189682 3
-6.564611 -7.1564908 -2.0821011 2
-5.8234844 -6.3485422 -1.9998434 4
-5.5351653 -6.0342278 -2.0453937 4
-3.8736091 -4.2228618 -1.9713428 5
-2.7815773 -3.0323703 -1.9181124 7
-3.5772276 -3.8455157 1.3863896 21
-2.3887143 -2.5678651 0.67771387 5
-3.920399 -4.2144246 0.80525768 10
-5.5749812 -5.9930987 0.71064311 20
-6.4102502 -6.8910117 0.48417982 7
-6.9024673 -7.420145 0.34203044 15
-7.9552712 -7.3924928 0.3020139 13
-11.171151 -13.909015 0.39113298 2
-10.043637 -10.796899 0.23628414 5
-11.292304 -10.493454 0.1560521 5
-13.277735 -16.531887 0.089559004 58
-13.780083 -14.813574 -0.033545911 35
-14.503939 -13.477888 -0.14928707 44
-16.121832 -20.073025 -0.34601787 14
-13.793869 -14.828394 -0.39169115 51
-14.490945 -13.465814 -0.4993459 35
-13.233871 -16.477274 -0.65787864 5
-13.778811 -14.812207 -0.74993616 56
-14.514405 -13.487615 -0.85122728 45
-13.259557 -16.509254 -1.0337673 28
-13.756759 -14.788501 -1.1062446 51
-14.489458 -13.464432 -1.1993815 42
-13.246056 -16.492443 -1.4075909 1
-13.735906 -14.766084 -1.4615182 43
-14.477563 -13.453379 -1.5484746 42
-16.123793 -20.075468 -2.1689765 13
-13.740711 -14.77125 -1.818953 58
-6.3264318 -5.8788819 -0.82944757 0
-7.9042029 -9.8413916 -1.2868289 10
-13.730436 -14.760204 -2.1743145 56
-13.08341 -14.064651 -2.4123709 3
-10.865707 -11.680623 -2.2858007 1
-9.2337828 -9.9263058 -2.1848414 1
-8.1716366 -8.7845011 -2.1457462 2
-7.3432889 -7.8940277 -2.120512 2
-6.6303964 -7.1276689 -2.0871325 2
-5.825202 -6.2620859 -1.9853714 5
-5.5850868 -6.0039625 -2.0483019 4
-3.9081478 -4.2012548 -1.9739453 6
-2.790333 -2.9996049 -1.9096626 8
-3.6185946 -3.833252 1.3914942 21
-2.4128652 -2.5559978 0.6792317 6
-3.9457479 -4.179812 0.80414927 19
-5.5914073 -5.9230933 0.70718336 19
-6.4057469 -6.7857399 0.48006964 3
-6.9896049 -7.4042325 0.34364951 14
-8.091815 -7.4095893 0.30512744 16
-11.341038 -13.91044 0.3935003 3
-10.08133 -10.679361 0.23532285 6
-11.481014 -10.513043 0.15759075 9
-13.335374 -16.356609 0.08913663 71
-13.825148 -14.645265 -0.033393368 36
-14.555144 -13.327991 -0.14880453 36
-16.43029 -20.152704 -0.34945816 14
-13.844544 -14.665811 -0.39006683 51
-14.542075 -13.316024 -0.49773085 37
-13.301247 -16.314749 -0.65526503 19
-13.832141 -14.652672 -0.74697256 51
-14.55688 -13.329581 -0.84796524 61
-13.329727 -16.349684 -1.0298663 0
-13.807219 -14.626271 -1.1016507 49
-14.543595 -13.317416 -1.1957499 47
-16.403082 -20.119331 -1.7273531 18
-13.772573 -14.58957 -1.4540009 46
-16.43927 -20.163719 -2.1914721 19
-13.807599 -14.626675 -1.8135651 67
-6.3781638 -5.8404174 -0.83059484 0
-8.0892859 -9.921977 -1.3050846 3
-13.789125 -14.607104 -2.1665936 57
-13.205229 -13.98857 -2.4158599 3
-10.964628 -11.615057 -2.2886374 1
-9.3117189 -9.8640957 -2.1861143 1
-8.2466221 -8.735817 -2.1485629 2
-7.3955688 -7.8342786 -2.1189682 2
-6.6932049 -7.09025 -2.0904865 2
-5.8147802 -6.1597166 -1.9663769 4
-5.6316118 -5.9656825 -2.0492713 5
-3.9388394 -4.1724939 -1.9739453 5
-2.8097575 -2.976434 -1.9079727 7
-3.6720126 -3.8358338 1.4017032 2
-2.4225035 -2.5305798 0.67695493 4
-3.9940083 -4.172195 0.8080287 22
-5.618844 -5.8695207 0.70545346 20
-6.4087667 -6.694684 0.47678149 2
-7.0991802 -7.4158998 0.3464829 12
-8.1908293 -7.3957911 0.30690664 17
-9.7456369 -11.78464 0.33528191 0
-10.114156 -10.565384 0.23436157 5
-11.681783 -10.547897 0.15933186 12
-13.390605 -16.192217 0.088748053 50
-13.882798 -14.502158 -0.033287253 35
-14.603304 -13.185843 -0.14835215 34
-16.743904 -20.247101 -0.35311347 16
-13.89405 -14.513912 -0.38859722 49
-14.584229 -13.16862 -0.49601489 38
-13.307804 -16.092093 -0.65003783 22
-13.876053 -14.495112 -0.74386078 52
-14.593227 -13.176744 -0.84470314 55
-13.374796 -16.173101 -1.0245999 0
-13.864803 -14.483361 -1.0981506 46
-14.585836 -13.170071 -1.1916342 49
-16.703379 -20.198097 -1.7440848 20
-13.838227 -14.4556 -1.4502423 44
-6.5558867 -5.9195433 -0.6920644 0
-16.752365 -20.257332 -2.2143035 14
-13.846015 -14.463734 -1.8053037 60
-6.377409 -5.7583895 -0.82524109 0
-13.273492 -16.050602 -2.1233487 9
-13.838515 -14.4559 -2.1584437 58
-13.299822 -13.893173 -2.4153614 3
-11.053664 -11.546807 -2.2903395 1
-9.3803577 -9.7988482 -2.1861143 1
-8.3128557 -8.6837206 -2.1499715 2
-7.4527974 -7.7852926 -2.1197402 2
-6.7371325 -7.0376997 -2.0888095 3
-5.8441696 -6.1048985 -1.9618545 4
-5.6704397 -5.923418 -2.0483019 4
-3.970489 -4.1476264 -1.9752464 5
-2.8480182 -2.9750781 -1.9198024 7
-3.6771507 -3.7879043 1.393536 16
-2.4401109 -2.5136056 0.67695493 6
-4.0147605 -4.1356826 0.80636609 22
-5.6513567 -5.8215723 0.7044155 17
-6.421958 -6.6153836 0.47431538 1
-7.1981177 -7.4149208 0.34877661 12
-8.3049746 -7.3942637 0.30924177 15
-9.8328114 -11.722445 0.33545727 3
-10.15424 -10.460079 0.23359254 7
-12.000098 -10.684185 0.16265212 14
-13.436486 -16.01866 0.088308789 60
-13.930767 -14.350353 -0.033161238 29
-14.653179 -13.046334 -0.14792992 37
-13.40712 -15.983649 -0.28038359 38
-13.939322 -14.359167 -0.38705024 48
-14.631011 -13.026596 -0.49450082 36
-13.378714 -15.949784 -0.64804649 40
-13.93236 -14.351995 -0.74148995 52
-14.646061 -13.039996 -0.84247124 48
-13.394948 -15.969138 -1.0175781 21
-13.904373 -14.323164 -1.093338 46
-14.635676 -13.03075 -1.1882447 48
-13.371049 -15.940647 -1.3844851 52
-13.874895 -14.292799 -1.4435924 42
-6.5493994 -5.831202 -0.6870653 1
-13.348204 -15.91341 -1.7496186 43
-13.893929 -14.312406 -1.7984791 69
-6.4888258 -5.7772708 -0.83441895 2
-13.334078 -15.89657 -2.1152351 45
-13.880927 -14.299012 -2.1494358 53
-13.437956 -13.842699 -2.422838 3
-11.150554 -11.486402 -2.2937434 1
-9.4732933 -9.7586231 -2.1918421 2
-8.3732758 -8.625474 -2.1499715 2
-7.5151677 -7.7415204 -2.122056 2
-6.7915487 -6.9961061 -2.0904865 3
-5.8377953 -6.0136261 -1.9455734 3
-5.7278728 -5.900393 -2.0541182 4
-4.0098863 -4.1306615 -1.9804513 5
-2.8661928 -2.9525208 -1.9181124 7
-3.7035046 -3.7621415 1.393536 16
-2.4631095 -2.5021074 0.67847282 5
-4.0490923 -4.1132007 0.80747449 19
-5.6974506 -5.7876573 0.70510745 21
-8.1382265 -8.2670774 0.5967989 20
-7.294579 -7.4100728 0.35093537 14
-8.4315147 -7.4020519 0.31202173 16
-6.3539295 -7.4684815 0.21498725 0
-10.182122 -10.343334 0.23256716 5
-12.09243 -10.615981 0.16289507 18
-13.496153 -15.863534 0.087970898 58
-13.963261 -14.184339 -0.033002067 38
-14.701821 -12.906774 -0.1475077 37
-13.458771 -15.819594 -0.27914724 38
-13.988726 -14.210206 -0.385658 47
-14.685536 -12.892477 -0.49328953 36
-13.440516 -15.798138 -0.64568186 38
-13.976129 -14.197411 -0.73852634 56
-14.68869 -12.895246 -0.83972418 58
-13.446564 -15.805245 -1.0130919 44
-13.956392 -14.177361 -1.0896192 46
-14.684285 -12.891378 -1.1848552 50
-13.435457 -15.792192 -1.3797047 47
-13.935153 -14.155786 -1.4395448 44
-6.5390043 -5.7406116 -0.6817537 0
-13.407319 -15.759117 -1.7429036 48
-13.940405 -14.161121 -1.7916543 74
-6.4182892 -5.6346354 -0.82026976 0
-13.390582 -15.739444 -2.1067157 47
-13.919031 -14.139408 -2.1399992 57
-13.592734 -13.807945 -2.4333048 3
-11.238803 -11.416744 -2.2954454 1
-9.5494986 -9.7006941 -2.1937513 2
-8.4388123 -8.572422 -2.1513798 2
-7.5662756 -7.6860709 -2.121284 2
-6.8402238 -6.9485235 -2.0904865 3
-5.9288363 -6.0227065 -1.9618545 2
-5.7743692 -5.8657937 -2.056057 4
-4.0253572 -4.0890899 -1.9739453 5
-2.8918219 -2.9376073 -1.9214923 8
-3.7296793 -3.7361946 1.393536 8
-2.469419 -2.4737329 0.67543709 5
-4.0665145 -4.0736184 0.80525768 20
-5.6983027 -5.7082572 0.70026374 8
-8.2662992 -8.2807398 0.60193664 24
-7.399796 -7.4127226 0.35349891 13
-8.5404234 -7.3927317 0.31413451 13
-6.4607778 -7.4875236 0.21682848 0
-10.225828 -10.243692 0.23192631 5
-12.105762 -10.478949 0.16208525 30
-13.541245 -15.693216 0.087548532 60
-14.011079 -14.035555 -0.032882687 37
-14.752251 -12.769793 -0.14711563 36
-13.506174 -15.652574 -0.27785712 35
-14.036733 -14.061254 -0.38426572 48
-14.72076 -12.742535 -0.49147263 35
-13.479959 -15.622191 -0.64232153 40
-14.018426 -14.042914 -0.73556274 52
-14.739074 -12.758387 -0.83749229 48
-13.501766 -15.647464 -1.0089959 45
-13.995774 -14.020224 -1.0850253 49
-14.722604 -12.74413 -1.1807395 48
-13.482803 -15.625488 -1.3733307 57
-13.971632 -13.996038 -1.433184 46
-6.4432411 -5.5773764 -0.66769373 4
-13.46233 -15.601761 -1.7358527 47
-13.985454 -14.009885 -1.7848297 63
-6.2979131 -5.4515781 -0.80000204 0
-13.442944 -15.579294 -2.0977907 44
-13.97807 -14.002488 -2.1339939 56
-13.660763 -13.684627 -2.4283206 4
-6.193418 -6.204237 -1.2560841 0
-6.1881299 -6.1989403 -1.411587 129
-6.150599 -6.1613436 -1.5570216 2
-6.1834221 -6.1942239 -1.7214205 0
-6.9134355 -6.9255128 -2.0980334 4
-6.2928119 -6.3038049 -2.0676806 2
-5.804213 -5.8143525 -2.0521793 5
-4.0591512 -4.0662422 -1.9765476 6
-2.9122598 -2.9173472 -1.9214923 8
-3.769429 -3.7236555 1.3986405 0
-2.4028099 -2.3736317 0.65266955 9
-4.100491 -4.0506968 0.80636609 22
-5.7181702 -5.6487322 0.69784188 1
-8.375062 -8.2733603 0.60563576 24
-7.5139351 -7.4226904 0.35646722 11
-8.6709032 -7.4004154 0.31702566 12
-6.5234256 -7.4542751 0.21717919 1
-7.5713096 -7.4793677 0.17053217 0
-12.123865 -10.347438 0.1613564 30
-13.571444 -15.507998 0.087041683 70
-14.063194 -13.89242 -0.032776568 40
-14.795407 -12.627538 -0.14666325 39
-13.562438 -15.497707 -0.27678204 33
-14.091881 -13.920757 -0.38310549 49
-14.772866 -12.608299 -0.49026138 34
-13.538665 -15.470542 -0.63995683 39
-14.064936 -13.894139 -0.73289549 57
-14.773074 -12.608477 -0.83440191 68
-13.560681 -15.495701 -1.0052899 50
-14.042168 -13.871648 -1.0810877 46
-14.762629 -12.599562 -1.1768658 15
-13.536361 -15.46791 -1.3677534 57
-14.02359 -13.853296 -1.4285581 43
-6.4365249 -5.4934249 -0.66300708 10
-13.513169 -15.441409 -1.728466 44
-14.040408 -13.869909 -1.7794418 87
-6.3176484 -5.3919668 -0.79770756 0
-13.498963 -15.425176 -2.0896771 43
-14.010412 -13.840278 -2.1241281 57
-13.820907 -13.653074 -2.4397843 3
-6.1267223 -6.0523233 -1.2339579 4
-6.1638308 -6.0889807 -1.3963128 255
-6.0870175 -6.0131006 -1.5302614 3
-6.0645695 -5.9909253 -1.6766481 0
-6.471911 -6.3933196 -1.9504499 1
-6.3477554 -6.2706718 -2.0712986 2
-5.8529463 -5.7818713 -2.0550876 4
-4.0766768 -4.0271721 -1.9713428 5
-2.9325559 -2.8969445 -1.9214923 7
-2.1996312 -2.1427853 0.81059897 4
-2.3883774 -2.3266537 0.6443215 14
-4.1456957 -4.0385571 0.80969131 22
-8.5291567 -8.3087349 1.0337886 25
-8.5041533 -8.2843771 0.6107735 20
-7.6171169 -7.4202647 0.35889584 12
-8.8080196 -7.4117846 0.3201392 12
-6.6177802 -7.4564071 0.21858205 2
-7.6892314 -7.4905162 0.17200615 1
-12.13766 -10.213614 0.16058709 32
-13.642207 -15.370992 0.086805157 57
-14.09394 -13.729706 -0.032624029 75
-14.837296 -12.485309 -0.14621086 37
-13.609237 -15.333843 -0.27554569 37
-14.119969 -13.755062 -0.38124913 48
-14.820755 -12.471389 -0.48894915 18
-13.595915 -15.318833 -0.63759214 41
-14.112917 -13.748192 -0.73037648 52
-14.824045 -12.474158 -0.83234167 68
-13.607534 -15.331926 -1.0008038 53
-14.090032 -13.725898 -1.0773689 46
-7.0447702 -5.9280429 -0.55829102 0
-13.577783 -15.298405 -1.3611138 56
-14.065667 -13.702163 -1.4230647 45
-6.4350529 -5.4149771 -0.65894526 7
-13.557142 -15.275147 -1.720408 42
-14.07697 -13.713174 -1.7718987 89
-5.2827468 -4.445333 -0.66309917 3
-13.542926 -15.25913 -2.0799406 43
-14.058267 -13.694954 -2.1168361 45
-6.2060022 -6.0456185 -1.0880591 4
-6.0894117 -5.9320407 -1.2180725 5
-6.1496148 -5.9906883 -1.3835844 1
-6.0442348 -5.8880315 -1.5091349 3
-6.0134721 -5.8580637 -1.6511742 2
-6.3707066 -6.2060657 -1.9068457 2
-6.3913784 -6.2262034 -2.0712986 3
-5.884829 -5.7327452 -2.0521793 4
-4.1128206 -4.0065312 -1.9752464 5
-2.9449179 -2.8688114 -1.9164225 7
-2.231271 -2.1434531 0.81672442 4
-2.432884 -2.3371313 0.65191066 14
-4.1795015 -4.0150061 0.81079972 22
-8.6846628 -8.3428535 1.0455519 25
-8.6453228 -8.3050623 0.61673331 20
-7.74369 -7.4389157 0.36240384 10
-5.3268061 -4.4192615 0.19248383 2
-6.7151556 -7.4605536 0.22007258 4
-7.7932525 -7.4865274 0.17315967 2
-5.3224359 -4.4156356 0.070008844 28
-13.695664 -15.215915 0.086467266 60
-14.154829 -13.597726 -0.032544442 51
-5.3164001 -4.4106283 -0.052084602 35
-13.667792 -15.184949 -0.27457809 37
-14.166622 -13.609056 -0.37993422 48
-5.2963934 -4.3940301 -0.17371625 33
-13.638337 -15.152224 -0.63460517 40
-14.153779 -13.596718 -0.72756106 52
-5.2993493 -4.3964825 -0.29581779 29
-13.652766 -15.168255 -0.99631763 48
-14.145185 -13.588462 -1.0743062 46
-5.2975855 -4.3950191 -0.41738668 26
-13.636194 -15.149843 -1.3563334 48
-14.109193 -13.553886 -1.4178605 42
-5.272686 -4.3743615 -0.53677952 68
-13.607454 -15.117913 -1.7133571 45
-14.135011 -13.578689 -1.7672292 50
-5.267684 -4.3702121 -0.65736306 32
-13.582571 -15.090268 -2.0697985 37
-6.2493496 -6.0033889 -0.93466783 3
-6.156467 -5.9141622 -1.0721095 3
-6.0678549 -5.8290377 -1.2055911 5
-6.0973063 -5.8573298 -1.3625824 5
-6.0198822 -5.7829533 -1.4929379 2
-6.006104 -5.7697172 -1.6380513 3
-6.3687477 -6.1180882 -1.893429 2
-6.4374981 -6.1841326 -2.0722032 3
-5.9331021 -5.6995888 -2.0550876 4
-4.1406898 -3.9777219 -1.9752464 5
-2.9648733 -2.8481827 -1.9164225 7
-2.2630272 -2.1437824 0.82284981 5
-2.4605458 -2.3308933 0.65494633 18
-4.2074299 -3.9857297 0.81079972 20
-8.8439503 -8.3779402 1.0576612 25
-8.7929945 -8.329669 0.6231041 21
-7.8650889 -7.4506569 0.36564201 11
-5.3296723 -4.3591819 0.19148305 29
-6.7994285 -7.4489336 0.22112472 7
-7.900496 -7.4841986 0.17437731 3
-5.3190756 -4.3505144 0.069563441 42
-13.753017 -15.066754 0.086163163 52
-14.226183 -13.476569 -0.032491382 20
-5.3099084 -4.3430166 -0.051722694 35
-13.714148 -15.024172 -0.27339551 37
-14.211929 -13.463066 -0.37861931 49
-5.2959871 -4.3316302 -0.17270686 35
-13.689878 -14.997583 -0.63211608 39
-14.199025 -13.450842 -0.72504199 53
-5.3113527 -4.3441982 -0.29478768 44
-13.707151 -15.016507 -0.99261165 47
-14.193314 -13.445431 -1.0708061 35
-5.3065052 -4.3402333 -0.41569197 38
-13.67974 -14.986477 -1.350225 59
-14.238229 -13.48798 -1.42133 22
-5.2814879 -4.3197718 -0.53459239 36
-13.66161 -14.966614 -1.7069777 46
-14.171621 -13.424882 -1.7600454 53
-5.2734089 -4.3131633 -0.65430373 39
-13.641981 -14.945111 -2.062902 40
-6.227592 -5.8994441 -0.9252311 3
-6.1399808 -5.8164492 -1.0621411 3
-6.0480361 -5.7293496 -1.1936769 8
-6.0835791 -5.7630196 -1.3504903 6
-6.0086551 -5.6920433 -1.480262 3
-6.0205941 -5.7033539 -1.6311038 3
-6.4538956 -6.1138229 -1.9060072 2
-6.5059729 -6.1631565 -2.0803435 3
-5.9811997 -5.6660352 -2.0579958 4
-4.1683593 -3.9487174 -1.9752464 5
-2.9873173 -2.8299079 -1.9181124 7
-2.2835908 -2.1332114 0.82489163 6
-2.4968481 -2.3324254 0.66025877 20
-4.2467327 -3.9670763 0.81301653 22
-8.9808502 -8.3894424 1.0670027 28
-8.9355879 -8.3471613 0.62906384 20
-7.978261 -7.4528756 0.36847541 9
-5.3319616 -4.2992797 0.19048226 34
-6.8892984 -7.4423685 0.22235222 9
-8.0080833 -7.4807339 0.17559494 6
-5.3212948 -4.2906785 0.069199026 38
-13.792653 -14.899922 0.085757688 57
-14.48361 -13.529834 -0.03286279 35
-5.3089614 -4.2807341 -0.051421106 36
-13.753494 -14.857619 -0.2721054 39
-14.372789 -13.426311 -0.3803983 27
-5.3011961 -4.2744722 -0.17189935 35
-13.737212 -14.840031 -0.62950248 42
-14.435715 -13.485092 -0.73230278 33
-5.3166637 -4.2869444 -0.29341418 41
-13.751943 -14.855944 -0.98832053 47
-14.482385 -13.528689 -1.0854628 41
-5.3055949 -4.2780194 -0.41327092 38
-13.735229 -14.837888 -1.3454444 56
-14.451576 -13.499909 -1.433184 41
-5.2897873 -4.2652731 -0.53240532 37
-13.714317 -14.815298 -1.7005985 44
-14.372714 -13.42624 -1.7733356 8
-5.2661967 -4.2462516 -0.64971483 39
-13.697328 -14.796944 -2.0555997 40
-6.2192211 -5.8096719 -0.91793907 1
-6.1398339 -5.7355127 -1.0551631 5
-6.053165 -5.6545515 -1.1868689 8
-6.0832624 -5.6826668 -1.3415804 9
-6.036737 -5.639205 -1.4774451 6
-6.0315843 -5.6343913 -1.6233844 3
-6.705061 -6.2635183 -1.9672208 2
-6.5402994 -6.1096067 -2.07763 3
-6.0177751 -5.6214914 -2.0570264 4
-4.2068806 -3.9298487 -1.9804513 5
-3.0122998 -2.8139336 -1.9214923 7
-2.3183398 -2.1355591 0.83203799 5
-2.5332906 -2.3335631 0.66557115 26
-4.2859788 -3.9480672 0.81523335 21
-9.1417856 -8.4210367 1.0791119 26
-9.0964794 -8.379302 0.63625669 22
-8.0947847 -7.4565825 0.37144372 6
-5.3274155 -4.2345824 0.18925908 34
-6.982142 -7.4378281 0.2236674 12
-8.1160049 -7.4761295 0.17681257 7
-5.3198085 -4.2285361 0.068794116 40
-13.849795 -14.753695 0.085470475 54
-14.539466 -13.393158 -0.032776568 28
-5.3136678 -4.2236547 -0.051179834 36
-13.821294 -14.723333 -0.27140659 38
-14.554417 -13.406929 -0.38271877 43
-5.2964754 -4.2099891 -0.17078902 37
-13.780277 -14.679641 -0.62676442 40
-14.535387 -13.3894 -0.73259914 46
-5.3089218 -4.2198825 -0.29135391 41
-13.806099 -14.707147 -0.98480964 47
-14.52654 -13.38125 -1.081744 41
-5.3040767 -4.2160311 -0.4108499 40
-13.775651 -14.674712 -1.339336 61
-14.501455 -13.358144 -1.4288472 30
-5.2850966 -4.2009444 -0.52896839 39
-13.751938 -14.649451 -1.6925403 45
-6.4580259 -5.9488678 -0.79166126 0
-5.2770114 -4.1945176 -0.64742035 36
-13.740373 -14.637132 -2.0466745 43
-6.2128272 -5.723001 -0.91107595 0
-6.1184244 -5.6360407 -1.0446962 7
-6.0371604 -5.5611835 -1.1760895 8
-6.0995507 -5.6186552 -1.3364891 23
-6.0412054 -5.5649099 -1.4689946 6
-6.0188107 -5.544281 -1.6094896 3
-6.6997218 -6.1715078 -1.9529655 1
-6.6057191 -6.0849166 -2.084866 3
-6.0597277 -5.5819716 -2.0579958 3
-4.2342138 -3.9003832 -1.9804513 5
-3.0265379 -2.7879221 -1.9181124 8
-2.3074265 -2.0959191 0.82284981 6
-2.5611482 -2.3263836 0.66860688 48
-4.333962 -3.9366949 0.81911278 19
-9.2947426 -8.4427519 1.0901834 24
-9.2464199 -8.3988581 0.64262748 24
-8.196949 -7.4455857 0.37373739 5
-5.3253746 -4.1726255 0.1881471 35
-7.0724998 -7.4294529 0.2248949 14
-8.2360888 -7.4811382 0.17828654 10
-5.3240123 -4.1715584 0.068470187 37
-13.88351 -14.584218 0.085048109 56
-14.588198 -13.250988 -0.032677084 31
-5.3178368 -4.1667194 -0.050938562 36
-13.860318 -14.559855 -0.27017024 35
-14.58845 -13.251218 -0.38117179 41
-5.2911134 -4.1457806 -0.16967869 37
-13.835563 -14.533851 -0.62464863 39
-14.584122 -13.247286 -0.73037648 44
-5.297359 -4.1506743 -0.28912199 40
-13.85059 -14.549637 -0.98071361 49
-14.560472 -13.225803 -1.0773689 41
-5.2988095 -4.1518106 -0.40818676 40
-13.828231 -14.526149 -1.3345555 59
-14.5412 -13.208299 -1.423643 3
-5.2829061 -4.1393499 -0.52584398 37
