# .PCD v0.7 - Point Cloud Data file format
VERSION 0.7
FIELDS x y z intensity
SIZE 4 4 4 4
TYPE F F F F
COUNT 1 1 1 1
WIDTH 1368
HEIGHT 1
VIEWPOINT 0 0 0 1 0 0 0
POINTS 1368
DATA ascii
-18.336466 1.2018331 -1.3317018 36
-18.338648 2.5512185 -1.4506794 36
-7.6726298 -0.054905381 -0.64632815 30
-18.302328 1.1995957 -1.6537243 45
-10.005164 1.3918889 -0.97017455 0
-7.7317262 -0.055328276 -0.78824353 2
-9.5956383 0.62893015 -1.0371853 0
-18.272953 1.1976703 -2.2997272 70
-15.96633 1.0464865 -2.2926087 1
-7.632925 0.50028735 -1.2327521 11
-7.5399265 0.49419197 -1.3513905 17
-7.4999137 0.4915694 -1.4782602 17
-7.5518103 0.49497086 -1.6225798 2
-7.5350437 0.49387193 -1.7529156 3
-7.5086832 0.49214417 -1.8796296 6
-5.6766067 0.37206376 -1.9570295 4
-1.5700839 0.10290854 -0.73344564 12
-2.0444138 0.14833866 0.54107994 15
-5.3036833 0.38482484 1.0275751 27
-5.6776361 0.41195813 0.79639047 3
-6.3990426 0.46430194 0.557028 5
-9.3470345 0.67820245 0.48212472 1
-12.452156 0.90350401 0.42136532 17
-13.471446 1.9700719 0.37862936 2
-10.541467 -0.0018395963 0.23112005 4
-13.774017 0.99941558 0.22128807 11
-15.217351 2.225394 0.15568767 23
-18.359837 -0.0032039837 0.077546842 41
-18.355719 1.3318549 -0.030514972 32
-18.368099 2.6861613 -0.13996795 34
-18.346344 -0.003201629 -0.246572 46
-18.344336 1.3310289 -0.35572425 40
-18.382553 2.6882751 -0.46896321 37
-18.355108 -0.0032031585 -0.57138115 37
-18.35112 1.3315212 -0.68206996 46
-18.335876 2.6814487 -0.79611558 62
-18.310192 -0.0031953203 -0.89391613 54
-18.356159 1.3318868 -1.0080235 41
-18.358648 2.6847789 -1.1250557 51
-8.4612875 -0.0014765832 -0.56303638 2
-18.339565 1.3306828 -1.3325691 39
-9.9434376 1.454134 -0.78735995 0
-7.6768122 -0.0013396841 -0.6466639 32
-18.329269 1.3299358 -1.656957 43
-9.7824554 1.4305918 -0.9495244 0
-7.7359037 -0.0013499962 -0.7886492 2
-9.5870466 0.69561726 -1.0367564 0
-18.283937 1.3266466 -2.3022194 49
-15.93494 1.1562079 -2.2892046 1
-11.962244 0.86795694 -2.1450419 2
-10.631826 0.77142447 -2.0965822 1
-9.6351328 0.69910628 -2.0712001 2
-7.554729 0.54815632 -1.7583426 0
-7.5166755 0.5453952 -1.8825377 7
-5.6700983 0.41141117 -1.9557282 4
-1.5729431 0.11412966 -0.73513561 12
-2.0471838 0.16291453 0.54210085 15
-5.2930369 0.42121899 1.0260572 36
-5.5837965 0.44435754 0.78364378 18
-6.3956451 0.50896436 0.557028 6
-9.3580008 0.74470806 0.48294675 1
-12.43359 0.98946291 0.42096055 25
-13.465269 2.0652847 0.37885177 3
-13.408466 0.091270998 0.2939854 9
-13.802586 1.0984074 0.22186485 8
-15.225165 2.3352153 0.15593062 21
-18.37141 0.1250536 0.077597529 41
-18.369898 1.4618733 -0.030554766 32
-18.364712 2.8167548 -0.14008859 35
-18.345919 0.12488008 -0.246572 29
-18.342569 1.4596984 -0.35587895 41
-18.394958 2.821394 -0.46977073 38
-18.346687 0.12488531 -0.57113224 35
-18.349344 1.4602377 -0.68236631 45
-18.32856 2.8112097 -0.79663062 64
-18.317757 0.12468838 -0.89430624 42
-18.350395 1.4603212 -1.0082422 41
-18.347351 2.8140919 -1.1255399 46
-8.5010023 0.057866052 -0.56569219 2
-18.349712 1.4602669 -1.3340148 38
-9.6334763 1.4775696 -0.76361418 0
-7.6846056 0.052308865 -0.64733541 37
-18.323507 1.4581816 -1.6573162 41
-9.2448521 1.4179629 -0.8982814 0
-7.7675586 0.052873522 -0.79189467 2
-18.287781 1.4553385 -1.9787163 46
-18.286098 1.4552046 -2.3037145 37
-15.902797 1.2655418 -2.2858007 1
-13.616702 1.0836148 -2.2013884 2
-11.920567 0.94863665 -2.1387041 2
-10.634007 0.84625244 -2.0981259 2
-9.6066236 0.76449347 -2.0661688 2
-8.7547932 0.69670492 -2.0387368 2
-7.4972105 0.59662676 -1.8786602 8
-5.6670876 0.45098588 -1.9557282 4
-1.5648798 0.12453286 -0.73175567 12
-2.061409 0.17853747 0.54618442 13
-5.2977934 0.45883885 1.0275751 36
-5.5884519 0.48401263 0.78475219 19
-6.411787 0.55532122 0.5587579 6
-9.3645124 0.81105512 0.4835633 2
-12.434345 1.0769316 0.42123038 28
-13.458418 2.1605072 0.37907416 4
-11.908006 0.1642008 0.26110604 21
-13.790597 1.1943958 0.22180076 12
-15.232187 2.4452541 0.15617357 21
-15.442393 0.21293686 0.065230578 8
-18.375187 1.5914644 -0.030581295 33
-18.384094 2.951236 -0.14039017 35
-18.352596 0.25306597 -0.24667951 33
-18.33193 1.5877181 -0.35587895 42
-18.390606 2.9522815 -0.47017449 39
-18.341372 0.25291118 -0.57100779 35
-18.338703 1.5883048 -0.68236631 46
-18.332161 2.9428992 -0.79766077 82
-18.312447 0.25251234 -0.89411116 48
-18.34771 1.5890847 -1.0086797 45
-9.6938534 1.556174 -0.59533286 2
-8.6041517 0.11864359 -0.57259732 2
-18.339069 1.5883365 -1.3340148 36
-9.2843122 1.4904296 -0.73674393 0
-7.6880388 0.10601121 -0.64767116 31
-18.312881 1.5860683 -1.6573162 71
-8.9752588 1.4408166 -0.87304235 0
-7.6317143 0.10523455 -0.77810144 0
-18.312836 1.5860643 -1.9825768 51
-18.291309 1.5841999 -2.3057084 37
-15.88174 1.3755084 -2.2840986 1
-13.61274 1.1789917 -2.2020247 1
-11.905808 1.0311553 -2.1372955 3
-10.612199 0.91911656 -2.0950382 2
-9.6010532 0.83154172 -2.0661688 3
-8.7458344 0.75747174 -2.0378323 2
-7.5121942 0.6506269 -1.8835071 9
-5.6524959 0.48955944 -1.9518245 5
-1.5711963 0.13608041 -0.73513561 12
-2.037008 0.19076082 0.54005903 11
-4.6844635 0.43868855 0.90918392 9
-5.6243782 0.5267092 0.79029423 9
-6.4077535 0.60007042 0.5587579 3
-9.3944178 0.8797642 0.48541287 2
-12.438463 1.1648316 0.42163515 29
-13.474554 2.2597024 0.37996376 3
-13.401887 0.27839199 0.29389772 6
-13.821743 1.2943723 0.22244161 11
-15.210799 2.5508735 0.15613309 27
-15.316559 0.31816468 0.064706847 2
-18.395487 1.7226924 -0.030634353 30
-18.386711 3.0834787 -0.14057113 39
-18.334389 0.38085285 -0.24646449 34
-18.348274 1.7182709 -0.35642037 46
-18.381378 3.0825844 -0.47047728 41
-18.327166 0.38070279 -0.57063442 38
-18.351046 1.7185305 -0.68325543 46
-18.342699 3.0760977 -0.79903424 67
-18.318226 0.3805171 -0.89450127 41
-18.344122 1.7178822 -1.0091172 45
-9.4268045 1.580889 -0.57959616 2
-8.6549883 0.17978658 -0.57604992 2
-18.33548 1.7170727 -1.3345931 39
-9.0337763 1.5149776 -0.71768481 0
-7.6950812 0.15984681 -0.64834267 33
-18.313261 1.714992 -1.6583937 65
-8.7529316 1.4678795 -0.8523922 0
-7.638751 0.15867668 -0.77891278 1
-18.313194 1.7149858 -1.9838636 49
-18.307465 1.7144493 -2.3091972 38
-15.859923 1.485243 -2.2823966 1
-13.604177 1.2739978 -2.2020247 1
-11.886558 1.113147 -2.1351829 3
-10.605524 0.99318129 -2.0950382 4
-9.5833311 0.89745551 -2.0636532 2
-8.728694 0.81742084 -2.0351188 3
-7.5074692 0.7030561 -1.8835071 7
-5.6489401 0.5290094 -1.9518245 6
-1.5774273 0.1477222 -0.73851556 12
-2.0240827 0.20381474 0.5369963 1
-4.4898148 0.45210132 0.87199688 3
-5.7230425 0.57628101 0.80470347 3
-6.4153028 0.64598805 0.5597958 5
-9.4238186 0.94893014 0.48726246 2
-12.449917 1.2536427 0.42230976 25
-13.478143 2.3571618 0.38051975 4
-13.431597 0.37282929 0.29459915 3
-13.820328 1.391636 0.22256979 13
-15.235961 2.6645825 0.15657848 19
-15.261985 0.42363653 0.064487211 2
-18.375053 1.8502736 -0.030621089 32
-18.396255 3.2172794 -0.1408124 37
-18.35527 0.50949883 -0.24678701 28
-18.355724 1.8483273 -0.35680711 44
-18.379105 3.2142799 -0.47098199 38
-18.348042 0.50929815 -0.57138115 37
-18.350533 1.8478044 -0.68369997 47
-18.332588 3.2061446 -0.79954928 83
-18.307137 0.50816274 -0.89411116 49
-18.351551 1.8479071 -1.010211 41
-9.1284313 1.5964506 -0.56192255 2
-8.7093763 0.24175166 -0.57976812 1
-18.338923 1.8466353 -1.3357495 37
-8.7872906 1.5367893 -0.69893819 0
-7.7336216 0.21466701 -0.6517002 19
-18.300842 1.8428009 -1.6583937 55
-8.4522314 1.4781916 -0.82409388 0
-7.6772351 0.21310185 -0.78296965 0
-18.296818 1.8423958 -1.9834347 47
-18.299 1.8426152 -2.3096957 36
-15.813711 1.5923595 -2.2772906 1
-13.575304 1.3669635 -2.1988428 1
-11.894168 1.1976817 -2.1379998 2
-10.590522 1.0664111 -2.0934944 3
-9.5885067 0.96551341 -2.0661688 3
-8.7188988 0.87794834 -2.0342143 3
-7.5178227 0.75700617 -1.8873847 6
-5.6300559 0.56691772 -1.9466196 6
-1.5907863 0.16018403 -0.74527544 11
-2.045682 0.22042653 0.5431217 3
-5.2909269 0.57010847 1.028334 13
-5.7503891 0.61961651 0.80913711 7
-6.4027128 0.68990576 0.55910385 4
-9.5242014 1.0262527 0.4928112 15
-12.440862 1.340529 0.42230976 27
-13.469226 2.452632 0.38074213 4
-13.49661 0.46895117 0.29608968 2
-13.834135 1.4906571 0.2229543 14
-15.240598 2.7751839 0.15682143 23
-14.623045 0.50809014 0.061800949 2
-18.38555 1.9810815 -0.030660883 31
-18.381216 3.347064 -0.14087272 36
-18.343273 0.63735259 -0.24667951 50
-18.354305 1.9777148 -0.35703915 41
-18.391623 3.3489587 -0.47189045 34
-18.352032 0.63765693 -0.57163006 33
-18.361032 1.9784398 -0.68458903 46
-18.337278 3.3390632 -0.80075109 72
-18.319113 0.63651317 -0.89489138 56
-18.358059 1.9781194 -1.0113049 40
-8.8420973 1.6100712 -0.54497534 5
-18.332371 0.6369738 -1.2206203 43
-18.333519 1.9754751 -1.3363278 40
-8.5095654 1.5495198 -0.67769194 0
-7.867373 0.27335855 -0.66311586 2
-18.303375 1.9722271 -1.6598306 62
-8.2654285 1.5050646 -0.80688542 0
-7.6994224 0.26752296 -0.78540373 0
-18.327003 1.9747732 -1.9881531 51
-18.313313 1.9732978 -2.3131847 36
-11.196184 1.2064123 -1.6135063 1
-13.549726 1.4600114 -2.1962969 1
-11.889432 1.2811112 -2.1387041 2
-10.571113 1.1390595 -2.0911784 2
-9.5854216 1.0328492 -2.0670073 4
-8.6893139 0.93629175 -2.0287871 3
-7.5084968 0.80905628 -1.8864152 5
-5.6334825 0.60701954 -1.9492221 6
-1.5788156 0.17012069 -0.74020553 11
-2.0517778 0.23558408 0.54516351 4
-5.2985229 0.6083737 1.0306108 25
-5.7537942 0.66064769 0.81024551 2
-6.3977408 0.73458529 0.55910385 4
-10.068446 1.1560538 0.52137697 9
-12.451058 1.4296241 0.42298439 21
-13.471418 2.550324 0.38129812 4
-13.433074 0.56066239 0.2947745 1
-13.966434 1.6036187 0.22526139 15
-15.224782 2.8822596 0.15686192 23
-14.663103 0.61200064 0.061986793 3
-18.383194 2.1107488 -0.030680779 31
-18.384912 3.4805157 -0.14108384 38
-18.354361 0.76606435 -0.24689452 43
-18.351969 2.1071637 -0.35727122 44
-18.391367 3.4817376 -0.47249609 38
-18.343136 0.76559591 -0.57150561 36
-18.366629 2.1088469 -0.68532991 46
-18.34886 3.4736903 -0.80229628 42
-18.318214 0.76455575 -0.89508647 44
-18.355707 2.1075928 -1.0119611 40
-8.6227226 1.6323996 -0.53214383 7
-18.315514 0.76444298 -1.2198236 46
-18.347025 2.1065958 -1.3383516 37
-8.2752037 1.5666094 -0.65988261 0
-18.307169 0.76409465 -1.5434651 38
-18.301035 2.1013153 -1.6609081 64
-7.9886909 1.5123686 -0.78088152 4
-7.7848372 0.32491934 -0.79432881 3
-18.304871 2.1017556 -1.9872952 50
-10.677426 1.2259765 -1.3497316 0
-10.794118 1.239375 -1.5567727 4
-11.063621 1.2703192 -1.7947139 1
-10.941361 1.2562815 -1.9696921 1
-10.586298 1.2155133 -2.0958102 2
-9.5585499 1.0975077 -2.0628147 4
-8.7057915 0.99959445 -2.0342143 3
-7.5065207 0.86189485 -1.8873847 5
-5.6366229 0.64719409 -1.9518245 6
-1.5739877 0.18072446 -0.73851556 12
-2.0539224 0.25037044 0.54618442 6
-5.3019433 0.6462999 1.0321286 38
-5.7844324 0.70511472 0.81523335 0
-6.3964119 0.77971423 0.55944985 4
-10.083922 1.2292169 0.52261007 5
-12.456647 1.5184489 0.42352408 22
-13.488596 2.6512506 0.38229892 14
-13.468775 0.65637577 0.29565129 1
-13.978718 1.7039874 0.2256459 19
-15.231762 2.9938784 0.15714535 23
-18.370035 0.89522964 0.077682003 7
-18.36801 2.2390363 -0.030680779 31
-18.399414 3.6164963 -0.14138542 38
-18.35256 0.89437801 -0.24694829 27
-18.344749 2.2362008 -0.3574259 42
-18.390154 3.6146762 -0.47310171 40
-18.341339 0.89383113 -0.57163006 37
-18.363361 2.2384696 -0.68577445 44
-18.343769 3.6055586 -0.80315477 44
-18.308439 0.89222789 -0.89489138 46
-18.35244 2.2371383 -1.0126173 42
-8.4348202 1.6579057 -0.52124918 4
-18.325678 0.8930679 -1.2208859 50
-18.351673 2.2370448 -1.3397973 35
-8.0684195 1.5858879 -0.64426041 8
-18.309351 0.89227229 -1.5441366 37
-18.313601 2.232404 -1.6634225 52
-7.8372889 1.5404581 -0.76711476 13
-9.6504688 0.47029769 -0.98500013 1
-10.690406 1.3031464 -1.161579 4
-10.349495 1.2615898 -1.3093592 5
-10.254588 1.2500209 -1.4801822 6
-10.544878 1.2854068 -1.7119788 2
-10.545374 1.2854673 -1.8999748 2
-10.565866 1.2879652 -2.0934944 2
-9.5195951 1.1604261 -2.0561063 2
-8.6560545 1.0551617 -2.0242648 4
-7.5041733 0.91474885 -1.8883541 5
-5.6319671 0.6865294 -1.9518245 6
-1.5798852 0.19258595 -0.7418955 10
-2.0444531 0.2637139 0.5441426 16
-5.2895126 0.68229389 1.0306108 38
-8.8556757 1.1422931 1.2491747 17
-6.3829083 0.823331 0.5587579 5
-9.8215342 1.2668792 0.50945747 14
-17.17584 2.2155106 0.5844875 26
-13.536365 2.7589226 0.38418928 5
-14.729596 0.82093334 0.32344532 6
-13.974416 1.8025591 0.22577408 18
-15.226169 3.1033311 0.15730731 22
-15.531757 0.86564064 0.06570363 3
-18.391602 2.3723316 -0.030747101 29
-18.381559 3.746449 -0.14144574 38
-18.369831 1.0238167 -0.24727081 36
-18.344557 2.3662634 -0.35773531 42
-18.395819 3.7493553 -0.47390923 40
-18.35461 1.0229684 -0.57225233 38
-18.351252 2.3671269 -0.68592262 45
-18.345564 3.7391126 -0.80435658 39
-18.313732 1.0206901 -0.89547652 44
-18.356182 2.3677628 -1.0137111 42
-8.3330593 1.6984078 -0.51568079 1
-18.303055 1.020095 -1.2198236 49
-18.347479 2.3666403 -1.3406646 35
-18.318594 1.0209612 -1.5454797 34
-10.083221 1.3006341 -0.91666037 10
-9.6231108 0.53633052 -0.98256606 0
-10.330009 1.3324672 -1.123403 5
-9.9310694 1.281008 -1.2575232 4
-9.8372021 1.2689002 -1.4211792 3
-10.19882 1.3155452 -1.6572464 4
-10.434609 1.3459597 -1.8816651 1
-10.552725 1.3611954 -2.0927224 2
-9.5384159 1.2303597 -2.061976 2
-8.6639357 1.1175605 -2.0278828 6
-7.5091505 0.96860492 -1.8912622 5
-5.627037 0.72583121 -1.9518245 6
-1.5892894 0.20500235 -0.74696535 12
-2.0578909 0.28006658 0.54822624 14
-5.2924027 0.7202642 1.0321286 36
-8.8435593 1.2035552 1.2486205 16
-6.3967476 0.87055886 0.56048775 3
-10.097443 1.3742013 0.52425414 8
-16.910397 2.3014033 0.57598734 30
-13.485475 2.84675 0.38329968 5
-13.478253 0.84561878 0.29608968 0
-13.977343 1.9022323 0.22603042 19
-15.24718 3.2186418 0.15775272 23
-15.55328 0.97580487 0.065821894 10
-18.398373 2.5039079 -0.030786894 33
-18.382351 3.8804686 -0.14165685 35
-18.358244 1.1517868 -0.24721706 30
-18.335516 2.4953537 -0.35788998 42
-18.384844 3.8809948 -0.47431299 38
-18.351011 1.1513331 -0.57237679 37
-18.362003 2.4989583 -0.68695986 47
-18.354202 3.8745265 -0.80590177 43
-18.30616 1.1485193 -0.89547652 46
-18.358992 2.4985483 -1.0148048 42
-8.3053732 1.7532436 -0.51471233 3
-18.319389 1.1493491 -1.2214171 49
-18.346319 2.4968238 -1.3418211 37
-7.8738122 1.6621422 -0.63051283 0
-18.318975 1.1493232 -1.5461512 38
-10.208108 1.3892622 -0.92887294 25
-7.7604756 1.6382172 -0.76176101 0
-9.5913315 0.60175526 -0.97972625 1
-9.8791065 1.344487 -1.0753614 3
-9.5246935 1.2962536 -1.2071823 4
-9.4279175 1.2830828 -1.3633108 4
-9.6650486 1.3153549 -1.5719657 4
-9.7421856 1.3258529 -1.7584274 1
-10.542965 1.4348341 -2.0927224 2
-9.5024652 1.2932284 -2.0561063 2
-8.6404781 1.1759171 -2.0242648 3
-7.9482617 1.0817106 -2.0037103 6
-5.610589 0.76356745 -1.9479209 6
-1.57345 0.21413708 -0.74020553 11
-2.0214293 0.28949201 0.53903812 14
-5.2950211 0.75830811 1.0336465 38
-5.9213324 0.84800315 0.83684731 4
-6.173552 0.88412392 0.54145885 3
-10.135056 1.4514569 0.52672023 8
-16.676266 2.3882337 0.56856656 27
-13.492617 2.9467993 0.38407809 6
-13.715372 0.95666826 0.30143806 7
-13.975598 2.001467 0.22622268 16
-15.232153 3.3267157 0.1578337 20
-15.757572 1.0991149 0.066717319 5
-18.388363 2.633426 -0.03080016 30
-18.382168 4.0146813 -0.14186797 36
-18.357735 1.2804801 -0.24732456 30
-18.349319 2.6278343 -0.35850877 40
-18.384647 4.015223 -0.47501954 37
-18.342525 1.2794193 -0.57237679 37
-18.355982 2.6287882 -0.68740445 45
-18.334515 4.0042739 -0.80624515 62
-18.309652 1.2771263 -0.89606172 76
-18.329241 2.6249588 -1.0141486 42
-8.265626 1.8052199 -0.51301765 3
-18.306934 1.2769368 -1.2211515 50
-18.344238 2.6271067 -1.3429775 34
-7.9126635 1.7281326 -0.63457459 0
-18.32641 1.2782952 -1.5474942 36
-7.7332897 1.6889572 -0.76023138 0
-18.300451 1.2764845 -1.8702021 39
-9.4915485 1.3592993 -1.0341828 4
-9.1775398 1.3143296 -1.1643178 5
-9.0777264 1.3000352 -1.3139524 5
-9.3038054 1.3324122 -1.5146875 8
-9.2961435 1.3313152 -1.6795552 7
-10.509379 1.5050644 -2.0880907 1
-9.5086918 1.3617544 -2.0594604 2
-8.6320581 1.2362103 -2.0242648 2
-7.940516 1.1371735 -2.0037103 8
-5.5938888 0.80110943 -1.9440173 5
-1.564739 0.22408868 -0.73682559 12
-2.0499554 0.30819714 0.54720533 15
-5.3051329 0.79759145 1.0366821 37
-8.7984715 1.3227917 1.2447411 17
-6.4076133 0.96334207 0.56256366 7
-10.160228 1.5275228 0.52856982 5
-16.457567 2.4742858 0.5616855 26
-13.483417 3.0435648 0.38441166 7
-13.632601 1.0465802 0.29977217 14
-13.98897 2.1031487 0.22667128 18
-15.243672 3.4409013 0.15819812 21
-15.677729 1.2035854 0.066413209 11
-18.389307 2.7647099 -0.030833321 29
-18.392708 4.151722 -0.14216955 37
-18.368288 1.4101408 -0.24759333 34
-18.350302 2.7588458 -0.35889551 40
-18.391275 4.1513987 -0.47592801 37
-18.345108 1.4083612 -0.57275015 35
-18.368805 2.7616277 -0.68858987 51
-18.356789 4.1436143 -0.80847704 47
-18.336143 1.407673 -0.89781713 44
-18.357862 2.7599826 -1.0167737 43
-8.2255583 1.8567268 -0.51132292 4
-18.305534 1.4053231 -1.2216827 49
-7.8809571 1.7789412 -0.63301241 0
-18.313066 1.4059014 -1.5471585 32
-9.7307272 1.4629501 -0.88720655 0
-7.7174263 1.7420279 -0.75984895 0
-18.310932 1.4057376 -1.8722305 43
-9.2144012 1.385324 -1.0050145 5
-8.8816366 1.335295 -1.1279329 7
-8.7551851 1.3162838 -1.2685655 5
-9.0013905 1.3532991 -1.4669558 6
-8.9439716 1.3446667 -1.6175841 4
-10.471448 1.5743126 -2.0826871 1
-9.4834824 1.4257786 -2.0561063 2
-8.6270714 1.2970228 -2.0251691 2
-7.7827163 1.1700796 -1.9659045 4
-5.599381 0.84182972 -1.9479209 6
-1.5918179 0.23931922 -0.75034529 11
-2.0401127 0.32129765 0.54516351 14
-5.3071942 0.83583075 1.0382 33
-8.7851086 1.3835679 1.2441869 19
-6.392859 1.0068122 0.56187171 4
-9.4942675 1.4952534 0.49445528 1
-16.195051 2.5505607 0.55332023 25
-13.489099 3.143976 0.38519007 6
-13.648871 1.1437318 0.30029824 14
-13.98975 2.2032478 0.22692762 14
-15.246547 3.5535936 0.15848155 20
-15.525447 1.3009827 0.065805003 4
-18.381413 2.8948913 -0.030853217 33
-18.386648 4.2854743 -0.14235051 36
-18.357994 1.5383413 -0.24759333 32
-18.346395 2.8893764 -0.35920492 42
-18.381315 4.2842312 -0.47643271 38
-18.342794 1.5370675 -0.57299906 37
-18.356974 2.8910422 -0.68888623 48
-18.35466 4.2780185 -0.80967885 49
-18.337811 1.5366499 -0.89840227 39
-18.35393 2.8905628 -1.0176487 41
-8.1851768 1.9077628 -0.50962818 4
-18.331072 1.5360851 -1.2240729 48
-9.5174236 1.4989004 -0.69823271 0
-7.8761134 1.8357276 -0.63363731 0
-18.31472 1.5347149 -1.5481657 34
-9.3621607 1.474448 -0.85452002 0
-7.7089548 1.7967671 -0.76023138 0
-18.304636 1.53387 -1.8726362 38
-8.90201 1.4019789 -0.97198594 6
-8.6015825 1.3546644 -1.0935417 9
-8.4015837 1.3231666 -1.2186399 4
-8.5743189 1.3503708 -1.3988585 4
-8.5648565 1.3488804 -1.5506836 1
-8.5449533 1.3457459 -1.7013501 1
-8.3683376 1.3179306 -1.8162831 1
-8.5985613 1.3541887 -2.0206468 2
-7.7858586 1.2261959 -1.9688126 4
-5.5896311 0.88031179 -1.9466196 6
-1.5829457 0.24929833 -0.74696535 11
-2.0301878 0.33427584 0.5431217 16
-5.3206058 0.8760519 1.0419946 41
-8.7166033 1.435212 1.2358738 19
-6.401403 1.054008 0.56325561 4
-9.4954224 1.5634465 0.4950718 1
-15.967788 2.6291387 0.54616934 23
-13.513473 3.2492883 0.38652444 9
-13.660468 1.2407932 0.30073664 15
-14.001653 2.3054094 0.22737622 14
-15.229145 3.6618183 0.15856254 16
-15.790853 1.434298 0.066970736 9
-18.388384 3.0276964 -0.030899644 30
-18.391285 4.4221487 -0.14262193 34
-18.354776 1.6671816 -0.24770084 34
-18.349453 3.0212865 -0.359669 67
-18.397614 4.4236708 -0.47764397 37
-18.355509 1.6672482 -0.57374579 38
-18.363953 3.0236738 -0.68992347 49
-18.351543 4.4125934 -0.81088066 52
-18.338575 1.6657101 -0.89898747 44
-18.360889 3.0231693 -1.0191799 32
-8.1211929 1.9527251 -0.50648081 5
-18.319902 1.664014 -1.2240729 49
-9.2036152 1.5153998 -0.6759702 0
-7.855351 1.888804 -0.63301241 0
-18.323408 1.6643325 -1.5498445 37
-9.1197157 1.5015855 -0.83332759 0
-7.6807375 1.8468184 -0.75870174 0
-18.321226 1.6641343 -1.875476 37
-8.6722574 1.4279102 -0.94796509 6
-8.3373699 1.3727702 -1.0611442 8
-8.1225615 1.3374015 -1.1794935 8
-8.451683 1.3915921 -1.3804022 3
-8.2716103 1.3619426 -1.4992759 1
-8.2255373 1.3543565 -1.6395952 0
-8.1582565 1.3432786 -1.7726789 2
-8.4774036 1.3958271 -1.9944164 2
-7.7541332 1.2767388 -1.9629964 5
-5.5870814 0.91992784 -1.9479209 5
-1.5561256 0.25622022 -0.73513561 13
-2.0506747 0.35236984 0.54924715 15
-5.3143601 0.91317278 1.0419946 34
-8.6868515 1.492672 1.2331028 8
-6.4135265 1.1020437 0.56498551 3
-11.728377 2.0153008 0.61221206 19
-15.767805 2.7094004 0.53996283 24
-13.505983 3.3473988 0.38696921 7
-13.679333 1.3388578 0.30135038 13
-14.000984 2.4058056 0.22763257 12
-15.222621 3.7728596 0.15876499 15
-15.879978 1.5542449 0.067393109 5
-18.414106 3.1641176 -0.030979231 29
-18.40267 4.5610209 -0.14295369 39
-18.354631 1.7964503 -0.2478621 28
-18.339741 3.1513393 -0.35990104 85
-18.401213 4.5606599 -0.47855243 39
-18.351379 1.7961321 -0.57399476 36
-18.366035 3.1558576 -0.69081253 47
-18.347445 4.5473337 -0.81208253 56
-18.330477 1.7940861 -0.8991825 42
-9.4038801 1.6158798 -0.5226059 2
-8.1034861 2.0084136 -0.50623876 7
-18.335646 1.794592 -1.225932 49
-8.9411697 1.5363717 -0.65746629 0
-7.8497148 1.9455173 -0.63363731 0
-18.323244 1.7933782 -1.5508517 37
-8.8380966 1.5186605 -0.80854332 0
-7.6753864 1.9023108 -0.75946653 0
-18.325003 1.7935505 -1.8770987 37
-8.4308281 1.4486791 -0.92265743 7
-8.1085396 1.3932999 -1.0332325 9
-7.9335184 1.3632258 -1.1533961 14
-8.0642376 1.3856875 -1.3186692 0
-7.9747338 1.3703079 -1.4471639 2
-7.9451137 1.3652183 -1.5855595 1
-7.8711476 1.3525085 -1.7123039 2
-8.0219994 1.3784297 -1.8894947 1
-7.7603307 1.3334668 -1.9668739 5
-5.5767961 0.95826739 -1.9466196 6
-1.5435798 0.26523513 -0.7300657 14
-2.0481646 0.36667767 0.54924715 16
-5.3001242 0.94886762 1.0404767 34
-5.4396968 0.97385496 0.77311391 4
-6.393908 1.1446849 0.56394756 3
-11.72975 2.099947 0.61303413 17
-15.626514 2.7975748 0.53578025 23
-13.497782 3.4455626 0.38741401 7
-13.685561 1.4359941 0.3017011 16
-14.011405 2.508426 0.22808117 11
-15.223039 3.8859668 0.15904842 22
-15.980128 1.6767577 0.067866161 5
-18.387629 3.2918899 -0.030972598 31
-18.389757 4.6943312 -0.14310448 35
-18.357553 1.9262156 -0.24807712 28
-18.352724 3.285641 -0.36059719 59
-18.403797 4.6979151 -0.47946087 35
-18.358274 1.9262912 -0.57461703 36
-18.351425 3.2854085 -0.69110894 46
-18.342356 4.6822309 -0.81328434 56
-18.329424 1.923264 -0.89976764 41
-9.1053696 1.630111 -0.5066368 2
-8.0853996 2.0639501 -0.50599664 8
-18.31473 1.9217221 -1.2254008 46
-8.6749649 1.5530566 -0.63867331 0
-7.8629875 2.0071754 -0.63582438 0
-18.330097 1.9233347 -1.5525305 38
-8.5919895 1.5382018 -0.78699172 0
-7.6657767 1.9568337 -0.75984895 0
-18.315992 1.9218546 -1.8775045 36
-8.2130299 1.4703577 -0.89992344 9
-7.907186 1.4156033 -1.0088097 10
-7.795187 1.3955524 -1.134674 15
-7.8055835 1.3974136 -1.2779381 14
-7.7324181 1.384315 -1.4049109 17
-7.7035861 1.3791533 -1.5392432 4
-7.8268638 1.4012234 -1.704757 3
-7.8625994 1.407621 -1.8542193 1
-7.7775722 1.3923988 -1.9736595 5
-5.5699697 0.99717742 -1.9466196 6
-1.5666715 0.28047717 -0.7418955 12
-2.0645657 0.38450822 0.55435169 16
-5.3010921 0.98728442 1.0419946 40
-5.2107816 0.97046483 0.74152428 4
-6.3818431 1.1885654 0.56360161 2
-11.742294 2.1869049 0.61447269 18
-15.484769 2.8839097 0.53159761 22
-13.519807 3.5518961 0.38874841 9
-13.671228 1.5310574 0.30161342 17
-14.009279 2.609112 0.22833751 8
-15.253568 4.0073862 0.15965579 19
-16.007784 1.7927312 0.068035103 5
-18.403522 3.4275036 -0.031038919 33
-18.379751 4.8286905 -0.14328544 39
-18.363531 2.0565541 -0.2483459 32
-18.352928 3.4180803 -0.36106128 80
-18.397625 4.8333864 -0.48016745 35
-18.360271 2.0561888 -0.57511485 35
-18.351618 3.4178367 -0.691998 45
-18.344009 4.8193007 -0.81482953 61
-18.32349 2.0520699 -0.90015775 41
-8.9092216 1.6592686 -0.49635532 1
-8.0823793 2.1233861 -0.50672293 9
-18.324665 2.0522015 -1.2269943 44
-8.436429 1.5712148 -0.62190413 0
-7.8564982 2.0640433 -0.63644928 0
-18.320183 2.0516994 -1.5528662 38
-8.3460512 1.5543828 -0.76544017 0
-7.6519299 2.0102994 -0.75984895 0
-18.313992 2.0510061 -1.8787215 40
-8.0266275 1.4948927 -0.88062096 12
-7.7215323 1.4380714 -0.98638064 2
-7.6840463 1.4310899 -1.1199232 28
-7.7063451 1.4352428 -1.2633003 22
-7.6412754 1.4231242 -1.3901224 22
-7.6281767 1.4206846 -1.5261203 21
-7.6323309 1.4214582 -1.6645069 0
-7.8679032 1.4653317 -1.8578373 2
-7.7714767 1.447373 -1.9746289 5
-5.559154 1.0353463 -1.9453185 6
-1.5718036 0.29273537 -0.74527544 12
-2.0657675 0.3989259 0.5553726 15
-5.2944274 1.0224211 1.0419946 35
-4.9475198 0.95542878 0.70494688 22
-6.3855577 1.2331321 0.56463951 2
-11.770677 2.2730668 0.61673331 18
-15.382873 2.9706275 0.52876419 12
-13.522976 3.6487765 0.38952678 9
-13.974496 1.6589377 0.30854002 23
-14.027009 2.7087932 0.22891428 13
-15.253687 4.1157579 0.15993923 13
-16.035263 1.9035751 0.068204053 5
-18.400024 3.5532777 -0.031072082 32
-18.393663 4.9629879 -0.14364734 37
-18.37332 2.1811299 -0.24866843 27
-18.34556 3.5427604 -0.36137065 79
-18.39991 4.9646735 -0.48107591 35
-18.34226 2.177443 -0.57499039 35
-18.363871 3.5462961 -0.6933316 51
-18.346369 4.9502268 -0.81637472 58
-18.325348 2.1754353 -0.90093797 41
-8.6548843 1.671368 -0.4827925 1
-8.1066666 2.1873453 -0.50914401 12
-18.330469 2.176043 -1.2283223 44
-8.1986275 1.5832587 -0.60513502 8
-7.8272357 2.111949 -0.63519949 0
-18.325964 2.1755083 -1.554545 34
-8.0695724 1.5583366 -0.74101502 0
-7.6422729 2.0620422 -0.76023138 0
-10.906492 1.2947295 -1.1196872 1
-7.8720589 1.5201944 -0.86475009 13
-7.6533723 1.4779632 -0.97890425 25
-7.6432838 1.476015 -1.1153845 41
-7.6346178 1.4743415 -1.2531176 30
-7.5504808 1.4580935 -1.3753339 23
-7.5453672 1.4571061 -1.5114535 31
-7.576653 1.4631478 -1.6544443 1
-7.8656626 1.5189592 -1.8596462 2
-7.7731376 1.5010914 -1.977537 4
-5.5447373 1.0707591 -1.942716 7
-1.562708 0.30177873 -0.7418955 13
-2.0439713 0.40953887 0.55026805 16
-5.3179674 1.0655308 1.0480659 34
-4.93296 0.98838907 0.70383847 21
-6.3846083 1.2792475 0.56533152 3
-11.766271 2.3575406 0.6173498 17
-15.232404 3.0520298 0.52431172 14
-13.508732 3.7463014 0.38986036 10
-13.962573 1.7564576 0.30854002 25
-13.980306 2.8011541 0.22846568 10
-15.25927 4.2317686 0.16030365 16
-16.025551 2.015975 0.068220951 5
-18.402224 3.6871483 -0.031118507 32
-18.39711 5.1019683 -0.14394894 33
-18.369549 2.3108444 -0.24882969 27
-18.371357 3.680964 -0.36237618 63
-18.399481 5.1026258 -0.48198435 36
-18.366282 2.3104331 -0.57623494 37
-18.3661 3.6799107 -0.69436884 48
-18.349871 5.0888677 -0.81809157 55
-18.325569 2.3053117 -0.90171814 44
-8.4902744 1.7011479 -0.47426105 1
-8.0796556 2.2406862 -0.50841767 12
-18.32671 2.3054552 -1.2291189 48
-8.0387259 1.6106735 -0.59414834 17
-7.8276715 2.1708047 -0.63644928 0
-18.322193 2.3048871 -1.5555524 33
-7.9217787 1.5872416 -0.72844326 11
-7.6660595 2.1259856 -0.76405543 0
-10.269415 1.2918674 -1.0551834 6
-7.6857796 1.5399559 -0.8454476 0
-7.7129145 1.5453926 -0.98787588 4
-7.6133814 1.5254498 -1.1125478 45
-7.5892901 1.5206227 -1.2473898 50
-7.5710034 1.5169587 -1.3809676 1
-7.5388594 1.5105182 -1.5122254 156
-7.4895558 1.5006396 -1.6376735 2
-7.8777895 1.5784277 -1.8650732 2
-7.777689 1.5583712 -1.9814146 5
-5.5408354 1.1101856 -1.9440173 6
-1.5534536 0.31125662 -0.73851556 14
-2.0410626 0.4237985 0.55026805 15
-5.3334713 1.1074218 1.0526195 38
-4.9492121 1.0276357 0.70716369 23
-6.3638167 1.3213588 0.56429356 4
-11.737792 2.4371908 0.61673331 12
-15.26944 3.1704886 0.5263356 4
-13.528394 3.8536639 0.39119476 12
-13.96979 1.8565259 0.30897841 26
-14.062224 2.9198272 0.23013191 7
-15.244742 4.3425784 0.16046561 20
-16.082457 2.1372902 0.068525054 5
-18.403448 3.8212225 -0.031164933 31
-12.052199 3.4331591 -0.094488166 1
-18.384687 2.4432468 -0.24925973 32
-18.368708 3.814009 -0.36284027 44
-12.002555 3.4190173 -0.31503102 8
-18.365555 2.4407043 -0.57673275 36
-18.367359 3.813729 -0.69540614 43
-18.344645 5.2256088 -0.8194651 61
-18.32091 2.4347711 -0.90230328 68
-8.6815424 1.8026026 -0.48563632 2
-8.0638161 2.2970381 -0.50841767 11
-18.325993 2.4354467 -1.2301813 50
-7.8276668 2.2297692 -0.63769907 0
-18.313559 2.433794 -1.5562239 32
-7.6625185 2.1827254 -0.7652027 0
-10.110248 1.343609 -1.0397675 1
-7.6943111 1.5976176 -0.84759235 2
-7.7058239 1.600008 -0.98837429 8
-7.5947924 1.5769539 -1.1114131 42
-7.5746226 1.5727659 -1.2467533 46
-7.529387 1.5633733 -1.3753339 67
-7.4743309 1.5519418 -1.5014184 255
-7.4597497 1.5489142 -1.6334808 3
-8.4884272 1.7625049 -2.0125062 2
-7.7742195 1.6142095 -1.9833534 7
-5.5218396 1.1465338 -1.9401135 6
-1.5583422 0.32356828 -0.7418955 13
-2.0342727 0.43722478 0.54924715 16
-5.3025713 1.1396779 1.0480659 34
-4.9457898 1.0629951 0.7077179 25
-6.3388524 1.3624049 0.56290966 4
-11.704869 2.5157189 0.61591125 5
-12.937028 2.7805462 0.44659597 6
-11.920012 3.4856558 0.34538114 16
-13.976291 1.9567806 0.3094168 28
-14.068869 3.0238118 0.23058051 7
-11.851068 3.4654953 0.12499554 19
-16.055262 2.2478511 0.068474367 5
-18.395874 3.9538121 -0.031198094 31
-11.793753 3.448735 -0.092648469 13
-18.367182 2.5715368 -0.24925973 28
-18.357271 3.9455152 -0.36314967 41
-11.721248 3.4275329 -0.3082681 17
-18.363907 2.5710783 -0.57723063 37
-18.375458 3.9494238 -0.69673973 45
-11.928975 3.4882767 -0.53394854 21
-18.335119 2.5670478 -0.90386373 43
-8.6336031 1.8556141 -0.48366752 2
-8.062912 2.3577607 -0.50938606 13
-18.328308 2.5660942 -1.2315092 50
-7.8360324 1.6841928 -0.58084863 0
-7.8310466 2.2899585 -0.63926131 0
-10.192143 1.4269729 -0.8669191 4
-7.8053675 1.6776021 -0.71982265 0
-7.6623802 2.2406368 -0.76673234 0
-9.7025862 1.3584315 -0.99879342 1
-7.6713057 1.6487882 -0.84630549 3
-7.5858197 1.6304147 -0.97441846 19
-7.5835977 1.6299372 -1.1114131 36
-7.5557361 1.6239489 -1.2454805 45
-7.4990406 1.6117634 -1.3718128 12
-7.4786625 1.6073835 -1.504506 35
-7.4602261 1.603421 -1.6359965 4
-8.4454393 1.8151723 -2.0052702 2
-7.7627606 1.6684445 -1.9833534 6
-5.5173988 1.1858506 -1.9414148 5
-1.5595899 0.33520153 -0.74358547 13
-2.0538235 0.4564504 0.5553726 16
-5.3098211 1.1800772 1.0511016 38
-4.9537168 1.100935 0.70993471 25
-6.3564177 1.4126772 0.56533152 3
-11.394553 2.5323739 0.60049808 3
-12.862666 2.8586535 0.44470704 6
-11.619641 3.4860604 0.3373749 17
-13.483562 1.9838628 0.29880771 26
-14.086458 3.1306341 0.23122136 6
-11.55841 3.4676902 0.12216118 20
-16.074793 2.3651159 0.068626426 5
-18.399063 4.0890856 -0.031251151 35
-11.508868 3.452827 -0.090597652 16
-18.364613 2.7020211 -0.24947475 37
-18.360512 4.0805182 -0.36376846 66
-11.463399 3.4391856 -0.30211082 14
-18.369242 2.7027025 -0.57797736 36
-18.366949 4.0819488 -0.69748062 47
-11.624905 3.4876397 -0.52141535 22
-18.324657 2.6961427 -0.90425378 59
-8.5775499 1.906311 -0.48126122 2
-8.061552 2.4185824 -0.51035452 11
-18.329691 2.6968832 -1.2328372 49
-7.8085055 1.7353953 -0.57969213 0
-7.8225079 2.3468657 -0.63988614 0
-9.7402697 1.4331049 -0.82931453 0
-7.8051324 1.7346457 -0.72090024 0
-7.6541781 2.2963641 -0.76749712 0
-9.3503494 1.3757352 -0.96349895 1
-7.6479611 1.6997154 -0.84501868 2
-7.6052465 1.6902223 -0.97840583 28
-7.5643034 1.6811228 -1.1102785 42
-7.5442152 1.6766584 -1.2454805 39
-7.4760747 1.6615144 -1.3697001 42
-7.4710903 1.6604067 -1.505278 38
-7.5290275 1.673283 -1.6536058 2
-8.4097404 1.8690164 -1.9998434 2
-7.7585001 1.724282 -1.9852921 7
-5.508986 1.2243403 -1.9414148 6
-1.5536726 0.34529477 -0.7418955 13
-2.0468171 0.46991226 0.55435169 8
-5.3052812 1.2179967 1.0518605 26
-4.9536319 1.1372645 0.71104312 25
-6.3502841 1.4579105 0.56567746 4
-10.975574 2.5197935 0.57933062 5
-12.79564 2.9376478 0.44308797 5
-11.342789 3.4894989 0.33003581 16
-13.501001 2.0828252 0.29950914 15
-14.111036 3.239639 0.2319904 6
-11.285425 3.4718516 0.11952927 16
-16.08161 2.4809406 0.068727791 5
-18.412951 4.2272811 -0.031324107 31
-11.23216 3.4554651 -0.088607162 21
-18.369017 2.8338232 -0.24979727 34
-18.347168 4.2121787 -0.36407784 47
-11.202148 3.4462323 -0.2958526 30
-18.373634 2.8345358 -0.57872409 38
-18.365276 4.2163358 -0.69851786 43
-11.348177 3.4911566 -0.51008397 25
-18.32513 2.8270528 -0.90522903 40
-8.5289974 1.9581039 -0.47929242 2
-8.0902643 2.4888914 -0.51325977 12
-9.8297186 1.5164495 -0.66183329 6
-7.8039765 1.7916521 -0.58027041 0
-7.8326135 2.4096277 -0.64207327 0
-9.4345808 1.4554908 -0.80413294 0
-7.7578869 1.7810708 -0.71766746 0
-7.6455712 2.3520858 -0.76826197 0
-9.0534182 1.3966881 -0.93388402 1
-7.6281562 1.751287 -0.8441608 2
-7.566184 1.7370592 -0.97491688 80
-7.5639606 1.7365488 -1.1119804 40
-7.5246282 1.7275187 -1.2442076 44
-7.4527798 1.7110236 -1.3675874 38
-7.4593163 1.7125243 -1.505278 39
-7.547658 1.732806 -1.6603142 2
-8.0053349 1.8378805 -1.9066801 2
-7.7576208 1.7810097 -1.9882003 7
-5.5003042 1.2627705 -1.9414148 6
-1.544157 0.35451058 -0.73851556 13
-2.0434868 0.48418933 0.55435169 11
-4.1884041 0.99241179 0.83177423 6
-4.9417181 1.170904 0.71048892 26
-6.3477073 1.5040429 0.56636941 4
-10.666183 2.5272744 0.5639174 3
-12.735921 3.0176835 0.44173872 3
-11.180869 3.5253167 0.3260327 40
-13.490079 2.1776664 0.29959682 16
-14.107535 3.3426776 0.23231082 7
-11.180803 3.5252962 0.11867896 44
-16.119183 2.6020753 0.068964317 5
-18.410238 4.3621716 -0.031370532 31
-11.184874 3.5265794 -0.088426203 45
-18.356682 2.9632688 -0.24990478 33
-18.352341 4.3484535 -0.36477399 65
-11.181629 3.5255566 -0.29595354 42
-18.361294 2.9640133 -0.578973 36
-18.370399 4.3527322 -0.69985151 47
-11.144393 3.5138159 -0.50201464 71
-18.336502 2.9600112 -0.90678948 40
-8.4840298 2.0102289 -0.47754237 2
-8.1031542 2.5549164 -0.51519656 12
-9.5233812 1.5373333 -0.64191455 0
-7.7990437 1.8479265 -0.58084863 0
-7.8536325 2.4762425 -0.64519775 0
-9.1684189 1.4800327 -0.78230888 0
-7.7452645 1.835184 -0.71766746 0
-7.6555457 2.4137859 -0.77093881 0
-8.7880936 1.4186378 -0.90751457 1
-7.604136 1.8017446 -0.84287393 1
-7.5307021 1.7843449 -0.97192633 4
-7.5555067 1.7902222 -1.1125478 42
-7.5239129 1.7827363 -1.2461169 44
-7.4559798 1.7666401 -1.3704044 50
-7.4471798 1.764555 -1.505278 35
-7.5658236 1.7926667 -1.6670226 1
-7.9278564 1.8784478 -1.8913037 7
-7.7563272 1.8378052 -1.9911084 7
-5.4913549 1.3011365 -1.9414148 6
-1.5451725 0.36611733 -0.74020553 13
-2.0588419 0.50303346 0.55945623 16
-4.0325832 0.98527449 0.80217642 4
-4.9372706 1.2063153 0.71104312 30
-6.325439 1.5454841 0.56533152 5
-10.543504 2.5760772 0.55836868 6
-12.664057 3.0941882 0.43998471 1
-11.175012 3.6094275 0.32658869 43
-13.498207 2.2757809 0.30012289 16
-14.09551 3.443933 0.23250309 4
-11.178759 3.6106377 0.11892191 41
-16.09668 2.7138801 0.06894742 4
-18.410421 4.4981885 -0.031423591 36
-11.179014 3.6107204 -0.088577002 44
-18.371044 3.0973351 -0.25038856 39
-18.360384 4.4859624 -0.36554748 64
-11.175772 3.609673 -0.29645824 42
-18.359863 3.0954502 -0.57959527 34
-18.382277 4.4913116 -0.70148146 42
-11.146213 3.6001256 -0.50321645 64
-18.323269 3.0892804 -0.90717959 41
-8.4620285 2.0675137 -0.47710487 2
-8.1079187 2.6187842 -0.51664919 10
-9.1975651 1.5506982 -0.62066793 0
-7.8363338 1.9146386 -0.58460724 0
-7.8589234 2.5383611 -0.64707237 0
-8.8866634 1.4982805 -0.75914174 0
-7.7322636 1.8892113 -0.71766746 0
-7.661243 2.4745121 -0.77323329 0
-8.5700035 1.4448919 -0.88601333 0
-7.6029615 1.8576192 -0.8441608 0
-7.5450492 1.8434695 -0.97541529 4
-7.5428243 1.8429259 -1.1125478 41
-7.5074477 1.8342824 -1.2454805 42
-7.4434643 1.8186494 -1.3704044 50
-7.4461169 1.8192976 -1.5075938 12
-7.5531235 1.8454423 -1.6670226 1
-8.3952503 2.0511978 -2.0061748 7
-7.7357678 1.8900675 -1.9891696 7
-5.4747882 1.3376461 -1.9388124 6
-1.5390569 0.37603524 -0.73851556 15
-2.0477788 0.51550633 0.55741441 16
-3.9037342 0.98272324 0.77789104 6
-4.9287286 1.2407546 0.71104312 27
-6.3144951 1.5896064 0.56533152 4
-10.513641 2.6466963 0.55775213 7
-12.777834 3.2166824 0.44470704 6
-11.17991 3.6973996 0.32747826 40
-13.533194 2.3789618 0.30126271 15
-14.10603 3.5510416 0.23307985 6
-11.179862 3.6973836 0.11920534 42
-16.148252 2.8386555 0.06925153 5
-18.397964 4.6314898 -0.031456754 34
-11.183914 3.698724 -0.088818274 47
-18.376549 3.2303612 -0.25076485 34
-18.355766 4.6208673 -0.3660889 83
-11.173079 3.6951401 -0.29706386 41
-18.349621 3.2256279 -0.57996863 37
-18.36598 4.6234384 -0.70207417 47
-11.147367 3.6866369 -0.50441825 68
-18.340605 3.2240429 -0.9091301 42
-8.4357691 2.1236143 -0.4764486 2
-8.1538801 2.6966367 -0.52076495 8
-8.9506617 1.5734115 -0.60473293 0
-7.8421206 1.9741697 -0.58605283 0
-7.8750854 2.604434 -0.6498844 0
-8.6208172 1.515429 -0.73731768 0
-7.7188859 1.9431467 -0.71766746 0
-7.6891446 2.5429399 -0.7778222 0
-8.3284712 1.4640383 -0.86207795 0
-7.6013775 1.9135652 -0.8454476 0
-7.5242982 1.8941613 -0.97441846 52
-7.5336142 1.8965065 -1.1131152 42
-7.513607 1.89147 -1.2486626 46
-7.4153123 1.8667253 -1.3675874 44
-7.4522643 1.8760276 -1.5114535 4
-7.6462541 1.9248624 -1.6905017 4
-8.3845043 2.110709 -2.0070794 7
-7.7299109 1.9459221 -1.9911084 7
-5.4689841 1.3767581 -1.9401135 5
-1.5363942 0.38677076 -0.73851556 15
-2.0553615 0.5327009 0.56047714 17
-3.8701661 1.0030551 0.77257866 6
-4.9467897 1.2820904 0.71492255 23
-6.3186736 1.6376501 0.56671542 4
-10.545177 2.7330594 0.56042373 6
-13.292976 3.4452238 0.46346137 3
-11.180337 3.7843337 0.32825667 42
-13.524122 2.474823 0.30143806 13
-14.138969 3.664485 0.23404114 3
-11.180298 3.7843206 0.11948878 45
-16.151648 2.9556425 0.069352895 4
-18.403902 4.7698545 -0.031523075 30
-11.191919 3.788254 -0.089089707 42
-18.392889 3.3657744 -0.25130239 33
-18.354031 4.7569289 -0.36670768 43
-11.162159 3.7781808 -0.29746762 44
-18.369913 3.3615699 -0.58133769 37
-18.36034 4.758564 -0.70311147 44
-11.147855 3.773339 -0.50562006 64
-18.337299 3.3556018 -0.91010535 31
-8.4052734 2.1784472 -0.47557357 2
-8.2067118 2.7778177 -0.52536494 6
-8.6999741 1.5920364 -0.58853233 0
-7.7740798 2.0148568 -0.58200514 2
-7.9020386 2.6746914 -0.65363371 0
-8.3708601 1.5318109 -0.71683663 0
-7.7089882 1.9979867 -0.7180267 0
-7.6900611 2.602941 -0.77973425 0
-8.1418991 1.4899125 -0.84382224 0
-7.5916824 1.9675838 -0.84587657 0
-7.5301003 1.9516232 -0.97691053 49
-7.5316887 1.9520348 -1.1148171 39
-7.5116868 1.9468509 -1.2505718 46
-7.4249692 1.9243757 -1.3718128 41
-7.4541831 1.9319472 -1.5145413 2
-7.6288433 1.9772151 -1.6896632 4
-8.3620205 2.167237 -2.0052702 6
-7.6860843 1.9920505 -1.9833534 6
-5.4555779 1.4139563 -1.9388124 5
-1.5441852 0.4002161 -0.74358547 15
-2.0590665 0.54902989 0.56251895 16
-3.8630693 1.0300496 0.77257866 6
-4.9530292 1.3206768 0.71713936 23
-6.3301897 1.6878831 0.56879127 3
-10.521981 2.8055832 0.56021821 7
-13.33813 3.5564818 0.46588999 7
-11.172537 3.8688371 0.32881263 41
-13.57723 2.5826299 0.30301628 11
-14.136229 3.7692869 0.23442565 6
-11.187621 3.8740606 0.11985319 45
-16.197422 3.0810368 0.069640107 6
-18.408804 4.9085274 -0.031589396 35
-11.195436 3.8767667 -0.089330979 47
-18.376802 3.4955938 -0.25140992 36
-18.362881 4.8962822 -0.36755851 43
-11.165739 3.8664832 -0.29827514 43
-18.36171 3.4927227 -0.58183551 35
-18.373018 4.8989854 -0.7048896 46
-11.147674 3.8602276 -0.50682187 67
-18.336977 3.488018 -0.91127563 47
-8.2779436 2.2072325 -0.46922967 4
-11.156364 3.8632369 -0.71590048 50
-8.4337912 1.6042566 -0.57126945 3
-7.7829533 2.0752482 -0.58373988 7
-7.9133191 2.740232 -0.65613329 0
-8.1132746 1.5432887 -0.69568408 4
-7.7217975 2.0589416 -0.72054106 0
-7.7093267 2.6695933 -0.78355837 0
-7.9319267 1.5087931 -0.82313234 10
-7.5892897 2.0236099 -0.84716338 0
-7.5354667 2.0092583 -0.97940266 47
-7.5255299 2.0066087 -1.1159518 38
-7.5093594 2.0022972 -1.2524811 43
-7.4227672 1.9792082 -1.3739254 41
-7.4215527 1.9788843 -1.5106815 2
-7.6186333 2.0314341 -1.6905017 4
-8.3466864 2.2255623 -2.0052702 5
-7.6944885 2.0516601 -1.9891696 6
-5.4528837 1.453958 -1.9414148 6
-1.5413535 0.41098681 -0.74358547 15
-2.0365338 0.55827904 0.55741441 16
-3.8368459 1.0518022 0.76878405 6
-4.9436889 1.3552232 0.71713936 28
-6.3067226 1.7288743 0.56775337 3
-10.532959 2.8874209 0.56186229 6
-13.347676 3.6590252 0.46710429 7
-11.179176 3.9587538 0.32981342 41
-13.586332 2.6827769 0.30363002 25
-14.476002 3.9683352 0.2405138 5
-11.182925 3.9600813 0.12009614 47
-16.171593 3.1932664 0.06962321 4
-18.412664 5.0475006 -0.031655718 30
-11.194492 3.9641776 -0.089542091 46
-18.383343 3.6300015 -0.25183994 43
-18.366821 5.0349331 -0.368332 45
-11.179937 3.9590232 -0.29938546 44
-18.380022 3.6293459 -0.58320451 38
-18.373066 5.0366454 -0.70622319 47
-11.146823 3.9472966 -0.50802368 66
-18.335695 3.6205931 -0.9124459 50
-8.189146 2.2449069 -0.46507335 37
-11.162995 3.9530237 -0.71807945 50
-8.2383547 1.6267574 -0.55878705 8
-7.7913613 2.1358614 -0.58547461 2
-7.9353452 2.8100529 -0.65957016 0
-7.9615293 1.5720952 -0.68359691 12
-7.6995516 2.1106932 -0.71982265 0
-7.7205281 2.7339823 -0.78661764 0
-7.7962718 1.5394632 -0.81015044 2
-7.5788126 2.077595 -0.84759235 0
-7.5327387 2.0649645 -0.98089796 45
-7.5342493 2.0653787 -1.1193558 40
-7.5066237 2.0578055 -1.2543905 43
-7.4163642 2.0330627 -1.3753339 38
-7.4113417 2.0316858 -1.5114535 255
-7.6231256 2.0897424 -1.6946944 3
-8.3196726 2.2806885 -2.0025568 6
-7.6650071 2.1012237 -1.9852921 5
-5.4462481 1.4929907 -1.942716 5
-1.5384468 0.42173746 -0.74358547 17
-2.0511999 0.57772565 0.56251895 17
-3.8256292 1.0774981 0.7680251 8
-4.9455457 1.3929255 0.71880198 26
-6.306006 1.7761024 0.56879127 3
-10.558685 2.9738803 0.56432843 6
-13.356438 3.7618744 0.46831861 8
-11.173825 4.0448689 0.33048061 42
-13.716147 2.8080404 0.3069618 8
-14.163066 3.9890633 0.23577145 9
-11.177572 4.0462255 0.12033909 47
-15.945134 3.2643702 0.068744689 10
-18.407778 5.1845975 -0.031708777 37
-11.189111 4.0504022 -0.089723043 44
-18.373226 3.7614617 -0.25205496 36
-18.354319 5.1695404 -0.36879608 44
-11.182106 4.0478663 -0.30019298 43
-18.389488 3.764791 -0.58432466 34
-18.368235 5.1734595 -0.70740867 43
-11.145298 4.0345421 -0.50922555 69
-18.341284 3.7549224 -0.91400635 45
-8.4077845 2.3680737 -0.4784174 2
-11.157652 4.0390143 -0.71953207 48
-8.093854 1.6570156 -0.54975718 8
-7.8069811 2.1988561 -0.58778763 2
-7.9755287 2.8871014 -0.66456926 1
-7.9074068 1.6188451 -0.67990363 1
-7.6999664 2.168715 -0.72125942 0
-7.7798758 2.8162761 -0.79464829 0
-7.7424507 1.5850744 -0.80568796 0
-7.5679517 2.1315327 -0.84802127 0
-7.5372396 2.1228826 -0.98339009 48
-7.5348916 2.1222212 -1.1216252 37
-7.4996767 2.1123028 -1.2556633 41
-7.4133596 2.0879915 -1.3774465 38
-7.4309773 2.0929537 -1.5184009 255
-7.6271734 2.1482127 -1.6988871 3
-8.3110495 2.3408279 -2.0043659 5
-7.6538863 2.1557364 -1.9862615 5
-5.4211292 1.5268747 -1.9375112 6
-1.5424442 0.43443331 -0.74696535 17
-2.0434015 0.59095722 0.56149805 17
-3.8142407 1.1030887 0.76726621 6
-4.9623394 1.4351219 0.7226814 24
-6.3011093 1.8222978 0.56948328 4
-10.568366 3.0563998 0.56597251 6
-11.947325 3.4551985 0.41974622 15
-11.175315 4.1338758 0.3313702 41
-13.88399 2.9435334 0.31117037 12
-11.894962 3.4400551 0.19840947 12
-11.186565 4.1380372 0.120744 46
-16.148912 3.4237175 0.069724582 3
-11.869575 3.4327128 -0.020487014 13
-11.18307 4.1367445 -0.089903995 44
-18.373907 3.895437 -0.25243124 34
-11.963417 3.4598525 -0.24086221 2
-11.179826 4.1355443 -0.30089957 45
-18.374493 3.8955612 -0.58469802 36
-11.992 3.4681187 -0.46276438 14
-11.150593 4.1247306 -0.51077068 74
-18.326349 3.8853543 -0.91459149 44
-8.3872108 2.4256041 -0.47819865 3
-11.151649 4.1251216 -0.7209847 46
-8.0508547 1.7068551 -0.54763252 1
-7.8450952 2.2688227 -0.59183532 1
-11.145478 4.122839 -0.93108439 44
-7.8647194 1.6673926 -0.6772176 0
-7.7152548 2.2312725 -0.72413296 0
-7.7936344 2.8829539 -0.79808998 0
-7.7039471 1.6333075 -0.80284816 0
-7.5605268 2.1865249 -0.84887916 0
-7.5298605 2.1776559 -0.98438692 50
-7.5351071 2.1791732 -1.1238946 40
-7.4961281 2.1679003 -1.2575725 42
-7.4175148 2.1451652 -1.3809676 30
-7.4388065 2.1513228 -1.5230325 255
-7.6382904 2.2090142 -1.704757 2
-8.2870178 2.3966279 -2.0025568 6
-7.6461062 2.2112746 -1.9882003 4
-5.417604 1.5667857 -1.9401135 6
-1.5115118 0.43713328 -0.73344564 17
-2.0688879 0.61401051 0.56966525 16
-3.8064475 1.1296885 0.76726621 6
-4.9635935 1.4731095 0.72434402 26
-6.2958751 1.868508 0.57017523 4
-10.558261 3.1335111 0.56658906 8
-11.6738 3.4645841 0.41097623 15
-11.183586 4.2259274 0.33248219 43
-13.929507 3.0549538 0.3126609 14
-11.606098 3.4444914 0.19398755 10
-11.194819 4.2301717 0.12114891 41
-15.991774 3.5072403 0.069150157 3
-11.576895 3.4358242 -0.020022757 12
-11.191334 4.2288547 -0.090205587 44
-18.385332 4.0321846 -0.25296879 33
-11.766444 3.4920793 -0.23738155 14
-11.173125 4.2219744 -0.30150518 41
-18.389805 4.0331655 -0.58606702 37
-11.703086 3.4732757 -0.45254001 24
-11.151432 4.2137771 -0.51214421 61
-18.329998 4.0200486 -0.91615188 43
-8.4236784 2.5000038 -0.48126122 2
-11.148725 4.2127538 -0.72267938 43
-8.0153503 1.7578888 -0.54603904 5
-7.8673124 2.3348837 -0.59472656 0
-11.161188 4.2174635 -0.93483371 45
-7.8451004 1.7205504 -0.67654604 0
-7.699491 2.2850771 -0.72413296 0
-11.140389 4.2096043 -1.1437887 38
-7.6845822 1.6853464 -0.80203676 0
-7.5565171 2.242645 -0.85016596 0
-7.5030613 2.2267802 -0.98289162 22
-7.5424867 2.238481 -1.1272986 36
-7.495955 2.2246711 -1.2601182 41
-7.4136834 2.2002544 -1.3830802 21
-7.4273701 2.2043164 -1.5238045 255
-7.6714268 2.2767482 -1.7156579 1
-8.2588797 2.4510942 -1.9998434 6
-7.615602 2.2601802 -1.9843228 4
-5.4029088 1.6034908 -1.9388124 6
-1.5188503 0.4507688 -0.73851556 14
-2.0386515 0.62055546 0.56251895 17
-3.8022251 1.1573787 0.7680251 5
-4.9456086 1.505419 0.72323561 25
-6.2903018 1.914737 0.57086718 4
-10.612559 3.2304111 0.57069921 6
-11.393088 3.4680002 0.40193635 16
-11.172463 4.3110976 0.33303818 41
-13.950743 3.161849 0.31362537 14
-11.325417 3.447401 0.18969381 11
-11.187405 4.3168631 0.12139185 40
-15.970802 3.619683 0.069167055 5
-11.300068 3.4396851 -0.019585028 13
-11.18766 4.3169613 -0.0904167 39
-18.368437 4.1630921 -0.25313005 50
-11.477789 3.4937825 -0.23204452 23
-11.188146 4.3171487 -0.30271646 24
-18.3729 4.1641035 -0.58644038 36
-11.429991 3.479233 -0.44290835 20
-11.151569 4.3030348 -0.51351774 60
-9.0046282 2.0408428 -0.45076156 0
-8.4977226 2.5866649 -0.48651132 2
-11.137667 4.2976704 -0.72388989 45
-7.9795284 1.8085105 -0.54444551 2
-7.8737197 2.3967216 -0.5964613 0
-11.153795 4.303894 -0.93670839 45
-7.8173485 1.7717534 -0.67520303 0
-7.6947837 2.3422544 -0.72521055 0
-11.151591 4.3030434 -1.1479952 37
-7.6842723 1.7415925 -0.80325383 0
-7.5520897 2.2988188 -0.85145283 1
-7.5139098 2.2871971 -0.98638064 27
-7.5380387 2.2945421 -1.1290005 35
-7.4953527 2.2815485 -1.262664 43
-7.4395776 2.2645707 -1.3908266 17
-7.4343286 2.2629731 -1.5284361 255
-7.6890197 2.3404996 -1.7232049 0
-8.222929 2.5030191 -1.9953208 6
-7.5959244 2.3121622 -1.9833534 5
-5.3915825 1.6411712 -1.9388124 6
-1.522603 0.46347287 -0.7418955 13
-2.0453453 0.63822889 0.56558162 16
-3.8015506 1.1862346 0.76954293 7
-4.9501047 1.5446291 0.72545242 25
-6.284389 1.9609787 0.57155913 4
-10.605001 3.3091815 0.57152128 9
-11.200686 3.4950581 0.39599973 34
-11.815457 4.6542296 0.35316503 13
-13.920541 3.2573442 0.31345001 20
-11.190352 3.4918339 0.18783532 24
-15.261788 6.0117745 0.16605335 17
-16.221668 3.7957981 0.070366584 2
-11.187955 3.491086 -0.019432487 35
-18.418024 7.2550483 -0.14925691 36
-18.377871 4.3003392 -0.25366759 28
-11.197331 3.4940116 -0.22686219 36
-18.416403 7.2544093 -0.49964869 36
-18.37063 4.2986455 -0.58731163 34
-11.18029 3.4886942 -0.43416578 43
-11.165878 4.3983536 -0.51557797 1
-9.0018311 2.1063881 -0.4513467 1
-8.5862131 2.679239 -0.49263647 3
-18.37735 7.2390261 -1.1976868 52
-7.9045286 1.8496243 -0.54019618 0
-7.8644128 2.4540088 -0.59703952 0
-18.354853 7.2301641 -1.5456625 41
-7.8047886 1.8262856 -0.67520303 0
-7.6896529 2.3994768 -0.72628814 0
-18.363819 7.2336965 -1.8956071 39
-7.6603022 1.7924764 -0.80203676 0
-7.5662279 2.3609633 -0.85488439 1
-7.5356455 2.3514204 -0.99136484 38
-7.5407352 2.3530085 -1.1318372 35
-7.4943209 2.3385255 -1.2652097 47
-7.4311042 2.3187995 -1.392235 8
-7.4408283 2.3218336 -1.5330677 179
-7.6911607 2.3999472 -1.7273976 0
-8.2164125 2.5638468 -1.9980344 6
-7.5758924 2.3639791 -1.982384 4
