# .PCD v0.7 - Point Cloud Data file format
VERSION 0.7
FIELDS x y z intensity
SIZE 4 4 4 4
TYPE F F F F
COUNT 1 1 1 1
WIDTH 1387
HEIGHT 1
VIEWPOINT 0 0 0 1 0 0 0
POINTS 1387
DATA ascii
13.800265 -7.6811299 0.43923232 77
13.786236 -5.2286415 0.32326996 29
8.7805519 -4.0813851 0.15515159 27
10.540648 -5.8668494 0.12212069 0
12.577662 -4.7702713 0.056817003 0
8.8106842 -4.0953913 -0.016109731 33
10.166924 -5.6588378 -0.087732546 0
12.210148 -4.6308856 -0.17550851 0
8.7691565 -4.0760884 -0.18702789 51
9.9962645 -5.5638499 -0.28878686 0
11.906279 -4.5156388 -0.39639488 0
8.7901497 -4.0858464 -0.35933515 54
9.1766291 -5.1076469 -0.45119509 0
11.965117 -4.5379539 -0.62474656 0
8.8047552 -4.0926352 -0.53179365 49
8.8786926 -4.9418178 -0.61615378 3
11.908153 -4.5163493 -0.84747595 0
8.8165932 -4.0981379 -0.70459342 51
8.88873 -4.9474044 -0.79704571 22
12.026536 -4.5612478 -1.083481 3
8.7967768 -4.0889268 -0.8746348 53
8.7498856 -4.8701243 -0.96176147 9
12.103636 -4.5904894 -1.3196893 2
8.8139858 -4.0969262 -1.0483379 56
8.8320045 -4.1053014 -1.2231319 44
8.8257523 -4.1023951 -1.3945143 42
8.8238001 -4.1014876 -1.5681472 20
8.055357 -3.7442994 -1.5887113 4
7.3851476 -3.4327719 -1.6017702 4
6.845119 -3.1817551 -1.6183871 4
6.3246808 -2.9398446 -1.61905 5
5.9403496 -2.7611992 -1.636315 6
4.4349942 -2.0614786 -1.6824727 7
3.3336856 -1.5495672 -1.7136265 9
5.8193727 -2.75702 1.6998076 20
8.0069466 -3.7934179 1.7121192 31
8.0728397 -3.824636 1.2497289 17
8.7619381 -4.1511068 0.84176958 38
8.6027803 -4.0757036 0.48972857 16
8.7609921 -4.1506586 0.32718888 36
13.802738 -7.815577 0.44112268 46
8.7901554 -4.1644754 0.15585653 25
10.587852 -5.9952002 0.12317345 0
12.195511 -4.727879 0.055245791 0
8.8093462 -4.1735673 -0.016162788 31
10.264396 -5.8120475 -0.088938907 0
12.011787 -4.6566544 -0.17314333 1
8.7643404 -4.1522455 -0.18756932 51
9.9760885 -5.6487985 -0.2893925 0
11.682742 -4.5290918 -0.39004758 0
8.7996988 -4.1689968 -0.36096513 53
9.1458969 -5.1787157 -0.45153847 0
11.734099 -4.5490017 -0.61440885 0
8.8033934 -4.1707473 -0.53354371 48
8.8318062 -5.0008669 -0.61542749 2
11.688659 -4.5313859 -0.83419681 0
8.811553 -4.174613 -0.70661724 47
8.8348751 -5.0026045 -0.79548347 6
11.769794 -4.5628395 -1.0633357 0
8.7845688 -4.161829 -0.87643075 50
8.7347403 -4.9459047 -0.96405596 4
9.4724379 -3.6722152 -1.0357106 3
8.8124695 -4.1750469 -1.0517694 54
8.8339548 -4.185226 -1.2276177 44
8.8383827 -4.187324 -1.4013224 38
8.8149099 -4.1762033 -1.5719657 15
8.0276937 -3.8032472 -1.5887113 4
7.359786 -3.4868152 -1.6017702 4
6.7968702 -3.220125 -1.6125172 4
6.3170457 -2.9928005 -1.622668 5
5.9199495 -2.8046699 -1.636315 6
4.4266 -2.097172 -1.6850752 6
3.3222373 -1.5739626 -1.7136265 9
5.799983 -2.7975798 1.6998076 19
7.8635359 -3.7929194 1.6870749 30
7.9781485 -3.848202 1.239199 20
8.7578688 -4.2242947 0.84419149 33
8.7540188 -4.2224379 0.50000405 29
8.7750101 -4.2325625 0.32880795 32
13.799825 -7.9416604 0.44279066 86
12.363911 -4.8927221 0.29153043 0
8.7896862 -4.2396417 0.15636921 25
10.62201 -6.1128597 0.12406425 0
9.4285011 -3.7311039 0.042828158 3
8.8088169 -4.2488689 -0.016215846 31
10.227037 -5.8855577 -0.088969067 0
9.4091387 -3.7234416 -0.13599895 17
8.7783651 -4.2341809 -0.1884975 47
10.009192 -5.7601895 -0.29151222 0
9.3645391 -3.7057924 -0.31350666 13
8.7955818 -4.242485 -0.36200237 50
9.1337671 -5.256391 -0.45274028 0
9.4470882 -3.7384596 -0.49601325 5
8.799243 -4.2442513 -0.53507495 43
8.8243637 -5.0783324 -0.61736429 2
9.3966455 -3.718498 -0.67245662 22
8.7929745 -4.2412276 -0.70748466 19
8.7548046 -5.0383019 -0.79142171 1
9.3508368 -3.7003701 -0.84710956 17
8.8019476 -4.2455554 -0.8811003 48
8.6930971 -5.00279 -0.96329117 4
9.313364 -3.6855414 -1.021106 25
8.7974358 -4.2433796 -1.0534852 43
8.8045206 -4.2467966 -1.2276177 18
8.7875366 -4.2386045 -1.3979183 16
8.7962112 -4.2427888 -1.573875 10
7.9974008 -3.8574882 -1.5880071 4
7.3352642 -3.5381114 -1.6017702 4
6.7883148 -3.2742944 -1.6158714 4
6.2889791 -3.0334435 -1.620859 4
5.9002247 -2.8459306 -1.636315 6
4.4118514 -2.1280243 -1.6850752 6
3.3079026 -1.5955429 -1.7119365 8
5.7594805 -2.827776 1.6936822 19
7.7311044 -3.795799 1.6643074 29
7.8621902 -3.8601592 1.2253439 18
8.778245 -4.3099213 0.8490352 23
8.7530136 -4.297534 0.50164813 30
8.7739553 -4.3078156 0.32988733 33
13.806172 -8.0741415 0.44479221 64
9.3258858 -3.7660093 0.22051097 15
8.7742338 -4.3079524 0.15662555 13
13.824613 -8.0849257 0.16212574 35
9.2686996 -3.7429166 0.042219948 21
8.8148451 -4.3278913 -0.016282169 1
10.427394 -6.0981603 -0.091080196 0
9.2345676 -3.7291334 -0.13384876 16
8.7665396 -4.3041744 -0.18888424 48
9.9618311 -5.8258891 -0.29131034 0
9.1753225 -3.7052085 -0.30803058 21
8.7908659 -4.3161182 -0.36303964 37
9.1209946 -5.3341503 -0.45394209 0
9.2577572 -3.7384975 -0.48743102 21
8.8052502 -4.3231807 -0.5372625 7
8.8024817 -5.1478772 -0.61833274 2
9.2224245 -3.7242293 -0.66183329 27
8.7846375 -4.3130603 -0.7092194 11
8.7331858 -5.1073518 -0.7926715 14
9.1880264 -3.7103386 -0.83468664 20
8.7899723 -4.3156796 -0.88289624 3
8.6888924 -5.0814476 -0.96673286 2
9.1435022 -3.6923585 -1.0052843 24
8.8032951 -4.3222208 -1.0577747 11
8.8209715 -4.3308992 -1.2340972 7
9.2624378 -4.5476494 -1.4784802 1
8.7557411 -4.2988729 -1.5719657 5
7.977344 -3.916697 -1.5894156 4
7.3209534 -3.5944242 -1.6040859 4
6.7723117 -3.3250535 -1.6175485 4
6.2746434 -3.0807095 -1.622668 4
5.876729 -2.8853424 -1.6353456 6
4.407073 -2.163774 -1.6889788 7
3.2966831 -1.6185975 -1.7119365 9
5.7430587 -2.8696446 1.6947031 21
7.6025338 -3.7987719 1.6422988 6
7.7925258 -3.8937056 1.2186935 20
13.588898 -6.789989 1.3188761 15
13.804248 -6.8975935 0.79388225 34
13.828942 -6.9099326 0.52174819 30
13.804465 -8.2030106 0.44657138 73
9.1477671 -3.7685695 0.21691616 20
13.840041 -8.2241516 0.16297606 38
9.083313 -3.7420163 0.041493475 24
12.183681 -6.087842 -0.022582805 0
10.346742 -6.1483321 -0.090748452 0
9.0603848 -3.7325709 -0.13169858 17
9.9965429 -5.9402342 -0.293531 0
9.0198488 -3.7158716 -0.30367458 20
9.6329956 -4.8133364 -0.3991954 0
9.1316309 -5.4262781 -0.45634574 0
9.0873642 -3.7436855 -0.47982407 22
8.7903547 -5.2234817 -0.62002742 2
9.0633497 -3.7337925 -0.65227228 22
8.7281704 -5.1865306 -0.79548347 1
9.0144835 -3.7136612 -0.8212564 19
9.2514238 -4.6226754 -0.93246484 2
8.6908579 -5.1643581 -0.97093934 2
8.9666481 -3.6939545 -0.98865134 25
9.1926966 -4.5933313 -1.10839 1
9.166852 -4.5804176 -1.2869301 2
9.2623415 -4.6281309 -1.4835862 2
8.7361145 -4.36519 -1.573875 6
7.956851 -3.9758141 -1.590824 4
7.3062148 -3.6507096 -1.6064018 4
6.766427 -3.3809929 -1.6217413 4
6.270411 -3.1331477 -1.6271905 5
5.8668571 -2.9315031 -1.6382537 6
4.3952436 -2.1961794 -1.6902801 7
3.2950323 -1.6464348 -1.7170064 9
5.6687307 -2.8796439 1.6783687 12
3.9881701 -2.0259402 0.86440772 4
7.6923628 -3.9076233 1.2070552 19
13.632389 -6.9250822 1.3275256 21
13.8045 -7.0125122 0.79655391 39
13.843403 -7.0322747 0.52404189 29
13.814809 -8.3336277 0.44868416 82
8.9713898 -3.7656991 0.21332136 21
10.740143 -5.4558573 0.19302626 0
13.843416 -8.3508844 0.1636644 36
8.925518 -3.7464449 0.040885266 23
10.406281 -5.2862597 -0.0193529 0
13.877981 -8.3717356 -0.12220429 26
8.8916006 -3.7322083 -0.12960215 17
12.05521 -6.1238952 -0.26151416 0
10.152093 -6.1241355 -0.29928452 0
8.8512335 -3.7152643 -0.29882076 24
9.5794792 -4.8662548 -0.39830634 0
9.1501923 -5.5197501 -0.45909274 0
8.918664 -3.7435677 -0.47221711 23
9.1906967 -4.6687579 -0.5646069 0
8.7897053 -5.3022909 -0.6224485 2
8.8875027 -3.7304878 -0.64138341 16
9.0701303 -4.607512 -0.73726434 1
8.7482138 -5.2772617 -0.80048257 2
8.8169184 -3.7008607 -0.80547595 11
9.0855923 -4.6153669 -0.91881555 0
8.6700535 -5.2301121 -0.97246897 1
8.8282051 -3.7055981 -0.97607511 34
9.0698442 -4.6073666 -1.0972375 1
9.1504269 -4.6483016 -1.2889239 2
9.2667465 -4.7073903 -1.4892596 1
8.7175341 -4.4283977 -1.5757842 4
7.9373288 -4.032063 -1.5922323 4
7.2923398 -3.7044168 -1.6087176 4
6.7333946 -3.4204798 -1.6192256 4
6.2668633 -3.1834877 -1.6317129 5
5.8507462 -2.9721055 -1.6392231 6
4.3805819 -2.2252805 -1.6902801 7
3.2840407 -1.6682513 -1.7170064 10
5.682847 -2.9369054 1.6885777 20
3.9495063 -2.0411119 0.85909528 1
7.6543365 -3.9557748 1.2053926 18
13.76072 -7.1115646 1.3448247 19
13.797791 -7.1307235 0.79901999 36
13.833037 -7.1489382 0.52552605 28
13.807433 -8.4612045 0.4503521 94
8.7941465 -3.7637265 0.20972654 27
10.737323 -5.5490675 0.19366711 0
13.852988 -8.4891205 0.16447422 37
8.8072128 -3.7693186 0.040462896 48
10.465066 -5.4083648 -0.019531971 0
13.863537 -8.4955845 -0.12259636 33
8.7954655 -3.7642908 -0.12858082 36
10.079417 -5.2090607 -0.21943676 0
10.105683 -6.1927695 -0.29918358 0
8.7846498 -3.7596619 -0.29745173 44
9.5275173 -4.9238377 -0.39756545 0
9.1148434 -5.5855818 -0.45926443 0
8.7857952 -3.7601523 -0.46656063 34
9.1082029 -4.7071357 -0.56154436 0
8.7626886 -5.3697815 -0.62317479 2
8.773181 -3.7547534 -0.63500941 3
9.0164776 -4.6597319 -0.7355296 2
8.8335648 -5.4132142 -0.81173062 5
8.7945318 -3.7638915 -0.8058117 6
8.9823666 -4.6421032 -0.9116317 0
8.6672792 -5.3113146 -0.97629309 1
8.8057785 -3.7687047 -0.97648078 19
8.9703302 -4.6358829 -1.0890875 1
9.1177521 -4.7120705 -1.2889239 2
9.6803885 -5.0028424 -1.5613114 1
8.6969309 -4.4945893 -1.5776935 3
7.9194808 -4.0928016 -1.594345 3
7.2697864 -3.7570386 -1.6094896 4
6.7406216 -3.4835653 -1.6267725 4
6.2444854 -3.2271612 -1.6317129 5
5.8367496 -3.0164425 -1.6411619 5
4.3582191 -2.2523353 -1.6876776 6
3.2819762 -1.6961311 -1.7220763 9
5.6450882 -2.9675095 1.6834731 19
7.2202549 -3.795543 1.576273 4
7.647573 -4.0201755 1.2087178 18
13.78481 -7.246398 1.3520902 22
13.783033 -7.2454638 0.8010751 33
13.828793 -7.2695189 0.52728003 29
13.805735 -8.5933123 0.45224249 54
8.7676563 -3.8250294 0.20972654 42
10.765584 -5.6592517 0.19488475 0
13.840925 -8.6152163 0.16504109 33
8.7843504 -3.8323123 0.04047979 46
10.377485 -5.4552355 -0.019439118 0
13.861616 -8.6280956 -0.12310906 32
8.7873011 -3.8335998 -0.1288496 34
10.028645 -5.2718573 -0.21912737 0
10.228548 -6.3667102 -0.3041296 9
8.7984972 -3.8384845 -0.29882076 40
9.4893723 -4.9883723 -0.39741728 0
9.1299105 -5.6828685 -0.46201143 0
8.7776403 -3.829385 -0.46753588 37
9.0326958 -4.7483068 -0.55891925 0
8.7554941 -5.4498153 -0.62535375 2
8.7833347 -3.8318696 -0.63766521 45
8.9625387 -4.7114267 -0.73379487 1
8.7346191 -5.4368215 -0.80610663 2
8.8009205 -3.8395414 -0.80883348 51
8.8862667 -4.6713319 -0.90516621 1
8.673933 -5.3990474 -0.98126441 1
8.819375 -3.8475926 -0.98094332 48
8.874383 -4.6650848 -1.0813665 3
8.9897823 -4.7257481 -1.2754664 1
9.652236 -5.073987 -1.562446 1
8.6653404 -4.5551958 -1.5776935 2
7.8837433 -4.1443257 -1.5929366 4
7.2468548 -3.809526 -1.6102614 4
6.7195997 -3.5323586 -1.627611 4
6.2287011 -3.2743032 -1.6335219 4
5.805243 -3.0516999 -1.6382537 5
4.3356924 -2.2791865 -1.6850752 4
3.2604277 -1.7139415 -1.7170064 9
5.6129537 -3.0033364 1.6804104 17
3.9545193 -2.1159539 0.8666845 1
7.6283765 -4.0817332 1.2103804 21
13.812136 -7.3904924 1.3600478 25
13.789429 -7.3783426 0.80456877 31
13.820956 -7.3952117 0.52903408 24
13.796434 -8.7284851 0.45402166 49
8.7613029 -3.8989508 0.21025261 44
10.843709 -5.8021688 0.19706367 1
13.838243 -8.7549362 0.16576992 33
8.7742939 -3.904732 0.040564265 47
10.393648 -5.5613537 -0.019545235 0
13.87236 -8.7765207 -0.12377256 31
8.7845421 -3.9092927 -0.12922588 34
10.032046 -5.3678708 -0.22005555 0
13.878474 -8.7803888 -0.41455701 30
8.799346 -3.9158804 -0.2998164 41
9.4666491 -5.0653424 -0.39800999 0
9.1116476 -5.7645969 -0.46321324 0
8.7785349 -3.9066191 -0.4690963 47
8.9659529 -4.7974334 -0.55695045 1
8.7625465 -5.5437341 -0.62874317 2
8.7878284 -3.9107547 -0.64005548 50
8.9101734 -4.7675877 -0.73234922 6
8.7181206 -5.5156269 -0.8082937 2
8.7980309 -3.9152954 -0.81118375 40
8.8307104 -4.725069 -0.90301102 8
8.6745005 -5.4880304 -0.98585331 1
8.8200188 -3.9250803 -0.9841888 49
8.8294287 -4.7243834 -1.0800797 15
8.9618988 -4.7952642 -1.2764633 1
9.6357298 -5.1558127 -1.56585 1
8.6317167 -4.6185932 -1.5776935 2
7.8600965 -4.2057204 -1.594345 4
7.2014327 -3.8532875 -1.6064018 4
6.6935263 -3.5815208 -1.627611 4
6.1839194 -3.3088443 -1.6280949 4
5.7998261 -3.1033266 -1.6431006 5
4.3388791 -2.3216143 -1.6928825 6
3.2541699 -1.7412163 -1.7203863 8
5.2419353 -2.8520639 1.5752572 15
3.9465506 -2.1472631 0.86820233 2
7.568378 -4.1178489 1.2053926 26
13.819714 -7.5191131 1.3659295 28
13.793728 -7.5049744 0.80785692 28
13.821667 -7.5201759 0.53105789 26
13.825991 -8.882946 0.45702401 33
8.7630072 -3.9732325 0.21095404 41
10.918873 -5.9408064 0.19917849 1
13.833992 -8.8880873 0.16645826 33
8.7759638 -3.9791071 0.040699422 47
12.325698 -6.7062402 -0.023265926 0
13.864595 -8.9077492 -0.12425511 31
8.7898207 -3.9853899 -0.12970966 33
10.022431 -5.4530654 -0.22067434 0
13.904308 -8.9332638 -0.41718143 31
8.7936411 -3.9871221 -0.30056316 39
9.431057 -5.1313062 -0.39800999 0
9.1148891 -5.8561497 -0.46544516 0
8.7765188 -3.9793587 -0.47046164 45
8.9427681 -4.8656349 -0.55760676 1
8.7639408 -5.630672 -0.63164842 2
8.7857571 -3.9835474 -0.64191455 48
8.9047089 -4.8449278 -0.73466223 5
8.7397919 -5.6151567 -0.8139177 2
8.7958927 -3.9881432 -0.81353408 41
8.7905102 -4.782794 -0.90229267 86
8.8001184 -5.6539154 -1.0045915 1
8.8286438 -4.0029926 -0.98824561 46
8.8067122 -4.7916093 -1.0813665 5
8.8863697 -4.83495 -1.2704822 1
9.6134148 -5.230525 -1.5681194 1
8.6270142 -4.6938381 -1.5827849 2
7.8443794 -4.2680173 -1.5971619 4
7.1846995 -3.9090946 -1.6087176 4
6.6889729 -3.6393769 -1.6326423 4
6.1880503 -3.3668318 -1.6353309 4
5.7609758 -3.1344664 -1.6382537 6
4.3059535 -2.3428092 -1.6863765 6
3.241935 -1.7638916 -1.7203863 9
5.5738578 -3.0832841 1.6814313 23
3.9245906 -2.1709609 0.8666845 3
7.5221133 -4.1609983 1.2026216 19
13.801752 -7.6346984 1.3693893 23
13.80042 -7.6339617 0.81135058 32
13.838793 -7.6551881 0.53375638 32
13.820568 -9.0163937 0.45891437 33
8.7713604 -4.0510807 0.21183082 42
10.863132 -6.0091457 0.19892216 1
13.841953 -9.030345 0.16730858 30
8.7842846 -4.0570498 0.040868368 48
10.39199 -5.7485247 -0.019691145 0
13.87577 -9.0524063 -0.1249186 33
8.7908316 -4.0600734 -0.13013971 37
11.338429 -6.2720652 -0.25060809 1
13.895188 -9.0650749 -0.41879645 33
8.7982578 -4.0635033 -0.30168328 43
9.419488 -5.2105665 -0.39904723 0
9.1541128 -5.9720469 -0.46956569 0
8.7702856 -4.0505843 -0.47163194 44
8.912076 -4.929882 -0.55782551 1
8.7745771 -5.724442 -0.63527995 2
8.7794724 -4.0548272 -0.64350808 52
8.8706675 -4.9069762 -0.73466223 4
8.7838745 -5.7305074 -0.82172883 1
8.8004036 -4.0644946 -0.81655586 41
8.7429609 -4.8363328 -0.9008559 42
8.7771072 -5.7260923 -1.0065035 0
8.8185453 -4.0728736 -0.99027407 45
8.8043661 -4.8703003 -1.085227 2
8.8107233 -4.873817 -1.2645011 2
9.5801287 -5.2994285 -1.5686867 1
8.5836687 -4.7482176 -1.5808756 3
7.8281732 -4.3303008 -1.5999788 4
7.1984463 -3.9819558 -1.6179808 4
6.6634021 -3.685986 -1.6326423 5
6.1609845 -3.4080641 -1.6344265 4
5.762723 -3.1877587 -1.6450394 6
4.3027315 -2.3801367 -1.6915812 6
3.2295415 -1.7864815 -1.7203863 10
5.5656815 -3.1297045 1.6855149 21
3.9230318 -2.2060065 0.86972016 4
7.4790697 -4.2056446 1.2004048 19
13.657805 -7.6800828 1.3603938 24
13.785091 -7.7516584 0.81361115 32
13.84425 -7.7849245 0.53605008 31
13.817291 -9.1524019 0.46091592 30
8.7754335 -4.1275363 0.21261993 45
13.857327 -7.7922783 0.25474083 28
13.841932 -9.1687231 0.1680779 33
8.7919426 -4.1353011 0.041037317 48
10.337658 -5.8130913 -0.019664615 0
13.858921 -9.1799765 -0.12534083 35
8.7876081 -4.1332626 -0.13051598 36
10.060352 -5.6571565 -0.22322683 0
13.901573 -9.2082291 -0.42091617 34
8.8022356 -4.1401429 -0.30280337 41
9.4037867 -5.2879548 -0.39993632 0
9.1921587 -6.0887718 -0.47368619 0
8.7851772 -4.1321192 -0.47397256 46
8.887886 -4.9978528 -0.55848175 1
8.83426 -5.8517041 -0.64254308 2
8.7979021 -4.1381044 -0.64696062 50
8.8501043 -4.9766073 -0.73581874 1
8.7370062 -5.7872844 -0.82110393 1
8.8078823 -4.1427984 -0.81991339 42
8.7228746 -4.9050632 -0.90229267 17
8.809947 -5.8355994 -1.0149165 1
8.8187056 -4.1478891 -0.99351954 50
8.8152142 -4.9569879 -1.0908033 2
8.7591867 -4.9254823 -1.2620089 1
9.5498018 -5.3700624 -1.5698214 1
8.5675211 -4.8177047 -1.5840577 3
7.7977514 -4.3848462 -1.5999788 3
7.1670504 -4.030189 -1.617209 5
6.637507 -3.7324154 -1.6326423 4
6.1676078 -3.4681809 -1.6425669 4
5.7470937 -3.2317164 -1.6469781 6
4.2926044 -2.4138255 -1.6941837 6
3.2233109 -1.8125384 -1.7237662 9
5.5380845 -3.1627128 1.6834731 17
3.9287767 -2.2436624 0.87427366 5
7.4303718 -4.2433681 1.1970795 3
13.492373 -7.7052813 1.3489765 19
13.78541 -7.8726301 0.81669378 50
13.833971 -7.900363 0.53766912 30
13.839253 -9.299593 0.46369588 32
8.773118 -4.1977267 0.21323368 44
13.847018 -7.9078135 0.25550985 26
13.853855 -9.3094044 0.16896871 32
8.7859726 -4.2038774 0.041138686 47
10.469077 -5.978725 -0.019989595 0
13.87409 -9.3230019 -0.12603448 31
8.788866 -4.2052617 -0.13094603 36
9.9983006 -5.7098718 -0.22268538 0
13.899938 -9.3403711 -0.4227331 32
8.8070431 -4.2139587 -0.30392349 41
9.4344587 -5.3878708 -0.40275171 0
9.287571 -6.2409887 -0.48072538 0
8.7792034 -4.2006383 -0.47514287 44
8.8718843 -5.0665932 -0.55957556 1
8.8317089 -5.9346623 -0.64520621 1
8.7918653 -4.206697 -0.64855415 51
8.7857227 -5.0173879 -0.73321658 2
8.7447691 -5.8762412 -0.82547814 1
8.8089771 -4.2148843 -0.82259941 41
8.714366 -4.9766374 -0.90480703 8
8.7644405 -5.8894596 -1.0141517 1
8.8233089 -4.2217417 -0.99717069 31
8.6923542 -4.9640665 -1.0796508 3
8.7366657 -4.9893718 -1.2635043 1
9.5036602 -5.4273906 -1.5681194 1
8.5388098 -4.8763795 -1.5846941 3
7.7787566 -4.4423251 -1.6020914 4
7.1606126 -4.089313 -1.6218406 3
6.6193986 -3.7802343 -1.6343194 4
6.1343198 -3.5032132 -1.6398535 4
5.742383 -3.2793844 -1.6518251 6
4.2732158 -2.4403663 -1.6928825 7
3.2049224 -1.8302807 -1.7203863 9
3.936795 -2.2848349 0.8795861 5
8.7984524 -5.1064405 1.4231946 19
13.29005 -7.7132711 1.3340993 27
13.795759 -8.0067749 0.82059848 51
13.83726 -8.0308609 0.53996283 27
13.840056 -9.4410477 0.46591985 32
8.7651701 -4.2693791 0.21375975 43
13.85374 -8.0404253 0.25666341 25
13.857915 -9.4532299 0.16981901 32
8.7851791 -4.2791252 0.041273843 49
10.492816 -6.0898147 -0.020115608 0
13.874752 -9.464715 -0.12663767 31
8.7880592 -4.2805285 -0.13137606 35
10.020457 -5.8156667 -0.22407766 0
13.913671 -9.4912634 -0.42515564 31
8.8025694 -4.2875962 -0.3047947 27
9.4381018 -5.4776802 -0.40452987 0
13.859058 -9.45401 -0.72074467 35
8.7712145 -4.2723236 -0.47631314 37
8.8501148 -5.1364245 -0.56045055 1
8.8659239 -6.047924 -0.6507746 1
8.7766361 -4.2749643 -0.64961648 17
8.7815371 -5.0966234 -0.73581874 1
8.7727127 -5.9843397 -0.83203948 0
8.7972536 -4.285007 -0.82427824 1
8.7035313 -5.0513501 -0.90732133 6
8.8053427 -6.006598 -1.0237119 1
8.8258181 -4.2989202 -1.0008218 11
8.6574879 -5.0246277 -1.0796508 2
8.873251 -5.1498523 -1.2884254 0
9.4758139 -5.499567 -1.5698214 1
8.5079746 -4.9378533 -1.5853306 3
7.7611766 -4.504427 -1.6049082 4
7.138679 -4.1431422 -1.6233844 4
6.5928473 -3.8263528 -1.6343194 4
6.1164541 -3.5498641 -1.6416625 4
5.7159929 -3.3174446 -1.6508557 6
4.2560754 -2.4701385 -1.6928825 7
3.1857955 -1.8489702 -1.7170064 9
3.0175767 -1.7810372 0.92494041 9
3.9300871 -2.3196199 0.88186282 5
8.8119574 -5.2010026 1.4315077 24
13.215993 -7.8003569 1.3323694 15
13.777979 -8.1320524 0.82306457 50
13.82622 -8.1605253 0.54185176 28
13.829635 -9.5832386 0.46792141 36
8.7479677 -4.3406262 0.21411046 20
13.849538 -8.1742878 0.25768879 26
13.853999 -9.6001225 0.17062883 32
10.423781 -6.1523347 -0.020069182 0
13.870753 -9.6117325 -0.12724085 32
10.015442 -5.911324 -0.22492848 0
13.909457 -9.6385517 -0.42717442 32
9.8954706 -4.9100022 -0.34387413 0
9.4424467 -5.5731306 -0.4064562 0
13.84851 -9.5963192 -0.72383505 42
8.757556 -4.3453841 -0.47728842 19
8.8191051 -5.2052212 -0.56088805 1
9.0477924 -6.2696638 -0.66747975 31
8.8022671 -4.367569 -0.65386581 1
8.7645559 -5.1730251 -0.73755348 2
8.803997 -6.1007257 -0.83922571 0
9.2404852 -4.5850072 -0.86893362 1
8.6765614 -5.121089 -0.90839893 3
8.8625298 -6.1412859 -1.0355667 1
9.2111359 -4.5704446 -1.0482868 2
8.6341228 -5.0960402 -1.0813665 1
8.7771587 -5.1804633 -1.2799522 1
9.448885 -5.5769305 -1.5720907 1
8.488554 -5.0101233 -1.5885127 2
7.7177763 -4.5551934 -1.6027956 4
7.1047368 -4.1933646 -1.6226125 4
6.578095 -3.8825297 -1.6376735 4
6.1104012 -3.6064873 -1.6470894 4
5.7015481 -3.3651733 -1.6537639 7
4.2411118 -2.5031934 -1.6941837 7
3.1815233 -1.8778019 -1.7220763 9
3.005069 -1.8020604 0.92494041 12
3.9306383 -2.3570995 0.88565743 5
8.8094063 -5.2827673 1.4370497 23
13.099696 -7.8555408 1.3261417 27
13.792814 -8.2711859 0.8273803 51
13.837481 -8.2979708 0.54455024 29
13.831078 -9.7278566 0.47025657 35
13.804417 -6.9700904 0.33905205 22
13.840152 -8.2995729 0.25858599 25
13.845531 -9.7380219 0.17135768 32
10.340532 -5.2211151 0.048927158 0
13.876214 -8.3211985 -0.026827443 30
13.875293 -9.758955 -0.12790434 32
10.179026 -5.1395679 -0.15325415 0
10.100833 -6.0572019 -0.22779037 0
13.917058 -9.7883301 -0.42949602 31
9.8895016 -4.993382 -0.34486976 0
9.4033089 -5.6389151 -0.4064562 0
13.856362 -9.7456408 -0.72778386 50
8.8133783 -5.2851496 -0.56285685 1
13.902499 -9.7780905 -1.0306352 30
9.1278391 -4.6088052 -0.68042415 0
8.7453356 -5.2443457 -0.73899907 3
8.8557863 -6.228569 -0.84828657 0
9.0694866 -4.5793419 -0.85583919 1
8.6542645 -5.189733 -0.9098357 2
8.9041176 -6.2625623 -1.0455093 2
9.0688839 -4.5790377 -1.0357106 0
8.6119776 -5.1643748 -1.0830823 1
8.8531017 -5.3089705 -1.2964002 0
9.4097204 -5.6427598 -1.5720907 2
8.4533701 -5.069262 -1.5885127 2
7.6992941 -4.6170626 -1.6056125 3
7.0921187 -4.2529554 -1.6264721 4
6.5642462 -3.9364047 -1.6410277 4
6.0717077 -3.6410425 -1.6434715 4
5.6845717 -3.4088871 -1.6557026 7
4.2235327 -2.5327408 -1.6941837 7
3.1683362 -1.8999672 -1.7220763 9
2.9990208 -1.82702 0.92698216 4
3.9342103 -2.3967428 0.89021093 5
8.8162909 -5.3709331 1.4442544 26
12.939035 -7.8825316 1.3154163 11
13.799555 -8.406765 0.83128494 31
13.833838 -8.4276505 0.546709 28
13.827916 -9.8706408 0.47248054 34
13.798106 -7.0882182 0.34010419 34
13.850185 -8.4376097 0.2598677 23
13.842319 -9.8809214 0.17216749 30
10.382107 -5.3333869 0.049298842 0
13.865607 -8.4470043 -0.026920294 27
13.878447 -9.9067106 -0.12856784 31
10.103764 -5.1903996 -0.15266284 0
10.188084 -6.2066364 -0.23072959 0
13.903712 -9.9247456 -0.43121198 31
9.8650703 -5.0677805 -0.34524316 1
9.3944359 -5.7231421 -0.40778983 0
13.866051 -9.8978624 -0.73190439 39
9.2006636 -4.7264686 -0.50498557 0
8.8001432 -5.3610959 -0.56438816 1
13.892392 -9.9166651 -1.0349931 40
9.0634899 -4.6560011 -0.67803389 0
8.7970943 -5.3592381 -0.74651629 3
13.920825 -9.9369602 -1.3400741 26
8.9912062 -4.6188679 -0.85147434 0
8.6620512 -5.2769694 -0.91450524 1
12.710178 -9.0727768 -1.4998126 4
8.9659042 -4.6058698 -1.027597 1
8.6164694 -5.2492008 -1.0882297 1
8.8124323 -5.3685827 -1.2959018 0
9.3836231 -5.7165551 -1.5743601 2
8.4312639 -5.1363726 -1.5910584 2
7.690412 -4.6850414 -1.6105421 4
7.0656056 -4.3044062 -1.6272441 4
6.5466256 -3.9882405 -1.6435434 5
6.0561233 -3.6894238 -1.6461849 4
5.663949 -3.4505091 -1.656672 7
4.2025175 -2.5601969 -1.6928825 7
3.1549945 -1.9220401 -1.7220763 9
3.0059257 -1.8601228 0.93310761 5
3.9307413 -2.432416 0.89324659 5
8.8088989 -5.4511104 1.4492422 22
12.751534 -7.8908863 1.3019232 10
13.801675 -8.5407333 0.83498412 32
13.832458 -8.559783 0.54900271 27
13.839621 -10.025579 0.47526047 36
11.522473 -6.0212426 0.28504223 2
13.84536 -8.5677662 0.26089308 25
13.857218 -10.038326 0.17322026 32
10.337529 -5.4020319 0.049265053 0
13.887935 -8.5941124 -0.027079469 27
13.886687 -10.059675 -0.12929165 29
10.116909 -5.2867441 -0.15341541 0
10.120701 -6.2628784 -0.23018816 1
13.911805 -10.07787 -0.43363452 30
9.8577976 -5.1513414 -0.34623879 1
9.3916426 -5.8117232 -0.4094198 0
13.874284 -10.05069 -0.73602486 39
9.1249514 -4.7683816 -0.50264496 0
8.7896729 -5.4392133 -0.56613821 1
13.903657 -10.071968 -1.0410457 42
9.0236902 -4.7154655 -0.67750269 2
8.7594662 -5.4205208 -0.74651629 2
13.925388 -10.08771 -1.3472604 28
8.9022188 -4.651989 -0.8461023 1
8.648715 -5.3519859 -0.91701955 1
12.714242 -9.2103424 -1.5078431 3
8.8806267 -4.6407061 -1.0215117 4
8.6066685 -5.3259668 -1.0916612 9
8.872611 -5.4905372 -1.310356 0
9.330018 -5.7735891 -1.5720907 2
8.4052753 -5.2013407 -1.5929676 2
7.6575179 -4.7386146 -1.6105421 4
7.0420594 -4.3577576 -1.628788 4
6.5186238 -4.0338459 -1.6435434 3
6.0335326 -3.7336624 -1.6470894 4
5.6463227 -3.4940498 -1.6586107 6
4.1813259 -2.5874825 -1.6915812 6
3.1507485 -1.9497418 -1.7271461 9
3.0066237 -1.8882458 0.93719125 10
3.9178481 -2.460521 0.89400554 4
8.812808 -5.5346961 1.4558926 27
12.641549 -7.9392552 1.2960415 5
13.805617 -8.6703234 0.83868331 32
13.843092 -8.6938591 0.55170119 32
13.821161 -10.152655 0.47692844 36
11.32688 -6.0150046 0.28118438 2
13.859358 -8.7040739 0.26223886 26
13.845137 -10.170266 0.17390861 35
10.365064 -5.5042429 0.04956916 0
13.878054 -8.7158155 -0.02717232 27
13.893807 -10.206017 -0.12998532 34
10.120481 -5.3743606 -0.1540067 0
10.20425 -6.4085617 -0.23305005 2
13.925227 -10.229098 -0.436158 33
9.8198853 -5.2147326 -0.34611434 0
9.4375172 -5.9270315 -0.41312429 0
13.868516 -10.18744 -0.73928696 37
9.0578403 -4.8100576 -0.50069445 0
8.8041401 -5.5292521 -0.5694195 0
13.900908 -10.211233 -1.0458878 42
9.0486174 -4.80516 -0.68175203 133
8.7030525 -5.4657664 -0.74478155 5
13.94174 -10.241228 -1.3553839 30
8.857089 -4.7034512 -0.84475929 1
8.6298971 -5.4198227 -0.91881555 1
12.723475 -9.346323 -1.5162562 4
8.8777704 -4.7144337 -1.0247571 5
8.5980988 -5.3998528 -1.0950928 12
8.8931379 -5.5851455 -1.3188293 0
9.3451719 -5.8690357 -1.5811682 2
8.3839712 -5.2653742 -1.5955133 3
7.6325912 -4.7934861 -1.6119504 3
6.9997077 -4.3960171 -1.6257002 4
6.4851027 -4.0728302 -1.6418662 3
6.0086374 -3.7735965 -1.6470894 4
5.632884 -3.5376127 -1.6615189 6
4.1736827 -2.6211922 -1.6954849 6
3.1438885 -1.974452 -1.7305261 9
2.9966285 -1.9112694 0.93821216 4
3.9469316 -2.517379 0.90463036 5
8.8106928 -5.6195183 1.4619888 23
12.532058 -7.9930296 1.2905058 3
13.805374 -8.8051596 0.84238243 33
13.835988 -8.8246841 0.55385995 26
13.846124 -10.32058 0.4802644 35
11.2072 -6.0521307 0.27925545 0
13.86232 -8.8414803 0.26345649 25
13.850766 -10.324041 0.17488039 31
10.375658 -5.6030798 0.049805686 0
13.877571 -8.8512068 -0.0272917 27
13.895981 -10.357743 -0.13067897 32
10.086233 -5.446784 -0.15406047 0
13.821047 -8.815155 -0.31705016 40
13.911188 -10.369078 -0.4379749 33
9.8360081 -5.311657 -0.34798118 0
9.449831 -6.0271645 -0.41549516 0
13.877162 -10.343716 -0.74357915 38
9.0521622 -4.8883634 -0.50225484 0
8.8225698 -5.6270933 -0.57313836 0
13.909313 -10.367681 -1.0519403 38
8.9340782 -4.8245955 -0.67564362 9
8.8732252 -5.6594019 -0.76270717 3
13.946641 -10.395504 -1.3628825 31
8.8380651 -4.7727466 -0.8461023 1
8.6254377 -5.5013614 -0.92240745 1
12.693033 -9.4610939 -1.5204628 4
8.8866577 -4.7989874 -1.0296254 46
8.6004276 -5.4854097 -1.10024 21
8.9409294 -5.7025838 -1.3317883 0
9.3073082 -5.9362631 -1.5817355 2
8.3636541 -5.334394 -1.5986954 3
7.6055789 -4.8508887 -1.6133589 4
6.9953194 -4.4616613 -1.6318758 4
6.4499154 -4.1137991 -1.6401892 3
5.9952865 -3.8238332 -1.6507074 4
5.6015058 -3.5726774 -1.6595801 5
4.1616592 -2.6543341 -1.6980873 7
3.1086307 -1.9827052 -1.7186964 9
3.2915967 -2.1318753 1.0351982 6
3.929261 -2.5448725 0.90463036 5
8.8177967 -5.7110405 1.4697477 23
13.837268 -8.9620113 1.4313197 30
13.803919 -8.9404125 0.84608161 32
13.83444 -8.9601803 0.55628854 30
13.843894 -10.470055 0.48271075 37
10.989407 -6.0339856 0.27487153 0
13.85397 -8.9728289 0.26448187 27
13.858108 -10.480803 0.17589267 32
10.697429 -5.8736677 0.051545843 0
13.882587 -8.9913645 -0.027424345 27
13.890326 -10.505171 -0.13131231 33
11.211928 -6.1561656 -0.17190696 0
13.833015 -8.9592581 -0.31875181 44
13.930949 -10.535893 -0.44090214 30
9.8056974 -5.3840423 -0.34823009 0
9.5954056 -6.2146759 -0.4237932 0
13.877921 -10.495789 -0.74752796 38
8.9897985 -4.9360547 -0.50069445 0
8.8065367 -5.7037473 -0.57466966 0
13.903469 -10.51511 -1.0570246 37
8.97015 -4.9252663 -0.68095529 170
8.8334999 -5.721211 -0.76270717 2
13.950059 -10.550346 -1.3703812 27
8.7870626 -4.8247375 -0.84442347 1
8.6470089 -5.6004257 -0.92887294 0
12.65843 -9.5734949 -1.5242869 3
8.9087505 -4.8915529 -1.0361164 6
8.5986404 -5.5690989 -1.1049584 23
8.9541988 -5.7993846 -1.339763 1
9.2722855 -6.0054002 -1.5828701 3
8.332839 -5.3969469 -1.5999683 3
7.5715284 -4.9038672 -1.6133589 4
6.9640012 -4.5103889 -1.6318758 4
6.4374528 -4.1693583 -1.6443819 4
5.9749861 -3.8698313 -1.6525164 4
5.582942 -3.6159155 -1.6615189 6
4.1430273 -2.6833231 -1.6980873 7
3.1099281 -2.0142136 -1.7271461 10
3.2410884 -2.1314268 1.0239682 7
3.9081175 -2.5700831 0.90387148 1
8.8174305 -5.7985787 1.4763981 22
13.840958 -9.1021852 1.4382393 27
13.804585 -9.0782661 0.84998631 32
13.828336 -9.0938854 0.55858225 26
13.837079 -10.617565 0.48504591 34
13.806855 -7.7069054 0.34668007 37
13.857824 -9.1132774 0.26576358 24
13.860758 -10.635734 0.17686445 33
10.509469 -5.8663239 0.050836265 0
13.893005 -9.1364136 -0.027570255 26
13.892808 -10.660327 -0.13203613 34
10.110481 -5.6436114 -0.15561934 0
13.840303 -9.1017551 -0.32037613 40
13.917331 -10.679144 -0.44281998 32
9.8272171 -5.4854951 -0.35034588 0
13.873469 -9.1235657 -0.61553741 39
13.87723 -10.648373 -0.75147676 35
8.9690742 -5.0064845 -0.50147468 0
8.8365812 -5.8111734 -0.57926351 1
13.905743 -10.670252 -1.062835 39
8.8519068 -4.9410825 -0.67458129 15
8.8300114 -5.8068523 -0.76588756 0
13.958322 -10.710597 -1.3785048 24
8.7566452 -4.887908 -0.84475929 1
8.647644 -5.686923 -0.93318325 0
12.619717 -9.6834497 -1.5277286 3
8.7736168 -4.8973813 -1.0243515 3
8.6027498 -5.6573992 -1.1105347 27
9.1986742 -6.0492949 -1.3826275 1
9.253294 -6.0852146 -1.5868415 2
8.3114567 -5.465837 -1.6031504 3
7.5502691 -4.9652596 -1.6161758 4
6.9356227 -4.5610518 -1.6326476 3
6.4147243 -4.2184954 -1.6460589 3
5.9575911 -3.917872 -1.6552299 4
5.5672903 -3.6611996 -1.664427 6
4.1305146 -2.7163374 -1.7006898 7
3.0988202 -2.0378673 -1.7288362 9
3.1875315 -2.128231 1.0117173 8
5.6897731 -3.7989118 1.3220353 20
8.8228579 -5.8907905 1.484157 22
13.833416 -9.2362089 1.444121 31
13.794027 -9.2099094 0.85327446 32
13.837656 -9.2390394 0.56155056 27
13.835184 -10.770399 0.48760346 37
13.811844 -7.836657 0.34817061 52
13.857062 -9.251997 0.26698121 24
13.858761 -10.788754 0.17779574 32
10.558712 -5.9908733 0.051275529 0
13.892089 -9.275383 -0.027696267 24
13.890641 -10.813571 -0.13272978 32
10.109101 -5.7357697 -0.15621065 0
13.836294 -9.2381296 -0.3217684 47
13.924475 -10.839911 -0.44544441 32
9.8373642 -5.5815902 -0.35208827 0
13.872599 -9.2623701 -0.61835283 35
13.868773 -10.796548 -0.75508219 46
8.9547529 -5.0808077 -0.50264496 0
8.8522654 -5.9104252 -0.5829823 0
13.915977 -10.833295 -1.0693718 37
8.8067818 -4.996851 -0.67378455 3
8.7925739 -5.8705711 -0.76617664 0
13.946141 -10.856777 -1.3847537 26
8.7431078 -4.9607234 -0.8467738 1
8.6474895 -5.7737017 -0.93749356 0
12.548663 -9.7688704 -1.5273461 2
8.7807455 -4.9820786 -1.0292197 2
8.6027336 -5.7438192 -1.115682 33
9.1826239 -6.1309967 -1.3866149 1
9.2204647 -6.1562624 -1.5885435 2
8.2698107 -5.5215359 -1.602514 3
7.5186963 -5.0200357 -1.6168799 4
6.9362535 -4.6311541 -1.640367 4
6.381865 -4.2610035 -1.6452204 2
5.9236131 -3.9550409 -1.6534209 4
5.541595 -3.6999774 -1.664427 7
4.1083045 -2.7430069 -1.6993886 6
3.0815024 -2.0574384 -1.7271461 9
3.1686444 -2.1493685 1.0106964 6
4.8199821 -3.269511 1.1254755 5
8.8155003 -5.9797683 1.4902532 22
13.837893 -9.3865786 1.4517325 26
13.805487 -9.3645964 0.85820669 26
13.835727 -9.3851099 0.56424904 27
13.818604 -10.921108 0.48982742 35
13.799055 -7.9636779 0.34931043 44
13.861686 -9.4027185 0.2683911 24
13.857759 -10.952052 0.178808 32
10.552623 -6.0901046 0.051461369 0
13.883308 -9.4173851 -0.027815647 24
13.889456 -10.977103 -0.13348377 31
10.136066 -5.8497033 -0.15728574 0
13.834396 -9.3842068 -0.32331535 45
13.919937 -11.001193 -0.44786692 34
9.7857971 -5.6475563 -0.35171491 0
13.867183 -9.4064465 -0.6211682 37
13.870781 -10.962343 -0.7595461 40
8.9345703 -5.1562982 -0.50362021 0
8.8847256 -6.0267248 -0.58801371 0
13.914505 -10.9969 -1.0754244 37
8.7664604 -5.059279 -0.67351896 1
8.7955275 -5.9662199 -0.77022439 0
13.956915 -11.030417 -1.3938146 22
8.7168665 -5.0306578 -0.84778106 1
8.6675758 -5.879427 -0.94431823 0
12.479843 -9.863059 -1.5277286 3
8.7370968 -5.0423326 -1.0284083 1
8.6031828 -5.8357477 -1.1212583 3
9.203124 -6.2427025 -1.3965833 1
9.1816425 -6.2281313 -1.5896782 2
8.2487221 -5.5953088 -1.6063325 3
7.4882131 -5.0794368 -1.6182884 4
6.8988705 -4.6796713 -1.6395952 3
6.3569322 -4.3120613 -1.6468976 3
5.9073606 -4.0071063 -1.6570389 4
5.5143237 -3.7404997 -1.664427 7
4.0880871 -2.7730486 -1.6993886 6
3.0753391 -2.0860772 -1.7322161 8
3.1089661 -2.1407304 0.99640375 3
5.5151391 -3.7975411 1.2939553 18
8.8290052 -6.0793591 1.4996747 24
13.82454 -9.5191174 1.4572682 32
13.795705 -9.4992628 0.86170036 29
13.839014 -9.5290842 0.56708241 29
13.829375 -11.087345 0.49294096 35
13.794868 -8.0901623 0.3506256 49
13.848412 -9.5355549 0.26941648 24
13.855859 -11.108577 0.1797798 34
10.492598 -6.1535068 0.051376898 1
13.876526 -9.5549135 -0.027935028 27
13.890502 -11.136352 -0.13423774 29
10.146734 -5.9506712 -0.15809205 0
13.841011 -9.5304594 -0.32501704 44
13.930152 -11.16814 -0.45069322 33
9.7357864 -5.7096658 -0.35134152 0
13.876897 -9.5551682 -0.62457633 40
13.874978 -11.123906 -0.76400995 35
8.9121408 -5.2266297 -0.50440043 0
8.9378319 -6.1542931 -0.59435761 0
13.899696 -11.143723 -1.0802665 37
8.7653542 -5.1405449 -0.67617482 3
8.9573879 -6.1677589 -0.78815001 8
13.954241 -11.187452 -1.4013132 24
8.7159176 -5.1115518 -0.85113859 1
8.6788177 -5.9759445 -0.95006531 0
12.413789 -9.9524355 -1.5281109 3
8.7291431 -5.1193085 -1.0316538 1
8.6244678 -5.9385209 -1.1294082 2
9.221426 -6.3495665 -1.4060534 2
9.1542444 -6.303308 -1.5925149 1
8.2094593 -5.6527596 -1.6063325 3
7.4622979 -5.1382899 -1.620401 4
6.8660321 -4.7277207 -1.6395952 4
6.3427801 -4.3674273 -1.6510903 3
5.8696141 -4.0416207 -1.6543254 5
5.4944682 -3.7833078 -1.6663657 6
4.0748587 -2.8058119 -1.701991 7
3.0457702 -2.0972159 -1.7237662 9
5.2146921 -3.6445897 1.6793896 16
5.440207 -3.8022037 1.2825716 26
8.8285599 -6.1703506 1.5068793 24
13.839404 -9.6724691 1.4659177 29
13.804359 -9.6479769 0.86642706 29
13.837686 -9.6712685 0.56978089 27
13.83539 -11.251738 0.49594331 34
13.806758 -8.2272139 0.35237917 49
13.856901 -9.6846981 0.27089044 23
13.852444 -11.265606 0.18075158 32
13.840878 -8.2475452 0.068052001 30
13.891447 -9.7088423 -0.028100835 25
13.886894 -11.293623 -0.13496155 32
10.317968 -6.1483026 -0.16142483 0
13.839698 -9.6726751 -0.32656398 54
13.929401 -11.328193 -0.4532167 31
9.774682 -5.8245678 -0.35420403 0
13.872102 -9.695322 -0.62739176 38
13.886894 -11.293623 -0.76898891 32
8.9063234 -5.3071275 -0.50615585 0
9.0517864 -6.3263655 -0.60485786 0
13.908293 -11.311027 -1.0870454 37
8.8012533 -5.2445183 -0.68175203 4
9.0056705 -6.2941346 -0.79624546 50
13.956236 -11.350017 -1.4094368 24
8.673171 -5.1681957 -0.85046709 1
8.7119894 -6.0888786 -0.95832676 0
12.362539 -10.05393 -1.5304054 3
8.8846254 -5.294198 -1.0543721 2
8.6773291 -6.0646544 -1.1418476 0
10.211344 -7.1367893 -1.5645522 1
9.1067705 -6.3647943 -1.5919476 1
8.1730318 -5.7121968 -1.606969 3
7.4294715 -5.1925168 -1.6211052 4
6.8199916 -4.7665462 -1.6365074 4
6.3121352 -4.4116015 -1.6510903 4
5.8540297 -4.0914278 -1.6579434 4
5.4806452 -3.8304665 -1.6702433 7
4.0737724 -2.847192 -1.7097983 7
3.0399694 -2.1246588 -1.7288362 10
5.2017398 -3.6898556 1.6834731 22
5.375092 -3.8128231 1.2734646 28
8.8337345 -6.266212 1.5151924 21
13.836549 -9.8149595 1.4728373 29
13.808352 -9.7949581 0.87094826 31
13.841568 -9.8185196 0.5727492 29
13.830527 -11.409119 0.49861208 35
13.813984 -8.362751 0.35404506 40
13.854197 -9.8274784 0.27217215 25
13.859849 -11.433308 0.18188532 34
13.837711 -8.3771152 0.068322316 36
13.895105 -9.8564968 -0.028246744 28
13.884851 -11.453932 -0.13571553 38
10.237157 -6.1974006 -0.16083354 1
13.84686 -9.8222742 -0.328343 37
13.893161 -11.460787 -0.45462984 38
9.7885036 -5.9257932 -0.35619533 0
13.882327 -9.8474321 -0.63094807 38
13.890946 -11.45896 -0.77362448 38
8.8861456 -5.3795214 -0.5071311 0
13.906907 -9.8648682 -0.93386549 36
13.902906 -11.468826 -1.0928559 54
8.8019829 -5.3285708 -0.68467343 5
13.933621 -9.8838186 -1.2380258 31
13.898192 -11.464937 -1.4116238 33
8.6607466 -5.2430687 -0.85281736 1
8.7667513 -6.2186971 -0.96910256 0
12.335049 -10.175465 -1.5357591 3
8.8542585 -5.3602171 -1.0551834 1
8.8391352 -6.2700429 -1.168871 0
10.174222 -7.2170868 -1.5665458 2
9.0653448 -6.4305048 -1.5925149 1
8.1426191 -5.7759686 -1.6088783 3
7.3930411 -5.244256 -1.6211052 4
6.8025556 -4.8253946 -1.640367 4
6.2907538 -4.462348 -1.6536058 4
5.8221469 -4.1299415 -1.6570389 4
5.4506059 -3.8663888 -1.669274 7
4.0507121 -2.8733735 -1.708497 7
3.0339341 -2.152122 -1.733906 10
5.1897116 -3.7333078 1.6875567 22
5.2922993 -3.8071063 1.259804 23
8.833786 -6.3547354 1.522397 22
13.835849 -9.9530544 1.479757 32
13.807941 -9.9329786 0.87505841 30
13.84754 -9.9614649 0.57571751 29
13.782165 -11.523676 0.49961284 36
13.81273 -8.4876833 0.35544792 42
13.863387 -9.9728651 0.27364612 26
13.811335 -11.548066 0.18224974 38
13.836374 -8.5022125 0.06859263 40
13.913854 -10.009169 -0.028419182 27
13.845405 -11.576553 -0.13607743 39
13.865918 -8.5203667 -0.21872716 31
13.836602 -9.9535971 -0.32965791 37
13.875134 -11.60141 -0.45654771 39
9.8273325 -6.0387259 -0.35905784 0
13.881608 -9.9859724 -0.63391167 41
13.826906 -11.561086 -0.77431124 46
8.90133 -5.4697132 -0.51005685 0
13.909262 -10.005865 -0.93845934 38
13.866359 -11.594073 -1.0960032 53
8.7494459 -5.3763833 -0.68334556 3
13.935774 -10.024938 -1.2440975 31
13.886095 -11.610575 -1.4181852 29
8.6937017 -5.3421297 -0.85953248 1
12.741933 -9.1661272 -1.4152201 46
12.273404 -10.262156 -1.5365239 3
8.852416 -5.4396567 -1.0592403 1
11.467232 -8.2491493 -1.5236073 4
10.129354 -7.2867241 -1.5670443 2
9.0257111 -6.4927998 -1.5930822 1
8.1233664 -5.8436823 -1.6126968 3
7.3644896 -5.2977715 -1.6225137 4
6.7958913 -4.888741 -1.6465425 4
6.2800694 -4.5176754 -1.6586372 4
5.8009534 -4.1730151 -1.6588479 4
5.4248428 -3.9024537 -1.669274 7
4.0315657 -2.9001758 -1.708497 7
3.0107646 -2.1658452 -1.7288362 10
5.1572747 -3.7648876 1.6855149 22
5.2116671 -3.804595 1.2469025 27
8.8340006 -6.4489527 1.5301559 22
13.843273 -10.105796 1.4880605 30
13.809242 -10.080954 0.87957966 34
13.842237 -10.105041 0.57841599 28
13.771517 -11.679094 0.50217038 37
13.810814 -8.6199007 0.35693845 50
13.864492 -10.121286 0.275056 25
13.80664 -11.70888 0.18326201 40
13.841156 -8.6388378 0.068913631 41
13.917944 -10.160307 -0.028571725 29
13.82831 -11.727259 -0.13671078 39
13.856994 -8.6487226 -0.21953347 27
13.841068 -10.104187 -0.33143693 37
13.885293 -11.775583 -0.45957586 38
9.964694 -6.219378 -0.36565405 1
13.882583 -10.134493 -0.63717163 40
13.825103 -11.724538 -0.7787751 44
8.8832645 -5.5444126 -0.51122719 0
13.91649 -10.159245 -0.94370949 37
13.876432 -11.768068 -1.1032664 50
8.715085 -5.4394455 -0.68361109 3
13.949225 -10.183144 -1.2516146 32
13.883776 -11.774296 -1.4263088 31
8.6900101 -5.4237947 -0.86289001 1
12.745202 -9.3041887 -1.4227632 186
12.207534 -10.35274 -1.5372888 4
8.8749914 -5.5392489 -1.0665426 1
11.470392 -8.373558 -1.5317572 3
10.097469 -7.3713036 -1.5700349 1
9.0057478 -6.5743303 -1.597621 2
8.0791817 -5.8979235 -1.6120603 2
7.3464065 -5.3629866 -1.626739 3
6.7552562 -4.931438 -1.6449987 3
6.226265 -4.5452662 -1.6527673 4
5.7842674 -4.2226019 -1.6624658 4
5.4037356 -3.9448078 -1.6712127 7
4.0142756 -2.9304812 -1.7097983 7
3.0043557 -2.1932244 -1.733906 8
5.1277571 -3.7984982 1.684494 22
5.1344862 -3.8034828 1.2347598 29
8.8301439 -6.5411224 1.5373605 23
13.855639 -10.263867 1.4970559 27
13.812354 -10.231804 0.88430637 31
13.842025 -10.253782 0.5813843 27
13.786649 -11.85839 0.50572872 38
13.814473 -8.7567873 0.35860434 48
13.864198 -10.270207 0.27646589 23
13.809467 -11.878016 0.18439576 42
13.841318 -8.7738047 0.069217741 35
13.907742 -10.302464 -0.028697737 25
13.831009 -11.896544 -0.13755523 36
13.873974 -8.7945042 -0.22076982 27
13.844103 -10.255322 -0.33321592 37
13.875503 -11.934816 -0.4619984 38
13.898899 -8.8103037 -0.51226413 32
13.885366 -10.285889 -0.6405797 38
13.821686 -11.888526 -0.78323901 54
8.8915825 -5.636241 -0.51395792 0
13.919042 -10.310834 -0.94874084 35
13.854476 -11.91673 -1.1081084 45
8.7004957 -5.5151138 -0.68547022 3
13.94191 -10.327775 -1.2573971 32
13.89798 -11.954149 -1.436307 28
8.6653986 -5.4928665 -0.86423302 0
12.740759 -9.4379959 -1.4295878 114
12.156091 -10.455888 -1.5399656 4
8.8461866 -5.6074653 -1.0677596 1
11.440415 -8.4747372 -1.5356177 2
10.058518 -7.4510674 -1.5720285 2
8.9723577 -6.6464696 -1.5998902 3
8.0631952 -5.9729881 -1.6171517 2
7.2803111 -5.3930492 -1.620401 4
6.7269711 -4.9831505 -1.6465425 3
6.2163801 -4.6049194 -1.6586372 5
5.7609086 -4.267519 -1.6642748 4
5.3667083 -3.9755065 -1.6683046 6
4.0119553 -2.9719434 -1.7176056 7
2.980231 -2.2076712 -1.7288362 9
5.0825648 -3.82026 1.6783687 22
5.0701356 -3.8109179 1.2256527 30
8.8254318 -6.6335487 1.5445652 23
13.856915 -10.415414 1.5050135 29
13.801262 -10.373583 0.88821101 29
13.849997 -10.410214 0.58475739 33
13.781866 -12.02269 0.5086199 40
13.813529 -8.8919783 0.36018255 37
13.865695 -10.422013 0.27793989 22
13.807587 -12.045127 0.18548901 36
13.840269 -8.9091911 0.069521844 35
13.89943 -10.447371 -0.028830381 26
13.844071 -12.076955 -0.13852032 34
13.866048 -8.925786 -0.2216299 27
13.842504 -10.404582 -0.33491758 35
13.912375 -12.13654 -0.46603596 28
13.900928 -8.9482384 -0.51462883 30
13.877127 -10.430606 -0.6435433 38
13.813638 -12.050406 -0.7875312 46
8.89569 -5.7262907 -0.51649356 0
13.916961 -10.460546 -0.95355344 34
13.885275 -12.112899 -1.1173084 40
8.8060884 -5.668613 -0.69689029 2
13.933253 -10.472794 -1.2631795 32
13.964439 -12.181958 -1.4519292 26
8.6469488 -5.5661726 -0.86624759 0
12.728699 -9.5674009 -1.4356942 64
12.091801 -10.548351 -1.5411129 3
8.8904743 -5.7229333 -1.0779017 3
11.390512 -8.5615654 -1.5369045 1
10.015775 -7.5282588 -1.5735238 2
8.9510603 -6.7279768 -1.604429 3
8.0213013 -6.0291324 -1.6171517 2
7.2550745 -5.4532056 -1.6232179 3
6.707706 -5.0417814 -1.6504022 3
6.171576 -4.6388044 -1.655283 4
5.7216325 -4.3006091 -1.6615614 4
5.3543353 -4.0245337 -1.6731515 6
3.9638979 -2.979425 -1.7058947 6
2.9734409 -2.2349575 -1.733906 9
5.0188675 -3.8275065 1.6661178 23
5.0090561 -3.820024 1.2173046 26
8.8198557 -6.7262297 1.5517699 21
13.856745 -10.567479 1.512971 31
13.814268 -10.535086 0.89375979 29
13.850096 -10.562409 0.58786058 35
13.826368 -12.232539 0.51340139 32
13.82141 -9.0341463 0.3620238 38
13.872104 -10.579193 0.27954203 24
13.851974 -12.255194 0.18723013 39
13.844697 -9.049367 0.069859736 37
13.902491 -10.602366 -0.028989555 26
13.89423 -12.292579 -0.13987747 28
13.863658 -9.0617609 -0.22259748 26
13.84903 -10.561596 -0.3368513 38
13.932129 -12.326108 -0.46956885 30
13.881624 -9.0735035 -0.5162468 36
13.883431 -10.587831 -0.64724779 37
13.881821 -12.281599 -0.79628724 32
8.9056597 -5.8210435 -0.51941931 0
13.913463 -10.610734 -0.9583661 34
13.899055 -12.296848 -1.1252978 34
8.8063889 -5.7561569 -0.7000773 1
13.945453 -10.635131 -1.2709858 31
13.974627 -12.363708 -1.4619274 22
8.687953 -5.6787429 -0.87430567 0
12.731287 -9.7091789 -1.4435964 70
12.041721 -10.653617 -1.5441722 3
8.8536348 -5.7870383 -1.0783074 1
11.365248 -8.6674051 -1.5416229 1
9.969285 -7.6028118 -1.5745206 2
8.875536 -6.768693 -1.5993229 2
7.9884353 -6.0921688 -1.619061 3
7.2450056 -5.5252118 -1.6295558 3
6.6692233 -5.0861068 -1.6496303 2
6.1545906 -4.6936355 -1.6594757 4
5.7131572 -4.3569884 -1.6678928 4
5.3230224 -4.0594621 -1.6721821 6
3.943001 -3.0070255 -1.7058947 6
2.9548826 -2.253463 -1.7322161 9
4.9417472 -3.8263097 1.6497833 21
4.9405503 -3.8253829 1.2074387 15
8.8235607 -6.8319311 1.5611913 20
13.838777 -10.715126 1.5195446 28
13.809319 -10.692317 0.8984865 32
13.841838 -10.717496 0.5908289 33
13.82856 -12.41637 0.51684856 36
13.801454 -9.166194 0.36325127 34
13.870077 -10.739362 0.28108007 27
13.857007 -12.441912 0.18852584 43
13.844632 -9.1948709 0.070197634 39
13.909792 -10.770112 -0.029168626 26
13.893038 -12.474263 -0.14078224 29
13.866827 -9.2096119 -0.22372633 26
13.850291 -10.724041 -0.33878499 37
13.924713 -12.502705 -0.47239515 30
13.898 -9.2303152 -0.51935822 32
13.890781 -10.755392 -0.65124863 38
13.868735 -12.452443 -0.80075109 33
8.9093428 -5.9171138 -0.52215004 0
13.923734 -10.780907 -0.96449125 36
13.906583 -12.486425 -1.1332872 38
8.8005295 -5.8448453 -0.7029987 1
13.955444 -10.80546 -1.2790813 33
13.954836 -12.529751 -1.4694262 23
8.6759758 -5.7621231 -0.8773275 0
12.735372 -9.8607788 -1.4522171 20
11.975156 -10.752238 -1.5457017 2
8.7579384 -5.8165584 -1.0718164 0
11.323419 -8.7675276 -1.5446255 1
9.9383907 -7.6951246 -1.578508 2
8.8475962 -6.8505411 -1.6032943 2
7.9498081 -6.1553993 -1.6203338 2
7.2136497 -5.5854044 -1.6316684 3
6.6162448 -5.1228442 -1.6457705 2
6.1231112 -4.7410197 -1.6603142 5
5.671823 -4.3915944 -1.6651794 4
5.3053966 -4.1078768 -1.6760596 6
3.9268341 -3.0404799 -1.708497 6
2.9526176 -2.2861609 -1.7406659 9
4.8753757 -3.8296583 1.6365116 21
4.1786723 -3.2823904 1.0268162 4
8.8317242 -6.9374108 1.571167 24
13.848246 -10.877941 1.5288861 28
13.809729 -10.847686 0.90341872 30
13.857848 -10.885484 0.5947417 34
13.827277 -12.590679 0.52007329 39
13.82002 -9.3182106 0.36544323 37
13.879684 -10.902637 0.28281039 24
13.861489 -12.621832 0.18978105 40
13.843117 -9.3337841 0.070518635 39
13.906611 -10.923787 -0.029321168 29
13.894338 -12.651742 -0.14168701 33
13.865205 -9.3486767 -0.22474766 28
13.85371 -10.882233 -0.34071869 38
13.925787 -12.680379 -0.47542331 29
13.892893 -9.3673458 -0.5215984 31
13.881367 -10.903958 -0.65436041 40
13.890792 -12.648514 -0.80710357 37
8.9373827 -6.0260706 -0.52624607 0
13.920368 -10.934594 -0.9695226 35
13.910588 -12.666539 -1.1407924 38
8.7760572 -5.9172959 -0.70432663 1
13.945552 -10.954376 -1.2851529 31
13.949581 -12.702045 -1.4781746 22
8.6884155 -5.8582029 -0.88269955 0
13.098557 -10.289053 -1.5017856 3
11.932183 -10.865067 -1.5499083 1
8.7303162 -5.8864551 -1.0734392 0
11.271316 -8.8537359 -1.5459123 1
9.915637 -7.788836 -1.5834923 2
8.8213501 -6.9292626 -1.6072657 1
7.9221683 -6.2229457 -1.623516 2
7.177577 -5.638061 -1.6323727 4
6.6019239 -5.1858797 -1.6511742 3
6.0837116 -4.7788191 -1.6586372 4
5.6440892 -4.4334908 -1.6660838 4
5.2918472 -4.1568012 -1.6809065 6
3.9233587 -3.0818391 -1.7163044 6
2.9137766 -2.2888019 -1.7271461 10
4.8061762 -3.8298585 1.6222188 20
4.1095839 -3.2747707 1.0154325 4
8.8326464 -7.0383992 1.5800343 27
12.34771 -9.8394194 1.3707732 2
13.80864 -11.003579 0.90835094 32
13.856551 -11.041758 0.59797984 36
13.821293 -12.762858 0.52318686 36
13.817332 -9.4573822 0.36710912 39
13.872046 -11.054104 0.28422028 24
13.86119 -12.799701 0.19099578 43
13.846935 -9.4776449 0.070873424 34
13.901961 -11.077943 -0.029473709 26
13.905585 -12.840696 -0.14271241 30
13.872213 -9.4949465 -0.22593026 30
13.852465 -11.038501 -0.34257504 39
13.933867 -12.866813 -0.47875431 28
13.896441 -9.5115299 -0.524212 32
13.889312 -11.067863 -0.65836126 40
13.878487 -12.815672 -0.81156743 40
8.9511433 -6.1266809 -0.52956194 0
13.918657 -11.091248 -0.97477269 35
13.927419 -12.860858 -1.1495081 39
8.7872305 -6.0144897 -0.70857596 0
13.943619 -11.111138 -1.2920918 33
13.960176 -12.891106 -1.4887977 20
8.6966438 -5.9524865 -0.8877359 0
12.998367 -10.357903 -1.4985529 5
11.89992 -10.988625 -1.5556444 1
8.7612534 -5.9967093 -1.0823642 0
11.249664 -8.9644279 -1.5514886 2
9.8548117 -7.8529239 -1.5824955 2
8.775857 -6.9931459 -1.607833 1
7.8785315 -6.2781014 -1.623516 2
7.1318822 -5.683125 -1.6309643 4
6.5440731 -5.2147226 -1.6457705 2
6.0563192 -4.8260498 -1.6603142 4
5.6099534 -4.4703579 -1.6651794 4
5.2687683 -4.1984806 -1.6828452 7
3.8958316 -3.1044397 -1.713702 6
2.9005623 -2.3113475 -1.7288362 9
4.7402215 -3.8317108 1.608947 21
8.8295069 -7.1372442 1.5883473 24
