# .PCD v0.7 - Point Cloud Data file format
VERSION 0.7
FIELDS x y z intensity
SIZE 4 4 4 4
TYPE F F F F
COUNT 1 1 1 1
WIDTH 1363
HEIGHT 1
VIEWPOINT 0 0 0 1 0 0 0
POINTS 1363
DATA ascii
6.0579348 -7.252924 -1.6901184 2
5.5225959 -6.6119838 -1.6944027 3
5.0871367 -6.0906258 -1.7014028 4
4.7108026 -5.6400561 -1.7058817 4
4.3834205 -5.2480946 -1.7080492 6
3.2491293 -3.8900528 -1.7436299 6
2.4240336 -2.902199 -1.7626355 7
2.4992204 -3.0371923 1.0382609 18
3.4661853 -4.2123022 1.0541372 22
3.9594073 -4.8116932 0.8717621 2
8.1026993 -9.8468533 1.1071364 10
13.78784 -16.755754 1.1163263 18
9.4850044 -11.526707 0.50380343 8
13.8102 -19.519287 0.66496438 54
13.827463 -14.515192 0.43953142 64
9.4866457 -11.528702 0.23923208 26
13.844864 -19.568281 0.24266222 39
13.880323 -14.570681 0.084997423 37
9.4624338 -11.499278 -0.024691859 26
2.6960328 -3.8105633 -0.035195559 0
12.116364 -12.718987 -0.23608987 0
9.5267477 -11.577436 -0.2899783 6
10.423022 -14.731863 -0.4555383 2
11.940617 -12.5345 -0.53889793 0
9.4838905 -11.525353 -0.55330205 20
9.2441883 -13.065703 -0.68760896 0
9.4711266 -11.509842 -0.81639403 26
8.9290457 -12.620282 -0.93742532 0
11.887004 -12.478221 -1.1467882 0
9.4554405 -11.49078 -1.0784298 40
2.7016912 -3.8185611 -0.36649731 1
12.621794 -13.249557 -1.5414506 5
9.484971 -11.526667 -1.3458959 40
2.6630628 -3.7639637 -0.44283095 15
10.773172 -11.308992 -1.5923088 2
9.4710569 -11.509757 -1.6076802 26
8.4278898 -10.242043 -1.6657321 2
7.381721 -8.9706802 -1.6645666 2
6.621891 -8.0472918 -1.6795212 2
5.9920979 -7.2819324 -1.6865973 3
5.4789686 -6.658349 -1.6959466 2
5.0498104 -6.1368122 -1.7039185 4
4.6619067 -5.6654096 -1.7031683 4
4.3571625 -5.2950678 -1.7128961 6
3.2253344 -3.9196067 -1.7462324 5
2.3911772 -2.9058921 -1.7541857 5
2.4633365 -3.0365448 1.0321355 18
3.4342194 -4.2333479 1.0533783 18
6.234231 -7.6849108 1.3844004 17
7.9910784 -9.8505697 1.1012547 10
9.3645124 -11.543596 0.76469994 43
9.3690414 -11.549179 0.5019145 38
13.821623 -14.713387 0.44260016 51
9.3429365 -11.517 0.23762994 26
2.6510046 -3.8029549 0.046929006 16
13.879593 -14.775098 0.085622527 35
9.3315229 -11.502931 -0.024559215 33
2.637341 -3.783354 -0.034773335 26
11.950596 -12.721642 -0.23458473 1
9.3726225 -11.553594 -0.28773519 34
2.6342893 -3.7789764 -0.11628188 32
11.778909 -12.538878 -0.5355376 0
9.3503132 -11.526093 -0.55019027 41
2.6418414 -3.7898099 -0.19847091 20
11.729564 -12.486349 -0.83637625 0
9.3377008 -11.510545 -0.81180018 41
2.6485631 -3.7994528 -0.28084025 32
11.723086 -12.479454 -1.1393518 0
9.3297482 -11.500742 -1.0732256 39
2.6270773 -3.7686305 -0.35993597 31
12.654522 -13.470985 -1.5568954 3
9.3540726 -11.530726 -1.3387121 41
2.6207814 -3.7595987 -0.44015408 48
10.672162 -11.360724 -1.5890633 2
9.3378582 -11.510739 -1.5986724 32
8.3561811 -10.300631 -1.6657321 2
7.3338814 -9.0404453 -1.6679707 2
6.5680366 -8.0963917 -1.6801577 3
5.9684014 -7.357224 -1.6943437 3
5.4471869 -6.714725 -1.7005782 3
5.0019164 -6.1658416 -1.7022413 4
4.6418791 -5.7220249 -1.7104042 4
4.3103104 -5.313302 -1.7090186 6
3.190743 -3.9332159 -1.7423288 6
2.3616958 -2.9112527 -1.7474258 5
2.4444931 -3.0566888 1.0331564 17
3.389864 -4.2388172 1.0488248 8
6.1556869 -7.6973095 1.3788583 22
7.8872695 -9.8625479 1.096411 9
9.2387857 -11.552536 0.76100081 29
9.2382488 -11.551864 0.49921602 32
2.6031392 -3.7904239 0.12787776 43
13.829988 -14.929804 0.44619498 53
9.21984 -11.528846 0.23654048 30
2.6130693 -3.8048832 0.046726551 53
13.884836 -14.989014 0.086298317 36
9.2085199 -11.51469 -0.024446465 30
2.6040716 -3.7917817 -0.034682855 35
11.717435 -12.649252 -0.23173575 0
9.2417803 -11.55628 -0.28618824 41
2.5987887 -3.7840893 -0.11587813 41
11.634027 -12.559212 -0.532924 0
9.214695 -11.522412 -0.54693031 43
2.6040082 -3.7916892 -0.19761246 40
11.582376 -12.503452 -0.83208513 0
9.2122135 -11.519309 -0.80786258 46
2.6084125 -3.7981026 -0.27938762 44
11.570582 -12.490721 -1.1329778 0
9.1993961 -11.503282 -1.0674431 42
2.6029618 -3.7901657 -0.36024842 39
12.57913 -13.579473 -1.5592456 4
9.2235813 -11.533525 -1.3315282 49
2.5922174 -3.7745209 -0.43977165 40
10.606111 -11.449551 -1.5910916 2
9.215045 -11.52285 -1.5913804 32
8.3014174 -10.380415 -1.6692212 2
7.2755342 -9.0976095 -1.6691054 2
6.5187526 -8.1513014 -1.6820669 3
5.9242711 -7.4079385 -1.6964563 3
5.4099813 -6.7648506 -1.7036659 3
4.9611912 -6.2036662 -1.7030798 4
4.5993853 -5.7512493 -1.7094997 4
4.302197 -5.3796339 -1.7206511 6
3.1655686 -3.9583497 -1.7436299 6
2.3526354 -2.9418266 -1.7558756 5
2.4159105 -3.0645683 1.0300937 19
3.3358748 -4.2315373 1.0412357 4
6.065012 -7.6934319 1.3705453 19
5.864285 -7.4388103 0.82239473 13
9.110919 -11.557147 0.75709611 35
9.1004515 -11.543869 0.49611279 32
2.5676513 -3.7952578 0.12743297 34
13.836006 -15.147047 0.44978979 59
9.0871315 -11.526973 0.23519468 25
2.5685124 -3.7965307 0.046402622 38
13.890463 -15.206665 0.086991005 38
9.0808573 -11.519013 -0.024320453 31
2.5640886 -3.7899916 -0.034501903 37
11.618053 -12.718931 -0.23152073 0
9.108882 -11.554564 -0.28456393 49
2.5611038 -3.7855802 -0.11537343 37
11.4463 -12.530902 -0.52831906 0
9.0944338 -11.536235 -0.54455942 46
2.566277 -3.7932265 -0.19675402 46
11.400497 -12.480761 -0.82525837 0
9.0796423 -11.517473 -0.80326873 47
2.5639348 -3.7897644 -0.27745077 47
11.426574 -12.509308 -1.1274006 0
9.0669956 -11.501431 -1.0613716 42
2.5630307 -3.7884281 -0.35837376 43
12.484024 -13.666957 -1.5592456 3
9.0910435 -11.531935 -1.3239852 47
2.561341 -3.7859304 -0.43900684 40
10.531289 -11.52919 -1.5919031 2
9.0826712 -11.521315 -1.5823725 36
8.2533169 -10.469284 -1.6742054 2
7.2363567 -9.1792755 -1.6747787 2
6.4861345 -8.2276239 -1.6884311 3
5.8772845 -7.4553008 -1.6978648 3
5.3480434 -6.7839613 -1.6990343 3
4.9274459 -6.2504363 -1.706434 4
4.5711827 -5.7985182 -1.7140222 4
4.2621326 -5.4064898 -1.7196817 6
3.1425402 -3.9862938 -1.7462324 6
2.3297958 -2.955332 -1.7541857 6
2.4002814 -3.0866294 1.0321355 19
3.3101487 -4.2566681 1.0419946 0
4.6642032 -5.9979076 1.0629623 1
5.8686395 -7.5467458 0.8300063 7
8.992383 -11.563708 0.75360245 29
8.9844265 -11.553476 0.493954 31
2.5268941 -3.788918 0.12665458 38
13.836986 -15.351356 0.45312157 31
8.9712029 -11.53647 0.2341693 28
2.5299606 -3.7935164 0.046159677 38
13.899104 -15.420273 0.087683685 38
8.9526978 -11.512674 -0.024181176 31
2.534457 -3.8002584 -0.034441587 36
11.474531 -12.730346 -0.23033813 0
8.9878616 -11.557893 -0.28317165 44
2.5248473 -3.7858491 -0.11486873 39
11.349555 -12.591692 -0.52769679 0
8.9784641 -11.545809 -0.54218858 48
2.5321934 -3.7968643 -0.19606727 45
11.253274 -12.484874 -0.82057714 0
8.9540234 -11.514379 -0.79889363 22
2.5298824 -3.7933989 -0.27648237 43
11.252504 -12.484019 -1.1183708 0
8.9219456 -11.473128 -1.0532761 8
2.5245726 -3.7854373 -0.35649908 44
12.374425 -13.728727 -1.5568954 2
8.963007 -11.525931 -1.3164421 46
2.5229199 -3.7829592 -0.43671238 44
10.497221 -11.646075 -1.598394 2
8.9596767 -11.521649 -1.5742226 23
8.1837034 -10.523789 -1.6742054 2
7.1826124 -9.2364426 -1.6764808 2
6.4314265 -8.2704592 -1.6884311 2
5.8397975 -7.5096564 -1.7013859 2
5.3197994 -6.8409681 -1.7044379 3
4.8930874 -6.2922401 -1.7089497 3
4.5398021 -5.8379345 -1.7167357 4
4.2404766 -5.4530182 -1.7254981 6
3.1137118 -4.0040612 -1.7449311 7
2.3101447 -2.9707184 -1.7541857 5
2.3598518 -3.0787551 1.0239682 20
5.1056881 -6.6610804 1.6218081 20
4.5860677 -5.9831634 1.0546492 2
5.8424773 -7.622324 0.83381206 6
8.8628311 -11.562796 0.74949229 28
8.8524771 -11.549288 0.49112064 34
2.4981856 -3.8031249 0.12654339 36
13.841054 -15.573123 0.45680404 29
8.849082 -11.544858 0.23307985 26
2.4924355 -3.7943709 0.045957223 43
13.892087 -15.630543 0.088325687 35
8.8721056 -11.574896 -0.024181176 24
2.4946885 -3.7978008 -0.034260631 37
11.29238 -12.705508 -0.22845672 0
8.8534279 -11.550529 -0.28147 49
2.4873786 -3.7866728 -0.11436404 37
11.155133 -12.551086 -0.52271855 0
8.863596 -11.563794 -0.54011405 57
2.4968486 -3.8010893 -0.19538052 45
11.099487 -12.488476 -0.81570089 1
8.8661299 -11.5671 -0.79823732 6
2.4901855 -3.790946 -0.27502975 40
11.088184 -12.47576 -1.1106689 0
8.8950243 -11.604796 -1.0596368 24
2.4871371 -3.786305 -0.35493687 40
12.259745 -13.793928 -1.554545 1
8.8508158 -11.54712 -1.3117726 25
2.4855182 -3.7838407 -0.43480033 37
10.428879 -11.733948 -1.6004224 2
8.8862801 -11.593389 -1.5755094 19
8.1172771 -10.590117 -1.6757007 2
7.1227727 -9.2926474 -1.6776154 2
6.3879457 -8.3339634 -1.6922497 2
5.7920184 -7.5564938 -1.7027943 2
5.2814617 -6.8904014 -1.7075256 3
4.8585572 -6.3386641 -1.7123039 3
4.4823422 -5.8478389 -1.7104042 4
4.1928606 -5.4701695 -1.7216206 7
3.0879836 -4.0287042 -1.7462324 6
2.2849376 -2.981019 -1.7508057 6
2.3289754 -3.0828111 1.0198846 19
5.0590606 -6.6965623 1.6218081 25
4.5250821 -5.9897475 1.0502156 4
7.4489894 -9.8600559 1.0728843 7
8.7794838 -11.621201 0.74928677 26
8.8270578 -11.684174 0.49422386 26
2.4563718 -3.796972 0.125765 35
13.847965 -15.801704 0.46066189 30
8.8381824 -11.698899 0.23493834 22
2.4528503 -3.7915287 0.045714274 38
13.890715 -15.850485 0.089018367 32
8.8730612 -11.745068 -0.024406672 25
2.4529064 -3.7916152 -0.034049518 34
11.15859 -12.732899 -0.22754289 0
8.8087358 -11.659921 -0.28263023 33
2.4478507 -3.7838006 -0.1137584 36
11.022442 -12.577542 -0.52060276 0
8.8477068 -11.711506 -0.54411489 34
2.4572275 -3.7982948 -0.19435041 41
10.959365 -12.505566 -0.81179988 0
8.8742399 -11.746627 -0.80633128 32
2.4571538 -3.7981808 -0.27430344 41
10.958729 -12.50484 -1.1064196 0
8.9003658 -11.78121 -1.0700452 34
2.4498136 -3.7868345 -0.35337463 40
10.949457 -12.494261 -1.3994263 0
8.8540363 -11.719884 -1.3243444 37
2.4417403 -3.7743552 -0.43174106 37
10.365065 -11.827419 -1.6032622 2
8.8890314 -11.766206 -1.5905224 30
8.0574999 -10.665527 -1.6786911 2
7.0696583 -9.3579445 -1.6804521 2
6.3367491 -8.3878088 -1.6941589 3
5.7414961 -7.5998869 -1.7034985 2
5.2403259 -6.9364991 -1.7098414 3
4.8071141 -6.3630662 -1.7097882 3
4.4508023 -5.8914247 -1.7140222 4
4.1592479 -5.5055008 -1.7235593 6
3.0643425 -4.0561996 -1.7488348 6
2.2662561 -2.9997911 -1.7524956 6
2.3097062 -3.1020975 1.0209055 20
4.9981136 -6.7128177 1.6172545 25
4.461864 -5.9925961 1.0452278 6
7.3418937 -9.8606787 1.0673486 7
8.7840223 -11.797559 0.75668508 27
8.8216705 -11.848122 0.49854141 22
2.4212105 -3.800539 0.12532021 35
13.854974 -16.034159 0.46460742 31
8.8422804 -11.875802 0.23724543 20
2.4177244 -3.7950668 0.045552313 34
13.897408 -16.083267 0.089778632 32
8.8744574 -11.919019 -0.024638802 21
2.4156303 -3.79178 -0.033898722 38
11.011898 -12.743909 -0.22636029 0
8.8107119 -11.833405 -0.28533742 31
2.4127815 -3.7873077 -0.11335465 36
10.863791 -12.572506 -0.51724243 0
8.8492804 -11.885204 -0.54930121 34
2.4199147 -3.7985048 -0.19349197 45
10.790819 -12.488057 -0.80575335 0
8.880271 -11.926826 -0.81442523 31
2.4219966 -3.8017728 -0.27333501 40
10.790269 -12.48742 -1.0981865 0
8.9132042 -11.971058 -1.0816101 25
2.4083183 -3.7803023 -0.35118753 38
10.794211 -12.491982 -1.3906966 0
8.8528919 -11.890055 -1.3365569 37
2.4067736 -3.7778776 -0.4302114 39
10.292651 -11.911534 -1.604885 2
8.8874226 -11.936432 -1.6051065 23
7.9994359 -10.743804 -1.6821802 1
7.0159783 -9.4229507 -1.6832888 2
6.2827535 -8.438179 -1.6954318 3
5.6977057 -7.6524186 -1.7063154 3
5.2011485 -6.985507 -1.7129291 3
4.7672458 -6.4027457 -1.7114652 3
4.4165449 -5.9317293 -1.7167357 4
4.116076 -5.5281782 -1.7216206 6
3.0359502 -4.0774941 -1.7488348 7
2.2517538 -3.0242631 -1.7575656 7
2.2891917 -3.1220641 1.0219264 21
4.9464498 -6.7461076 1.6164956 29
4.3943915 -5.9931951 1.0396857 8
7.2293553 -9.8595991 1.0614669 7
8.7847042 -11.980827 0.76428896 25
8.8244095 -12.034979 0.50366849 22
2.3869154 -3.8080215 0.12498661 33
13.832984 -16.247953 0.46785152 38
8.8424902 -12.059638 0.2396166 20
2.3813431 -3.7991316 0.045390349 39
13.89323 -16.318718 0.090521999 36
8.8601704 -12.08375 -0.024844401 6
2.3750243 -3.7890508 -0.03371777 37
10.850773 -12.745107 -0.22496268 0
8.8088646 -12.013779 -0.28812194 33
2.378583 -3.7947283 -0.11305183 37
10.719502 -12.590919 -0.51475328 0
8.8399191 -12.056131 -0.55419111 32
2.3856378 -3.8059833 -0.19297689 43
10.62647 -12.481644 -0.80029196 0
8.8587313 -12.081787 -0.82055038 6
2.385581 -3.8058927 -0.27236661 41
10.625998 -12.481091 -1.0907501 0
2.3763068 -3.7910969 -0.35056263 39
10.64292 -12.500967 -1.3829743 0
8.8526554 -12.073501 -1.3498471 23
2.3705571 -3.7819238 -0.42868176 42
10.236014 -12.023023 -1.6097531 2
8.8631783 -12.087852 -1.616688 9
7.9157705 -10.795752 -1.6811833 2
6.9724708 -9.5092525 -1.6895295 2
6.2324047 -8.4999294 -1.6986139 3
5.6344719 -7.6844521 -1.7042028 3
5.1544437 -7.0297756 -1.714473 3
4.722496 -6.4406729 -1.7123039 3
4.3752484 -5.9670873 -1.7176402 4
4.086915 -5.5738502 -1.7264674 6
3.0082157 -4.1026897 -1.750136 7
2.2338119 -3.0465355 -1.7609456 6
2.2650754 -3.1348343 1.0209055 20
4.8900337 -6.7677422 1.6134599 27
4.3269248 -5.9884067 1.0335896 9
7.1276746 -9.8646069 1.0566232 6
8.7803955 -12.151952 0.77127624 3
13.905147 -19.244539 0.80130917 28
2.3476729 -3.8041766 0.12431943 33
13.837484 -16.485027 0.47188473 60
13.915963 -19.25951 0.3807334 28
2.3442593 -3.798645 0.045187894 38
13.902406 -16.56237 0.09133295 38
10.827765 -14.985483 -0.03065425 12
2.3380105 -3.7885199 -0.033566974 35
10.704959 -12.753152 -0.22378008 0
2.3373325 -3.787421 -0.11234526 36
10.590214 -12.616452 -0.51276201 0
2.3443174 -3.7987394 -0.19177508 44
10.500544 -12.509625 -0.79736614 0
9.094636 -12.586855 -0.85051984 0
2.3463717 -3.8020682 -0.27091399 39
10.487285 -12.493831 -1.0854385 0
9.0377111 -12.508073 -1.1183288 2
2.3393106 -3.7906263 -0.34900042 42
10.504136 -12.513906 -1.3762592 1
2.3336411 -3.7814393 -0.4267697 39
10.146712 -12.088096 -1.6089418 2
8.9369583 -12.368631 -1.6458561 3
7.844861 -10.857184 -1.6821802 2
2.715523 -3.7582481 -0.66435158 5
6.1891046 -8.5656385 -1.7030689 2
5.5968318 -7.7459412 -1.7091322 1
2.7146742 -3.7570734 -0.91165811 4
2.7074966 -3.7471395 -0.99115723 20
4.3448949 -6.0132771 -1.7221627 3
2.7228463 -3.7683833 -1.1613183 11
2.7158873 -3.7587521 -1.5952913 0
2.2082427 -3.0561786 -1.7575656 6
2.2476211 -3.156872 1.0229473 19
4.8472228 -6.8081141 1.6149777 28
4.2597389 -5.9829702 1.0274934 8
7.0355201 -9.8816643 1.0531634 5
12.559944 -17.640934 1.1140656 1
13.830741 -19.425817 0.8048172 30
2.3044488 -3.7931359 0.12342984 33
13.841892 -16.72603 0.47600561 62
13.878594 -19.493031 0.383425 25
2.3114522 -3.8046629 0.04506642 39
12.432278 -15.022706 0.082361847 10
10.671844 -14.989023 -0.030508341 10
2.3073514 -3.7979133 -0.033506654 39
9.5395622 -11.527254 -0.20109567 8
10.665224 -14.979725 -0.35564691 0
2.3025296 -3.7899766 -0.11194149 39
9.510314 -11.491913 -0.46434829 25
9.6722679 -13.58508 -0.61820465 0
2.3094404 -3.8013518 -0.19108833 42
9.5010557 -11.480724 -0.72753811 0
8.9833765 -12.617504 -0.84833229 0
2.3094058 -3.8012948 -0.26970348 43
9.5295506 -11.515157 -0.99460906 18
8.9339714 -12.548113 -1.1163049 2
2.3003671 -3.786417 -0.34712574 43
9.5194607 -11.502965 -1.2577378 38
8.9373875 -12.552911 -1.3893583 0
2.2947805 -3.7772217 -0.42447525 40
9.5039148 -11.484179 -1.5196913 37
8.8919096 -12.489036 -1.6535771 2
7.77808 -10.924619 -1.6841738 0
2.6846263 -3.7706628 -0.66321695 14
2.6774967 -3.7606492 -0.74397892 13
2.6742508 -3.7560902 -0.82463694 1
2.6815498 -3.7663419 -0.90934229 1
2.7402494 -3.8487878 -1.0129594 1
2.6779559 -3.7612941 -1.0718292 1
2.6672111 -3.7462027 -1.1487163 1
2.6654487 -3.7437272 -1.5809779 11
2.1889555 -3.0744739 -1.7592555 10
2.214422 -3.1566558 1.0178428 19
4.7973199 -6.8385735 1.6142188 29
4.1928411 -5.9768901 1.0213971 9
2.6593013 -3.7908306 0.40202889 1
13.604193 -19.392761 1.2186699 18
13.777438 -19.639721 0.80967444 3
2.2738085 -3.8022678 0.12320744 34
9.4271002 -11.55465 0.32695246 55
2.6620717 -3.79478 0.074275374 1
2.2725182 -3.8001099 0.044823475 35
9.4216948 -11.548026 0.062949792 34
2.6509237 -3.7788887 -0.007653614 20
2.2705171 -3.7967639 -0.033355862 37
9.4057579 -11.528492 -0.19996683 33
2.6527286 -3.7814615 -0.08933714 0
2.2616491 -3.781935 -0.11123493 38
9.3818331 -11.499168 -0.46198362 37
2.6720636 -3.8090234 -0.17248087 2
2.2725911 -3.8002322 -0.19022989 42
9.4004688 -11.522009 -0.72597772 28
2.6584289 -3.7895873 -0.25353715 21
2.2684679 -3.7933373 -0.26800874 40
9.3908968 -11.510277 -0.9885006 47
2.6531579 -3.7820735 -0.33480474 37
2.265691 -3.7886937 -0.34587598 39
9.3860092 -11.504287 -1.2506869 33
2.6653843 -3.7995021 -0.41845977 5
2.2622249 -3.7828975 -0.42332801 37
9.3631344 -11.476249 -1.5099549 34
2.6470609 -3.7733822 -0.4971455 31
2.6485012 -3.775435 -0.57916838 30
2.6423194 -3.766623 -0.65924555 60
2.6421058 -3.7663186 -0.7414332 1
2.6411793 -3.764998 -0.82252431 21
2.6439204 -3.7689054 -0.90548259 10
2.6526678 -3.7813749 -0.99031872 32
2.6359684 -3.7575698 -1.0654978 21
2.6432214 -3.7679088 -1.1496857 3
2.6435919 -3.7684369 -1.5835803 39
2.1695204 -3.0926487 -1.7609456 6
2.1923304 -3.1720383 1.0178428 19
4.7382956 -6.8557439 1.6104243 5
2.6239443 -3.7965317 0.64564711 26
2.6101141 -3.7765212 0.39856908 26
2.6142013 -3.7824349 0.23654115 26
2.611623 -3.7787044 0.15502681 24
2.2330108 -3.7939279 0.12242906 33
9.3061037 -11.570322 0.3255496 40
2.6127748 -3.780371 0.07363452 30
2.2378173 -3.8020942 0.044661511 37
9.2831879 -11.54183 0.062561214 41
2.6153808 -3.7841413 -0.0076270853 55
2.2398973 -3.8056283 -0.033295542 37
9.2673922 -11.522192 -0.19873047 30
2.6217167 -3.793309 -0.089182444 25
2.2351911 -3.7976322 -0.11123493 41
9.2562246 -11.508307 -0.45974338 38
2.6272252 -3.8012791 -0.17129543 35
2.2378969 -3.8022294 -0.18954314 45
9.2822437 -11.540656 -0.72305197 40
2.6069286 -3.7719121 -0.25113085 42
2.2318039 -3.7918775 -0.26679823 39
9.2652874 -11.519575 -0.98372012 46
2.6176164 -3.7873764 -0.33364826 42
2.2290719 -3.7872355 -0.34431374 42
9.2530069 -11.504307 -1.243636 37
2.6048181 -3.7688587 -0.41307187 40
2.2317207 -3.7917361 -0.4225632 37
9.2428846 -11.491721 -1.503464 41
2.6161308 -3.7852266 -0.49628761 52
2.6107965 -3.7775085 -0.57667631 42
2.609205 -3.7752059 -0.65754354 40
2.6157475 -3.784672 -0.7414332 20
2.6125915 -3.7801056 -0.82182008 50
2.6086183 -3.7743571 -0.90239483 44
2.6106384 -3.7772799 -0.98444891 37
2.6118865 -3.7790859 -1.0664022 37
2.6080263 -3.7735002 -1.1458082 36
2.6000147 -3.7619085 -1.5731705 42
2.156122 -3.1196492 -1.7677054 7
2.1679559 -3.1840692 1.0168219 21
2.5838754 -3.7949286 0.88717526 25
2.5862288 -3.7983851 0.64287609 36
2.5814433 -3.7913568 0.3982231 31
2.5944769 -3.810499 0.23715769 30
2.5806799 -3.7902355 0.15475696 33
2.2044659 -3.8059652 0.12231786 37
9.165472 -11.559802 0.32344532 40
2.5840688 -3.7952127 0.073570438 27
2.2032003 -3.8037803 0.044499546 39
9.150197 -11.540537 0.062206421 46
2.5798948 -3.7890821 -0.0076005561 32
2.201246 -3.800406 -0.03311459 38
9.1419973 -11.530196 -0.19776289 35
2.5884187 -3.8016014 -0.088950396 36
2.2026114 -3.8027637 -0.1109321 44
9.1309443 -11.516255 -0.45750317 43
2.5893755 -3.8030066 -0.17055453 62
2.2012827 -3.8004694 -0.1886847 45
9.1493225 -11.539433 -0.71895587 40
2.5850284 -3.7966223 -0.25156835 44
2.2032762 -3.8039112 -0.26655611 42
9.1375265 -11.524557 -0.97867405 45
2.5843766 -3.7956648 -0.33278087 45
2.192584 -3.7854514 -0.34275153 41
9.1179867 -11.499912 -1.2362494 37
2.5829279 -3.7935371 -0.41379026 44
2.1972125 -3.793442 -0.42103356 38
9.1204023 -11.502959 -1.4965674 43
2.5762126 -3.7836745 -0.49371395 52
2.5731933 -3.7792399 -0.57418418 43
2.5716441 -3.7769644 -0.6547069 40
2.5781498 -3.7865195 -0.73825109 40
2.5728424 -3.7787244 -0.81759477 43
2.57337 -3.7794993 -0.89930713 42
2.5754004 -3.7824814 -0.98109478 36
2.574476 -3.7811239 -1.0618798 34
2.5728831 -3.7787843 -1.1419307 40
2.5651736 -3.7674615 -1.5679657 29
2.1240888 -3.1196415 -1.7592555 7
2.1456742 -3.199127 1.0168219 22
2.5441933 -3.7933052 0.88262177 29
2.5508218 -3.8031881 0.64065927 32
2.5415936 -3.7894292 0.39614722 31
2.5522354 -3.8052957 0.23571911 29
2.5541563 -3.8081596 0.15475696 29
2.1699221 -3.8073666 0.12187307 37
9.0377569 -11.563642 0.32177943 41
2.5441437 -3.7932312 0.073185921 23
2.1686692 -3.8051684 0.044337582 42
9.0176792 -11.537953 0.061851632 46
2.5466948 -3.797035 -0.0075806594 31
2.1647575 -3.798305 -0.032963794 41
9.0070934 -11.524409 -0.19658029 33
2.546222 -3.79633 -0.088408962 45
2.1661098 -3.8006778 -0.11042741 46
9.0060081 -11.52302 -0.45526296 42
2.5583096 -3.814352 -0.17025818 49
2.1687605 -3.8053288 -0.18816964 47
9.0168734 -11.536922 -0.71485984 39
2.5451117 -3.7946746 -0.25025582 45
2.1687582 -3.8053246 -0.26558772 43
9.0076923 -11.525175 -0.97336239 46
2.5422592 -3.7904215 -0.33075702 47
2.162154 -3.7937369 -0.34212664 42
8.9908447 -11.503618 -1.2298701 30
2.5364096 -3.7817001 -0.41055754 48
2.1549034 -3.7810149 -0.41797429 39
8.976162 -11.484832 -1.4860196 6
2.5364435 -3.7817504 -0.49114028 54
2.5334823 -3.7773356 -0.57119364 43
2.5341854 -3.778384 -0.65187019 41
2.5384541 -3.7847483 -0.73443252 43
2.5376258 -3.7835135 -0.81477791 48
2.5316179 -3.7745557 -0.89390355 43
2.538038 -3.784128 -0.97690201 36
2.5306535 -3.7731178 -1.0546438 35
2.5356312 -3.7805395 -1.1370838 42
2.5261681 -3.7664304 -1.5601584 29
2.112355 -3.1494491 -1.7677054 6
2.1275516 -3.2204823 1.0188637 20
2.506825 -3.79459 0.87882715 36
2.5154741 -3.8076823 0.63844246 33
2.4997003 -3.7838051 0.39372537 27
2.507992 -3.7963564 0.23407505 28
2.5142868 -3.8058846 0.15394743 29
2.1335118 -3.8049841 0.12131707 34
8.9079962 -11.563096 0.32002586 41
2.5021682 -3.7875407 0.072737321 22
2.1283588 -3.795794 0.044054147 40
8.8954105 -11.54676 0.061564423 42
2.5002809 -3.7846839 -0.007520969 29
2.126451 -3.7923918 -0.032782838 37
8.8824825 -11.529978 -0.19561271 37
2.510839 -3.8006661 -0.088099569 44
2.1297457 -3.7982676 -0.10992271 41
8.8911839 -11.541272 -0.45352057 46
2.5183983 -3.8121083 -0.1693691 47
2.1304152 -3.7994616 -0.18713953 43
8.9019756 -11.555281 -0.71212912 10
2.5053487 -3.7923551 -0.2489433 44
2.1323764 -3.8029594 -0.26437718 46
8.8758621 -11.521383 -0.96778512 30
2.5025408 -3.7881048 -0.32902229 43
2.123915 -3.7878687 -0.34025198 39
8.8762608 -11.521901 -1.2251695 11
2.5033591 -3.7893434 -0.40947995 47
2.1206658 -3.7820742 -0.41644463 38
8.9151926 -11.572436 -1.4892651 17
2.5012116 -3.7860928 -0.48942453 50
2.4982994 -3.7816846 -0.56919992 41
2.4968331 -3.779465 -0.64903349 41
2.509793 -3.7990825 -0.73379612 43
2.4959576 -3.7781396 -0.80984843 45
2.4943881 -3.775764 -0.89004385 39
2.4986231 -3.7821748 -0.97187078 35
2.4956594 -3.7776885 -1.0510257 34
2.4942026 -3.7754831 -1.1302981 40
2.4914725 -3.7713506 -1.5549536 32
2.078326 -3.1459694 -1.7575656 7
2.1239994 -3.2644327 1.0280519 21
2.4674215 -3.7922475 0.87427366 38
2.4693861 -3.7952671 0.63345462 31
2.4580102 -3.7777829 0.39130351 27
2.4705341 -3.7970312 0.2330475 26
2.4745736 -3.8032398 0.15313789 30
2.1107585 -3.8267887 0.12153947 38
8.7980356 -11.586782 0.31897372 46
2.4691215 -3.7948601 0.072545059 26
2.0960119 -3.8000531 0.043932673 39
8.8194227 -11.614949 0.061598212 32
2.4759793 -3.8054001 -0.0075276014 27
2.092196 -3.7931349 -0.032662202 39
8.8477306 -11.652228 -0.19663404 21
2.4646144 -3.7879333 -0.087403432 42
2.0915892 -3.7920349 -0.10931708 39
8.8732586 -11.685848 -0.45675644 26
2.4699233 -3.7960923 -0.1678873 46
2.0961177 -3.8002453 -0.18645278 42
8.825923 -11.623508 -0.71251923 16
2.4744554 -3.8030581 -0.24850579 39
2.0999899 -3.8072653 -0.26365086 37
8.8652077 -11.675246 -0.97548705 37
2.460803 -3.7820754 -0.32699841 38
2.0877888 -3.785145 -0.33868974 38
8.8847933 -11.70104 -1.2375925 30
2.4681525 -3.793371 -0.40804318 47
2.0826721 -3.7758684 -0.41415018 39
8.916007 -11.742147 -1.5030583 32
2.4617052 -3.783462 -0.48685086 49
2.4588501 -3.779074 -0.56620938 39
2.4595892 -3.7802098 -0.64619684 38
2.4681332 -3.7933414 -0.72934115 45
2.4544883 -3.7723701 -0.80491889 48
2.4594054 -3.7799273 -0.8869561 36
2.4593596 -3.7798569 -0.96683955 32
2.4564753 -3.775424 -1.0455987 32
2.4529686 -3.7700343 -1.1235125 38
2.4527056 -3.7696302 -1.5471462 29
2.0642211 -3.1725578 -1.7643255 6
2.1178508 -3.3052318 1.0362191 22
2.4281745 -3.7895398 0.86972016 38
2.4364192 -3.802407 0.63179201 31
2.4272776 -3.7881398 0.39061153 27
2.4310355 -3.7940047 0.23181444 32
2.4350219 -3.8002262 0.15232834 27
2.0706441 -3.816829 0.12076109 36
8.7888126 -11.743975 0.32160407 26
2.4231493 -3.781697 0.071968287 26
2.067524 -3.8110776 0.043892182 33
8.8267956 -11.794729 0.062223319 33
2.4320889 -3.7956488 -0.0074745435 27
2.0580344 -3.7935855 -0.032541566 34
8.8476458 -11.822589 -0.1984617 23
2.4316378 -3.7949445 -0.087171391 37
2.0574374 -3.792485 -0.10891332 39
8.877697 -11.862746 -0.46123686 26
2.4368927 -3.8031456 -0.16744277 46
2.0581021 -3.79371 -0.18542264 40
8.8259497 -11.793598 -0.71915096 29
2.4284525 -3.7899737 -0.246537 42
2.0619352 -3.8007758 -0.26219824 37
8.8576155 -11.835912 -0.98372012 33
2.4278831 -3.7890849 -0.32613105 38
2.0575094 -3.7926178 -0.33806485 38
8.8912516 -11.880857 -1.2500154 25
2.4351623 -3.8004453 -0.40696558 44
2.0524633 -3.7833159 -0.41338536 38
8.9315701 -11.934732 -1.5196913 26
2.4309413 -3.7938578 -0.48599297 45
2.4238434 -3.7827802 -0.56421572 39
2.4245946 -3.7839527 -0.64392745 36
2.4224167 -3.7805536 -0.72361332 41
2.4217203 -3.7794669 -0.80280626 45
2.4244878 -3.7837861 -0.88386834 37
2.4202516 -3.7771747 -0.96180826 34
2.4216504 -3.7793579 -1.0419807 30
2.418215 -3.7739966 -1.119635 36
2.4181669 -3.7739215 -1.5419414 29
2.036155 -3.1777332 -1.7592555 6
2.0926607 -3.3166659 1.0351982 20
2.3974679 -3.7997563 0.86820233 38
2.3950171 -3.795872 0.62791258 33
2.3922663 -3.791512 0.38922763 28
2.3916993 -3.7906137 0.23058139 31
2.3998992 -3.8036096 0.15178865 27
2.0364189 -3.8170807 0.1203163 38
8.7991829 -11.930563 0.32502353 31
2.3902864 -3.7883742 0.071776032 24
2.0314538 -3.8077738 0.043689728 36
8.822587 -11.962296 0.062780842 30
2.3969934 -3.7990041 -0.0074480143 29
2.0183208 -3.7831573 -0.032330453 37
8.8479834 -11.99673 -0.2003431 23
2.3922803 -3.7915342 -0.086707301 40
2.0252643 -3.7961724 -0.1086105 41
8.8753481 -12.033834 -0.46546841 27
2.3932185 -3.7930212 -0.16625734 44
2.0278046 -3.8009338 -0.18507926 45
8.8216562 -11.961034 -0.72558761 31
2.3934095 -3.793324 -0.24566197 41
2.0297127 -3.8045104 -0.26147196 39
8.8505774 -12.000247 -0.99221879 34
2.3971136 -3.7991946 -0.32555279 34
2.0272279 -3.7998528 -0.33743998 37
8.8719692 -12.029251 -1.2590808 15
2.3958161 -3.7971382 -0.40481043 45
2.0203784 -3.787014 -0.41223812 41
8.9047203 -12.073658 -1.5294278 5
2.3980298 -3.8006468 -0.48470613 45
2.382551 -3.7761142 -0.5607267 38
2.3791027 -3.7706492 -0.63882142 39
2.3896427 -3.787354 -0.72170407 43
2.3847704 -3.7796316 -0.79928517 44
2.3896356 -3.7873425 -0.88078064 37
2.3813009 -3.774133 -0.95677704 35
2.3827317 -3.7764006 -1.0365537 31
2.3731713 -3.7612484 -1.1109105 36
2.3816693 -3.7747169 -1.5354353 31
2.0255284 -3.2102678 -1.7693954 6
2.0694549 -3.3311946 1.0351982 16
2.3625925 -3.803057 0.86516666 46
2.3580062 -3.7956748 0.62514156 35
2.3552237 -3.7911959 0.38749772 29
2.3525295 -3.786859 0.22934833 32
2.3648479 -3.8066878 0.15124896 31
1.9911479 -3.7957957 0.11920431 35
8.7932653 -12.098453 0.32791692 32
2.3553383 -3.7913802 0.071519688 27
1.9992479 -3.8112371 0.043568257 41
8.8211689 -12.136844 0.063372158 5
2.3556376 -3.7918618 -0.0074015888 29
1.9992936 -3.8113239 -0.032451089 40
2.3636417 -3.8047462 -0.086629957 43
2.0005713 -3.8137596 -0.10871144 42
2.3624611 -3.8028457 -0.16596097 46
1.9993643 -3.8114586 -0.18490759 51
8.8107538 -12.122515 -0.7316342 1
2.3521152 -3.7861919 -0.24413069 41
2.0031037 -3.8185873 -0.26147196 40
2.3579001 -3.7955039 -0.32381806 43
2.0006514 -3.8139124 -0.33743998 39
2.362942 -3.8036196 -0.40373287 47
1.9957412 -3.8045521 -0.41262054 39
9.4612589 -13.017529 -1.6405851 1
2.3630433 -3.8037829 -0.48299035 47
2.3477533 -3.7791705 -0.55873305 39
2.346452 -3.777076 -0.63711941 41
2.3548081 -3.7905266 -0.71915841 44
2.350014 -3.7828095 -0.79646832 46
2.3527811 -3.7872636 -0.87692094 40
2.3507667 -3.7840214 -0.95509994 35
2.3501408 -3.7830141 -1.0338403 32
2.3489029 -3.7810211 -1.1118799 38
2.345279 -3.7751877 -1.5289292 31
1.9992408 -3.2181711 -1.7660154 6
2.0582559 -3.3653572 1.0413237 20
2.3216407 -3.7960052 0.85985422 39
2.3252494 -3.8019059 0.62347895 34
2.3183031 -3.7905483 0.38576782 30
2.3218665 -3.7963748 0.22893731 33
2.3236141 -3.799232 0.1503045 26
1.9682651 -3.8167114 0.11942671 39
13.845263 -19.331724 0.5213353 48
2.3204651 -3.7940834 0.071263351 28
1.9762582 -3.832211 0.043649238 38
10.997722 -15.355789 0.07977695 2
2.3207598 -3.794565 -0.0073750596 31
1.9836365 -3.8465188 -0.032632045 25
2.3265889 -3.804096 -0.086243212 42
1.9940578 -3.8667269 -0.10982177 22
10.631666 -14.844676 -0.56839418 6
2.3295977 -3.8090158 -0.16551644 46
1.9763699 -3.8324277 -0.18525095 41
9.0957909 -12.70018 -0.76264721 0
2.313122 -3.7820768 -0.24281816 42
1.9837161 -3.846673 -0.26244035 29
8.9796286 -12.537986 -1.0262134 1
2.3167741 -3.7880483 -0.32179418 46
1.9885986 -3.8561406 -0.33993953 23
8.9654064 -12.518127 -1.297021 2
2.32178 -3.7962332 -0.4012185 47
2.0001562 -3.8785522 -0.4191215 22
9.3747864 -13.089732 -1.6413965 0
2.3177555 -3.7896531 -0.47912988 49
2.3130295 -3.7819257 -0.55673933 41
2.3055646 -3.7697203 -0.63314807 40
2.3179858 -3.7900293 -0.71597624 44
2.3173842 -3.789046 -0.79435563 49
2.3037579 -3.7667663 -0.8684296 38
2.3140888 -3.7836578 -0.95090723 37
2.3135087 -3.7827091 -1.0293179 35
2.3123252 -3.7807741 -1.107033 44
2.3050516 -3.7688811 -1.5198207 33
1.9842914 -3.2444215 -1.7727753 6
2.0327163 -3.3763311 1.0403028 17
2.2910318 -3.805392 0.85833639 37
2.286391 -3.7976837 0.62015373 29
2.2835619 -3.7929845 0.38438389 25
2.2808833 -3.7885354 0.22749875 34
2.2929099 -3.8085115 0.15003465 26
1.9596493 -3.8660243 0.12053869 22
13.792972 -19.545538 0.52449173 40
2.2856693 -3.7964852 0.071007006 25
1.9729652 -3.8922939 0.044175621 26
10.901782 -15.448535 0.079861425 1
2.2838964 -3.7935402 -0.0073418985 29
1.9802442 -3.9066539 -0.03302411 20
2.6704543 -3.7842073 -0.062247738 0
2.2855353 -3.7962625 -0.085701779 40
1.995941 -3.9376209 -0.1114368 20
2.6647921 -3.7761836 -0.14387205 7
2.2947023 -3.8114886 -0.16492371 46
1.9748617 -3.8960354 -0.18765458 27
2.6375721 -3.7376111 -0.22333275 0
2.2804816 -3.7878683 -0.24216188 42
1.9838904 -3.9138472 -0.26607192 28
2.6694045 -3.7827199 -0.3080765 0
2.2799833 -3.7870407 -0.32034859 38
1.9976885 -3.9410684 -0.34618843 22
2.6681647 -3.7809632 -0.3898114 16
2.2787821 -3.7850454 -0.39834496 47
1.998233 -3.9421425 -0.42447525 22
2.6477463 -3.7520289 -0.46815905 27
2.2871397 -3.7989273 -0.47827199 49
2.2824759 -3.7911808 -0.5557425 42
2.2730639 -3.7755475 -0.63144606 40
2.2833223 -3.7925866 -0.71343058 44
2.2827518 -3.7916389 -0.79153877 43
2.2713318 -3.7726703 -0.86611378 39
2.2795484 -3.7863181 -0.94755304 34
2.2769954 -3.7820776 -1.0247953 32
2.2738643 -3.7768769 -1.1012167 39
2.268929 -3.7686796 -1.5133146 30
1.948503 -3.2364535 -1.7609456 6
2.020926 -3.4104025 1.0464281 20
2.2543995 -3.8043997 0.85454178 36
2.2578039 -3.8101444 0.61959952 31
2.2489009 -3.7951205 0.38299999 29
2.2482705 -3.7940564 0.22688222 31
2.2560766 -3.8072295 0.14936003 27
1.9611373 -3.9368746 0.12231786 20
2.639008 -3.7956212 0.10135614 5
2.2509546 -3.7985861 0.070750661 25
1.9689288 -3.9525156 0.044702001 25
2.641902 -3.7997835 0.019547211 30
2.2492013 -3.7956271 -0.0073153693 29
1.9778911 -3.9705069 -0.033446338 22
2.6279876 -3.7797709 -0.061871458 12
2.2549002 -3.8052444 -0.085547082 42
1.9933642 -4.0015683 -0.11284995 20
2.62467 -3.7749991 -0.14312531 42
2.2598872 -3.8136601 -0.164331 44
1.9814703 -3.9776919 -0.19091664 23
2.6273794 -3.7788959 -0.2246981 26
2.2458384 -3.789952 -0.24128687 41
1.9885631 -3.9919302 -0.27042979 27
2.6178687 -3.7652171 -0.30515507 28
2.2453549 -3.7891362 -0.31919208 38
1.9896848 -3.9941821 -0.34962532 21
2.6143992 -3.760227 -0.38578236 63
2.2482412 -3.7940071 -0.39762658 46
2.0079458 -4.0308399 -0.43250588 21
2.6328461 -3.7867584 -0.47018749 41
2.2463715 -3.7908518 -0.47526938 48
2.2417912 -3.7831223 -0.55225354 45
2.2345397 -3.7708855 -0.62804204 37
2.2447112 -3.7880499 -0.70961201 42
2.2441826 -3.787158 -0.78731352 46
2.234935 -3.7715526 -0.86225408 37
2.2430909 -3.7853158 -0.94336033 32
2.2386189 -3.7777689 -1.0193684 32
2.2296367 -3.7626112 -1.0924923 42
2.232923 -3.768157 -1.5068085 30
1.9295582 -3.2562153 -1.7643255 5
2.0060608 -3.4370921 1.0505117 18
2.2211993 -3.8057003 0.85150611 36
2.2205031 -3.8045073 0.6162743 31
2.20962 -3.7858608 0.38057813 27
2.2129893 -3.7916336 0.22585468 31
2.2186852 -3.8013926 0.1485505 26
1.9560935 -3.9928827 0.12365223 21
2.5934269 -3.783354 0.10056704 37
2.2176476 -3.7996149 0.070494317 28
1.9585092 -3.9978137 0.04506642 27
2.5962884 -3.7875285 0.019395158 39
2.2159128 -3.7966428 -0.0072888406 30
1.988469 -4.0589695 -0.034079678 23
2.589293 -3.7773235 -0.06154893 31
2.2134855 -3.7924836 -0.084928297 41
1.9896513 -4.0613828 -0.11416216 21
2.5860126 -3.7725377 -0.14237857 45
2.2184246 -3.8009462 -0.16314557 45
1.972628 -4.0266337 -0.19263352 24
2.5887053 -3.7764661 -0.22352779 38
2.2125995 -3.7909656 -0.24041185 42
1.9883928 -4.058814 -0.27406132 25
2.5838127 -3.7693288 -0.30409274 44
2.2040865 -3.7763801 -0.31687909 43
1.9999937 -4.0824938 -0.35618663 23
2.5871491 -3.7741959 -0.38544658 36
2.2149961 -3.7950721 -0.39618981 45
2.0004375 -4.0834002 -0.43671238 21
2.5964236 -3.7877257 -0.46815905 41
2.2131615 -3.7919285 -0.4735536 47
2.2126496 -3.7910516 -0.55125666 39
2.1995013 -3.7685242 -0.62520534 41
2.209585 -3.7858009 -0.7064299 42
2.2071066 -3.7815547 -0.78308821 46
2.205915 -3.7795129 -0.86071026 37
2.2080786 -3.7832201 -0.93916762 34
2.2036939 -3.7757072 -1.0148458 34
2.2007205 -3.770613 -1.0905535 38
2.2021625 -3.7730834 -1.5029049 30
1.9188845 -3.2877281 -1.7744653 7
1.9993519 -3.4811966 1.0596999 22
2.1887085 -3.8108974 0.84922934 37
2.1879697 -3.8096108 0.61461169 32
2.1831357 -3.8011942 0.38057813 28
2.1785069 -3.7931345 0.22503264 35
2.1841283 -3.8029222 0.14801081 29
1.9645838 -4.0821028 0.1259874 20
2.5714278 -3.8079951 0.10074239 36
2.1850915 -3.8045993 0.070302062 28
1.9739153 -4.1014924 0.046078693 27
2.5630686 -3.7956161 0.019344473 40
2.1833768 -3.801614 -0.0072689438 29
1.9878368 -4.1304193 -0.034562219 21
2.5539069 -3.7820487 -0.06133391 30
2.178988 -3.7939723 -0.084618904 42
1.9976649 -4.1508408 -0.11628188 19
2.552901 -3.7805591 -0.14200521 39
2.1818812 -3.7990098 -0.16240467 44
1.9791293 -4.1123266 -0.19606727 25
2.5600426 -3.7911348 -0.22333275 38
2.1840904 -3.8028564 -0.2401931 40
1.9929062 -4.1409526 -0.27866131 28
2.550735 -3.7773516 -0.303296 48
2.1756818 -3.7882156 -0.31658998 42
2.0008426 -4.1574435 -0.36149821 22
2.5540464 -3.7822552 -0.38443932 37
2.1785269 -3.7931695 -0.39439383 45
2.0046885 -4.1654344 -0.44397816 22
2.5543294 -3.7826741 -0.46531928 48
2.1787121 -3.7934921 -0.47183785 50
2.1742697 -3.7857568 -0.54826611 45
2.1691947 -3.7769206 -0.62407064 43
2.1732678 -3.7840123 -0.70324779 44
2.1728086 -3.7832131 -0.78027135 46
2.1716564 -3.7812068 -0.8576225 41
2.1718738 -3.7815852 -0.93497491 35
2.1695187 -3.7774847 -1.0112278 34
2.1685448 -3.7757888 -1.0876454 42
2.1719999 -3.7818053 -1.5003024 31
1.9031075 -3.3136194 -1.7812251 6
1.9832873 -3.512598 1.0648044 21
2.145267 -3.79948 0.84315801 39
2.1405082 -3.7910519 0.60906965 32
2.1414981 -3.792805 0.37815624 34
2.142787 -3.7950878 0.22421061 32
2.152262 -3.8118684 0.14774096 30
1.9585127 -4.1470118 0.12754416 22
2.5257356 -3.8000982 0.10004096 36
2.1512444 -3.8100665 0.070109807 28
1.9694178 -4.1701026 0.046686057 25
2.5307484 -3.8076398 0.019310685 40
2.1495509 -3.8070674 -0.007249047 31
1.9882522 -4.2099829 -0.035105083 21
2.5150447 -3.784013 -0.061065137 32
2.1452193 -3.7993956 -0.084386855 47
1.9927983 -4.2196093 -0.11779597 22
2.5162671 -3.7858522 -0.14150737 40
2.1480784 -3.8044593 -0.16196012 49
1.9745301 -4.1809278 -0.1986426 24
2.5233374 -3.79649 -0.22255254 38
2.1404459 -3.7909412 -0.23844306 44
1.9880733 -4.2096043 -0.28229284 26
2.5163493 -3.7859762 -0.30249926 47
2.1380467 -3.7866924 -0.31514436 48
1.9924514 -4.2188745 -0.36555997 22
2.5174272 -3.7875977 -0.38309631 40
2.1467459 -3.8020992 -0.39367545 50
2.0013058 -4.2376232 -0.45009673 25
2.5155184 -3.7847259 -0.46329084 49
2.14498 -3.7989717 -0.47055101 51
2.1367037 -3.7843134 -0.54577398 45
2.1395035 -3.7892721 -0.62350333 39
2.1435297 -3.7964027 -0.70261139 46
2.1314664 -3.7750378 -0.77534181 48
2.1361618 -3.783354 -0.85453475 39
2.1383262 -3.7871869 -0.93245929 36
2.1321914 -3.7763216 -1.0067054 34
2.1350846 -3.781446 -1.0847373 41
2.1349213 -3.7811565 -1.4937963 32
1.8698537 -3.3116958 -1.7727753 7
1.9831311 -3.5703108 1.0780762 21
2.1148763 -3.8074973 0.84164017 39
2.1101434 -3.7989764 0.60796124 33
2.1091628 -3.7972112 0.37711832 28
2.1065423 -3.7924931 0.22318305 34
2.1139514 -3.8058319 0.14693142 29
1.9614756 -4.2295032 0.12965693 20
2.4838123 -3.7942176 0.099427216 36
2.1012893 -3.7830358 0.069340773 29
1.9722302 -4.2526932 0.047455385 26
2.4909596 -3.8051353 0.019209316 39
2.1132097 -3.8044968 -0.0072158859 31
1.982372 -4.2745619 -0.035527308 20
2.4819944 -3.7914405 -0.060903873 29
2.1089337 -3.7967985 -0.084000118 44
1.9969382 -4.3059707 -0.11981475 19
2.4744475 -3.7799118 -0.14063618 39
2.1098211 -3.7983961 -0.16107105 47
1.9772389 -4.2634935 -0.20190465 23
2.4770775 -3.7839293 -0.22079709 39
2.1061714 -3.7918253 -0.23756804 45
1.9888728 -4.2885795 -0.28665072 27
2.474555 -3.7800763 -0.30064017 47
2.1076853 -3.7945507 -0.31456611 42
1.9931489 -4.2978001 -0.37118396 20
2.4778249 -3.7850711 -0.38108179 41
2.1104784 -3.7995796 -0.3918795 52
2.0018258 -4.3165097 -0.45698011 21
2.4803169 -3.788878 -0.4616681 48
2.1106825 -3.7999468 -0.46883523 51
2.1025245 -3.7852597 -0.54378033 42
2.1014621 -3.7833471 -0.62009931 40
2.1035516 -3.7871087 -0.69815642 44
2.1012368 -3.7829416 -0.77393341 46
2.1039805 -3.7878811 -0.85221893 38
2.1080372 -3.7951844 -0.9307822 34
2.1001008 -3.7808959 -1.0039918 34
2.0973275 -3.7759035 -1.078921 41
2.0992897 -3.7794359 -1.4872903 29
1.8414077 -3.3151605 -1.7677054 5
1.9674288 -3.6010389 1.0831808 22
2.0788286 -3.8049369 0.83784556 39
2.0740733 -3.7962334 0.60519022 35
2.0749595 -3.7978554 0.37573439 30
2.0685227 -3.7860737 0.22194999 33
2.0739129 -3.7959397 0.14598696 26
1.9567533 -4.2976789 0.1313249 22
2.4464285 -3.7946599 0.098988824 37
2.0748274 -3.7976134 0.069340773 26
1.9673539 -4.3209615 0.048062749 24
2.4469948 -3.7955379 0.019074159 40
2.0789266 -3.8051164 -0.0071893567 30
1.9839734 -4.3574634 -0.036100332 15
2.4446282 -3.7918673 -0.060635101 31
2.0747058 -3.7973909 -0.083690725 44
8.8200731 -19.371805 -0.53729898 10
2.4436653 -3.7903736 -0.14038727 38
2.0775023 -3.8025093 -0.16062652 44
1.9722656 -4.3317494 -0.20447998 22
2.4441056 -3.7910566 -0.22021194 40
2.0719881 -3.7924166 -0.23669301 43
1.9853557 -4.3604994 -0.29052439 14
2.4394543 -3.7838418 -0.29957783 46
2.0734916 -3.7951684 -0.31340963 43
8.9281216 -19.609116 -1.6881372 9
2.4427006 -3.7888772 -0.37973875 37
2.0762606 -3.8002367 -0.39044273 46
2.4430237 -3.7893784 -0.4596397 44
2.078382 -3.8041196 -0.4675484 51
2.0703385 -3.789397 -0.54228503 41
2.0636075 -3.7770774 -0.61669528 38
2.0732744 -3.794771 -0.69688356 43
2.0747757 -3.797519 -0.77393341 43
2.0699577 -3.7887003 -0.84913117 38
2.0721142 -3.7926474 -0.92658949 33
2.0643132 -3.7783692 -0.9994694 36
2.063473 -3.7768314 -1.0750434 37
2.0601583 -3.7707641 -1.4781818 24
1.819957 -3.3311172 -1.7693954 6
1.9568855 -3.6419411 1.0913479 22
2.0373433 -3.7916803 0.83177423 37
2.0381453 -3.7931728 0.6024192 31
2.0408502 -3.798207 0.37435049 30
2.0401497 -3.7969031 0.22174449 32
2.0416851 -3.7997608 0.14558218 26
8.839015 -19.778381 0.60247105 14
2.4091606 -3.7947662 0.098550431 36
2.0406923 -3.7979133 0.069084436 26
8.8746185 -19.858049 0.22018975 23
2.4054301 -3.7888904 0.018955896 42
2.0466313 -3.8089664 -0.0071694599 30
18.983435 -42.477768 -0.35080954 23
2.4073782 -3.7919588 -0.060366329 29
2.036787 -3.7906449 -0.083226636 42
8.7596722 -19.600842 -0.54194218 13
2.40643 -3.7904651 -0.13976498 37
2.0452294 -3.8063571 -0.16018197 46
8.6907959 -19.446724 -0.91509509 15
2.4025903 -3.7844172 -0.21884659 37
2.0341191 -3.7856796 -0.23538049 42
8.7366228 -19.549267 -1.2984018 3
2.4022827 -3.7839329 -0.29824993 45
2.0431693 -3.8025229 -0.31283137 44
8.921175 -19.962225 -1.7131327 0
2.405508 -3.7890131 -0.37805998 36
2.0402515 -3.7970927 -0.38864675 46
7.4567852 -16.685472 -1.7552625 1
2.4079783 -3.7929039 -0.45801696 42
2.0461268 -3.808027 -0.46626157 48
2.0363188 -3.7897739 -0.54029137 42
2.0296917 -3.7774401 -0.61442596 43
2.0355165 -3.7882805 -0.69306505 41
2.0277126 -3.7737567 -0.76618701 47
2.037884 -3.7926867 -0.84681535 41
2.0418837 -3.8001304 -0.92491239 40
2.0341964 -3.7858238 -0.9976604 31
2.0407293 -3.7979817 -1.0769821 42
2.0427349 -3.8017144 -1.4846879 30
1.812101 -3.372484 -1.784605 5
1.9512866 -3.6931295 1.1025779 22
2.0089879 -3.8023386 0.83101535 37
2.0079129 -3.8003039 0.60131079 30
2.0086989 -3.8017919 0.37331253 28
2.004262 -3.7933939 0.22071694 31
2.011373 -3.8068528 0.14531234 27
14.128634 -32.216476 0.97832048 25
2.3698914 -3.7911458 0.098024361 36
2.008523 -3.8014588 0.068892173 26
18.783989 -42.831738 0.47346061 15
2.37044 -3.7920232 0.018888317 42
2.0106468 -3.8054783 -0.0071362988 31
25.799858 -58.829502 -0.48435363 25
2.3660069 -3.7849317 -0.059990048 32
2.0102737 -3.8047721 -0.083226636 42
9.9925375 -22.785242 -0.62804329 24
2.3735518 -3.7970014 -0.1393916 36
2.0167389 -3.8170085 -0.16003379 49
8.6912489 -19.81801 -0.92968851 2
2.3718765 -3.7943215 -0.21845649 40
2.0095062 -3.8033197 -0.23559923 50
8.710577 -19.862082 -1.315107 0
2.3694615 -3.790458 -0.29745317 44
2.014709 -3.8131669 -0.31254226 44
2.3684337 -3.7888141 -0.37638122 37
2.0006654 -3.786587 -0.38613242 48
7.344914 -16.748062 -1.7564098 1
2.3708942 -3.7927499 -0.45598856 41
2.0157762 -3.8151863 -0.46540368 52
2.01352 -3.8109164 -0.5412882 41
2.0088203 -3.8020213 -0.61612797 38
2.0090199 -3.8023989 -0.69306505 48
2.0141935 -3.8121912 -0.7711165 48
2.0076897 -3.7998817 -0.84527147 34
2.0226126 -3.8281255 -0.92826658 23
2.009537 -3.8033779 -0.9985649 32
2.0177906 -3.8189988 -1.078921 35
2.026746 -3.8359487 -1.4924952 17
1.7834315 -3.3754363 -1.7795352 7
1.9343711 -3.7238219 1.1076825 26
1.9751529 -3.80233 0.82797968 38
1.9740292 -3.8001668 0.59909397 34
1.9821093 -3.815722 0.37331253 31
1.9758894 -3.8037481 0.22051144 31
1.9884335 -3.8278966 0.14558218 30
13.930242 -32.376766 0.98021084 22
2.3370786 -3.7973816 0.097761326 35
1.985623 -3.8224862 0.069020346 28
20.353037 -47.304672 0.52132088 2
2.3334262 -3.7914472 0.018803842 40
1.9987826 -3.8478193 -0.0071893567 28
24.974339 -58.045536 -0.47645196 17
2.33114 -3.7877326 -0.059775028 30
1.9818194 -3.8151639 -0.083149284 46
2.3323174 -3.7896452 -0.1385204 38
1.9900427 -3.8309944 -0.16003379 48
9.7546368 -22.671797 -1.0603428 34
2.3348594 -3.7937756 -0.21748123 37
1.9957941 -3.842066 -0.23713052 33
9.7646694 -22.695116 -1.4981374 3
2.3324821 -3.7899129 -0.29612526 43
2.0009134 -3.8519213 -0.31456611 23
9.0529413 -21.040911 -1.7946807 1
2.3293903 -3.7848895 -0.37436667 40
1.9833642 -3.8181379 -0.38792837 47
7.2561374 -16.864767 -1.7632931 1
2.336015 -3.7956533 -0.45436582 41
1.9909259 -3.8326945 -0.46583262 33
1.999673 -3.8495336 -0.54477715 27
2.0096078 -3.8686588 -0.62463802 21
1.9988096 -3.8478713 -0.69879282 25
2.0056822 -3.8611016 -0.77815866 25
2.0136795 -3.8764973 -0.85916638 21
2.0264883 -3.901155 -0.94252181 23
2.0026939 -3.8553488 -1.0085144 23
2.0143368 -3.8777623 -1.0915229 31
2.0295589 -3.9070661 -1.5146159 17
1.7564814 -3.3813696 -1.7761552 7
1.9149112 -3.7469008 1.1107452 26
1.9516788 -3.8188438 0.82873857 41
1.9595987 -3.8343408 0.6024192 26
1.9748938 -3.8642688 0.37677234 17
1.95789 -3.8309975 0.22133347 30
1.9648215 -3.8445601 0.14571711 20
13.733875 -32.512646 0.98154521 22
2.3014748 -3.7957006 0.097322933 36
1.9766084 -3.8676236 0.069597118 14
19.701109 -46.639072 0.51253438 2
2.3020074 -3.7965789 0.018753158 41
1.9914219 -3.8966093 -0.0072556795 16
24.300873 -57.52824 -0.47087255 29
2.2976725 -3.7894297 -0.059560012 29
1.9582928 -3.8317854 -0.083226636 26
2.3009133 -3.7947745 -0.13814704 38
1.9773242 -3.8690243 -0.16107105 24
9.5698452 -22.655005 -1.0565656 40
2.3013608 -3.7955127 -0.21670103 40
1.9866267 -3.8872263 -0.23909932 24
9.562665 -22.638004 -1.4901479 14
2.2969482 -3.7882349 -0.29479733 42
2.0043712 -3.9219468 -0.31919208 21
8.9566422 -21.203346 -1.8034291 1
2.2980371 -3.7900305 -0.37335941 38
1.9870052 -3.8879669 -0.39367545 26
7.167367 -16.967539 -1.7690293 1
2.3004739 -3.7940497 -0.45233738 40
1.9962295 -3.9060163 -0.47312465 30
2.0084145 -3.9298584 -0.5542472 24
2.0127361 -3.9383144 -0.63371539 25
1.996608 -3.9067569 -0.70706636 24
1.9997411 -3.9128871 -0.78590506 25
2.0111446 -3.9352002 -0.86920154 25
2.0237086 -3.9597843 -0.95342284 22
1.9930387 -3.8997726 -1.0166548 21
2.0132987 -3.9394152 -1.1050942 28
2.0311422 -3.9743297 -1.5354353 17
1.7356664 -3.396173 -1.7778451 6
1.897386 -3.7774582 1.1158497 24
1.93731 -3.8569422 0.83405101 22
1.9541192 -3.8904071 0.60906965 16
1.9675435 -3.9171333 0.38057813 18
1.9508203 -3.8838396 0.22359407 17
1.9720268 -3.926059 0.14828065 20
13.54482 -32.700081 0.98432517 25
2.2687712 -3.8013735 0.097059898 36
1.980077 -3.942086 0.070686579 16
19.05513 -46.003143 0.50407177 3
2.2651963 -3.7953837 0.018668685 41
1.9803286 -3.9425867 -0.0073153693 16
23.979797 -57.892342 -0.472471 27
2.2609124 -3.7882059 -0.05929124 30
1.9620103 -3.9061172 -0.084541552 25
2.2620707 -3.7901466 -0.1374003 39
1.9807659 -3.9434576 -0.1635901 24
2.2625217 -3.7909026 -0.21553072 37
1.993502 -3.9688134 -0.24325566 24
9.384531 -22.656258 -1.4870006 21
2.2581728 -3.7836154 -0.29320383 46
1.9984305 -3.9786253 -0.32266158 20
8.8175573 -21.287464 -1.8053038 1
2.2592649 -3.7854457 -0.37134489 39
1.9830595 -3.9480238 -0.39834496 25
7.0685482 -17.064983 -1.7740006 1
2.2616937 -3.7895148 -0.44990328 41
1.9921174 -3.9660571 -0.47870094 29
2.0076511 -3.9969823 -0.56172359 25
2.0065196 -3.9947295 -0.64052343 20
2.0011907 -3.9841208 -0.71852195 22
2.0024202 -3.9865685 -0.79787672 26
2.0170941 -4.0157824 -0.88386834 21
2.0223472 -4.0262408 -0.96600097 21
1.9954959 -3.9727831 -1.0320313 20
2.0136175 -4.0088611 -1.1206044 27
2.0339065 -4.0492535 -1.5588572 17
1.7119143 -3.4082077 -1.7778451 7
1.8696449 -3.7912652 1.1158497 24
1.9333037 -3.9203525 0.84467584 16
1.953582 -3.9614732 0.61793691 17
1.9705021 -3.9957836 0.38680577 17
1.9541008 -3.9625251 0.22729324 18
1.9661803 -3.98702 0.15003465 19
13.321286 -32.839249 0.98554832 32
2.2307248 -3.8006573 0.096621506 35
1.9758921 -4.0067134 0.071583778 15
18.413687 -45.392887 0.49589258 4
2.2332656 -3.8049862 0.018634895 42
1.9902961 -4.0359221 -0.0074612787 16
23.735209 -58.511349 -0.47609007 27
2.2249858 -3.7908792 -0.05907622 28
1.9651632 -3.9849575 -0.085933819 24
9.8439636 -24.267052 -0.66105038 6
2.2241094 -3.789386 -0.13677801 38
1.978325 -4.0116467 -0.16581279 25
9.2852087 -22.889626 -1.0612012 5
2.2245619 -3.7901571 -0.21455547 38
1.9943863 -4.0442162 -0.2469745 21
9.1866837 -22.646744 -1.4819164 5
2.2182562 -3.7794135 -0.29161033 43
2.0009735 -4.0575733 -0.32786578 21
8.6732693 -21.38109 -1.8078034 1
2.2213688 -3.7847168 -0.3696661 38
1.9822581 -4.0196223 -0.40409204 23
6.9597306 -17.156925 -1.7782072 1
2.2237842 -3.7888322 -0.44787487 47
1.9876169 -4.030489 -0.48470613 29
2.0046284 -4.0649848 -0.56919992 24
2.0087056 -4.0732527 -0.6507355 21
1.9928914 -4.0411849 -0.72615904 23
2.0044909 -4.0647063 -0.8105526 26
2.017113 -4.090301 -0.89699131 20
2.0221868 -4.1005898 -0.9802562 23
2.0059569 -4.0676789 -1.0528347 20
2.0133562 -4.0826831 -1.1370838 28
2.0292633 -4.1149392 -1.5783755 17
1.686885 -3.420665 -1.7778451 5
1.8515627 -3.8216281 1.1209543 24
1.9367102 -3.9973724 0.85833639 18
1.9535142 -4.0320559 0.62680417 18
1.9703588 -4.066823 0.39234143 16
1.9472907 -4.0192108 0.22975935 18
1.9644438 -4.0546145 0.1520585 19
13.127151 -33.020622 0.98821712 27
2.1961362 -3.8022866 0.0962708 34
1.9757732 -4.0779986 0.072609149 13
17.803768 -44.784397 0.48787537 6
2.1966443 -3.8031662 0.018550422 40
1.9934647 -4.1145139 -0.0075806594 15
23.398548 -58.857754 -0.47756785 27
