# .PCD v0.7 - Point Cloud Data file format
VERSION 0.7
FIELDS x y z intensity
SIZE 4 4 4 4
TYPE F F F F
COUNT 1 1 1 1
WIDTH 1434
HEIGHT 1
VIEWPOINT 0 0 0 1 0 0 0
POINTS 1434
DATA ascii
5.5880871 6.3540726 -1.5133601 4
5.1605186 5.8678956 -1.5369275 4
4.8170767 5.477376 -1.5638818 4
4.4953089 5.1115022 -1.5801566 6
2.0015738 2.275939 -0.75708652 1
1.5661851 1.7808695 -0.81586266 14
1.5155541 1.7232983 -1.0697491 15
3.0917428 3.46644 1.2261075 18
5.7458453 6.4422011 1.668102 21
6.3177876 7.0834584 1.3278716 15
11.342119 12.716703 1.4794109 1
13.643168 15.296623 1.054468 25
13.618843 15.26935 0.69053721 48
13.664968 13.242275 0.52919155 40
13.66199 17.759686 0.49126163 55
13.603551 15.252205 0.32747814 23
13.666679 13.243934 0.19265591 41
8.6190701 11.204222 0.059706002 0
13.58398 15.230262 -0.033837728 25
8.6378775 11.22867 -0.19039853 5
13.679952 15.337865 -0.39749226 32
8.9048023 8.6293535 -0.31301224 0
8.6198492 11.205235 -0.44007921 11
13.673119 15.330204 -0.76149416 28
8.6354027 8.3682871 -0.51660806 0
8.6210737 11.206826 -0.69028348 0
13.675325 15.332678 -1.1252762 19
8.5128326 8.2495079 -0.71880573 5
8.648798 11.242867 -0.94388264 2
11.516994 12.912771 -1.2539276 0
8.525321 8.26161 -0.93014705 1
8.6324749 11.221647 -1.1926013 6
9.7504053 10.932085 -1.3207524 4
8.9411802 8.6646061 -1.1957965 0
8.2519989 10.727054 -1.3797305 2
8.5052347 9.5360088 -1.3781954 2
7.5527182 8.4680538 -1.4249935 3
6.7839527 7.6061196 -1.4603254 2
6.1508517 6.8962913 -1.4892306 3
5.6192055 6.3002133 -1.5098391 4
5.1961331 5.8258677 -1.5353836 5
4.8499913 5.4377756 -1.5622047 3
4.5282898 5.0770864 -1.5792521 4
2.06391 2.3140411 -0.77453536 1
1.5886503 1.7811835 -0.82106751 14
1.527548 1.7126759 -1.0697491 14
3.1288395 3.4591124 1.231212 19
5.798584 6.4106693 1.6703788 25
6.3963161 7.071496 1.3339678 16
11.524183 12.740649 1.4915203 2
13.642437 15.0825 1.0462476 25
13.63125 15.070133 0.68581486 29
13.667471 13.060919 0.52574438 47
8.6680021 11.10652 0.30889073 41
13.621163 15.058981 0.32536334 24
13.672053 13.065297 0.19144118 44
8.6626244 11.099629 0.059469476 19
13.614844 15.051995 -0.033652026 23
9.8465328 9.4095507 -0.10269141 0
8.6422338 11.073502 -0.18878588 23
13.682068 15.126315 -0.39447567 33
8.9532652 8.5559254 -0.31260848 0
8.6289911 11.056533 -0.43659443 25
13.688641 15.133581 -0.75645608 33
8.7051706 8.318841 -0.51729482 14
8.6818943 11.12432 -0.68891811 22
8.4878473 9.3838043 -0.69301617 0
8.5528975 8.1733255 -0.71735311 15
8.6681423 11.106699 -0.93750864 30
8.4836864 9.3792038 -0.91652077 1
8.5568419 8.1770954 -0.92733502 14
8.6517496 11.085694 -1.1845431 29
9.8051081 10.840113 -1.3178788 4
9.9744272 9.5317698 -1.3250512 0
8.3829966 10.741335 -1.3890612 2
8.5716009 9.4763994 -1.3781954 2
7.6223021 8.4268942 -1.4269872 3
6.8422003 7.5644469 -1.46146 2
6.204144 6.8590393 -1.4905034 3
5.6604109 6.2579103 -1.5091349 4
5.24721 5.8010931 -1.5384713 5
4.8957067 5.4124861 -1.5647204 4
4.5610104 5.04246 -1.5783477 5
2.113857 2.3369908 -0.78713733 1
1.6188078 1.7896854 -0.83017606 14
1.5516273 1.7154135 -1.0781989 13
3.1790557 3.4656856 1.2414211 20
5.8405423 6.3671374 1.6696198 26
6.5097957 7.0967317 1.3472687 18
11.693661 12.747985 1.5018996 3
13.642086 14.872084 1.0382328 24
13.649651 14.88033 0.68149734 30
13.66811 12.880175 0.52229726 65
8.680788 10.964217 0.30661109 31
13.628634 14.85742 0.32305625 24
13.672694 12.884494 0.19018596 43
8.6579676 10.935393 0.058911949 28
13.611438 14.838672 -0.033386737 23
9.6936579 9.13484 -0.10042949 0
8.652297 10.928231 -0.18733451 26
13.681903 14.91549 -0.39145911 35
8.9807663 8.4630451 -0.31149817 0
8.6265535 10.895717 -0.43261182 28
8.7804852 8.2743101 -0.51832497 19
8.675025 10.956938 -0.68228644 30
8.4802542 9.2448511 -0.68710977 1
8.6097488 8.1134167 -0.71735311 33
8.6761017 10.958298 -0.93007231 36
8.5058079 9.2727089 -0.9118948 1
8.616622 8.1198931 -0.92764747 10
8.6596546 10.937524 -1.175142 26
9.9020901 10.794883 -1.3207524 3
8.8497505 8.3395824 -1.1678805 0
8.4553118 10.67943 -1.3886555 2
8.634861 9.4133968 -1.3777665 2
7.667532 8.3588524 -1.4244951 3
6.8921661 7.5135775 -1.4608927 6
6.249208 6.8126493 -1.4898671 3
5.7119455 6.2269459 -1.5112475 4
5.2796216 5.7556429 -1.5361555 5
4.9122224 5.3551183 -1.558012 4
4.5961018 5.0104957 -1.5783477 6
2.166847 2.3622143 -0.80070865 1
1.6338192 1.7811277 -0.83147728 13
1.5660161 1.7072111 -1.0798888 15
3.2268808 3.4688931 1.2506093 22
5.8795009 6.320456 1.668102 25
6.5996537 7.0946198 1.3555818 17
11.858371 12.747735 1.5115871 4
13.650351 14.67411 1.03104 25
13.647011 14.67052 0.67623532 32
13.675684 12.708229 0.5191837 51
8.6694746 10.79422 0.30354235 29
13.628511 14.650634 0.32062098 24
13.665621 12.698878 0.18884976 9
8.6614609 10.784244 0.058422003 33
13.622069 14.643708 -0.033161238 25
9.7161732 9.0288248 -0.10000727 0
8.6507378 10.770892 -0.18566813 27
13.690362 14.717122 -0.38875192 43
8.9956913 8.3593121 -0.30998409 0
8.632309 10.747947 -0.42912701 18
8.619585 9.2660437 -0.46913612 0
8.6862602 10.81512 -0.6772151 33
8.5473089 9.1883469 -0.68732852 2
8.6691065 8.05583 -0.71759522 43
8.6774149 10.804107 -0.92210484 37
8.4942522 9.1313114 -0.90379936 1
8.7023115 8.0866871 -0.93077195 1
8.6659145 10.789788 -1.165741 26
8.9461155 9.6170635 -1.1842591 0
8.8377533 8.2125473 -1.1587027 1
8.5196934 10.60773 -1.3870327 3
8.6868248 9.3383255 -1.3756218 3
7.7284036 8.3080244 -1.4249935 3
6.9363618 7.4565806 -1.4591907 2
6.2858582 6.7572904 -1.4873214 3
5.7445512 6.1753855 -1.5084307 5
5.338387 5.7387595 -1.5415591 5
4.95748 5.3292851 -1.5605277 4
4.6309695 4.9782867 -1.5783477 5
2.1753557 2.3385048 -0.79780048 0
1.6616715 1.7862949 -0.83928454 14
1.5976509 1.7174728 -1.0934086 15
3.2642887 3.4603474 1.2557137 19
5.8992276 6.2535448 1.6612717 24
6.6952333 7.0973606 1.3650032 16
12.023643 12.745803 1.5212746 5
13.642815 14.462225 1.0228196 28
13.653082 14.473109 0.67151302 30
13.669736 12.526005 0.51562536 57
8.6713696 10.643522 0.30099967 38
13.628913 14.447489 0.31824979 24
10.194549 9.3415833 0.13997719 0
8.6784286 10.652187 0.058033422 49
13.62241 14.440595 -0.032915846 22
9.6757526 8.8661938 -0.098951697 0
8.6853008 10.660623 -0.18480805 34
13.688488 14.510642 -0.3858127 43
9.0184526 8.2638893 -0.3087728 0
8.6919813 10.668822 -0.42838028 8
8.5551462 9.0689831 -0.46217167 0
8.7890863 8.0537138 -0.51214421 1
8.6681824 10.63961 -0.66999823 10
8.5619135 9.0761566 -0.68339092 4
8.7221909 7.9924154 -0.71735311 2
8.6694403 10.641154 -0.91334057 30
8.3853226 8.8889599 -0.88558459 3
8.7291536 7.9987955 -0.92764747 4
8.6806078 10.654862 -1.1576828 14
9.0212374 9.5630684 -1.1853367 2
8.8332243 8.0941591 -1.1506721 1
8.5684061 10.517142 -1.3829759 3
8.7408895 9.2658825 -1.373906 4
7.7916627 8.2596426 -1.4259903 3
6.9936829 7.4137349 -1.4603254 3
6.3382988 6.7189879 -1.4885942 3
5.8010325 6.1494522 -1.5119518 4
5.3702407 5.6927867 -1.5392432 4
4.9918804 5.2917013 -1.559689 4
4.6575904 4.9373331 -1.5756341 4
4.3672791 4.6295848 -1.5897847 6
1.6870791 1.7884078 -0.84579062 13
1.6170654 1.7141891 -1.0984786 15
3.3044078 3.4542422 1.2618392 19
5.9698896 6.2405872 1.6688609 19
6.7692642 7.0762086 1.3699911 14
12.203237 12.756578 1.5326918 5
13.632992 14.251163 1.0145992 25
13.637725 14.256112 0.66584623 28
13.670814 12.352528 0.51240063 39
8.7862234 10.632049 0.30240253 32
13.627151 14.245058 0.31587863 23
10.25358 9.2648201 0.13989621 0
8.8009958 10.649925 0.058354422 35
13.620586 14.238195 -0.032670453 24
9.7196074 8.7823391 -0.098770745 0
8.8104715 10.661392 -0.18588313 25
13.6927 14.31358 -0.38310549 40
9.0165863 8.1471109 -0.30675402 0
8.814642 10.666438 -0.43074495 32
8.5381193 8.925271 -0.45787448 0
8.8480625 7.9948373 -0.51231587 0
8.7778797 10.621953 -0.67272896 33
8.5726118 8.9613266 -0.67923456 3
8.8192501 7.9688034 -0.72074258 1
8.7994518 10.648057 -0.91918343 36
8.3561678 8.7350683 -0.8760435 8
8.8173294 7.9670682 -0.93108439 1
8.8182573 10.670814 -1.1660767 28
9.0464716 9.4566736 -1.1799488 1
8.9663277 8.1016989 -1.1606147 2
8.6416206 10.457067 -1.3829759 2
8.7833719 9.1816435 -1.3704745 3
7.8326745 8.1878376 -1.4229999 3
7.0288467 7.3475618 -1.4569213 2
6.3741322 6.6631598 -1.4860486 3
5.8302131 6.0945768 -1.5084307 5
5.4071403 5.6523204 -1.5384713 5
5.0232944 5.2510695 -1.558012 4
4.6946387 4.9075117 -1.5765387 4
4.3941278 4.5933743 -1.5878459 6
1.7073673 1.7847859 -0.84969431 12
1.6415241 1.715957 -1.1069283 13
3.3484967 3.449352 1.2689855 20
6.0291524 6.2107482 1.6726555 20
6.8788981 7.0860877 1.3816293 15
12.36026 12.732546 1.5406494 7
13.645268 14.056258 1.0078174 28
13.636045 14.046758 0.66071916 28
13.686336 12.185513 0.50962067 43
8.9050426 10.61638 0.30380538 32
13.630917 14.041473 0.31357154 22
10.112105 9.0032282 0.13706185 0
8.9225264 10.637223 0.058641635 37
13.624289 14.034646 -0.032431692 22
9.7000761 8.6363811 -0.097926289 0
8.947505 10.667002 -0.1871195 25
9.082037 8.0861149 -0.3069559 0
8.9491186 10.668926 -0.433483 32
8.528141 8.7850046 -0.45387363 0
8.9482155 7.9669676 -0.51471955 0
8.9094248 10.621603 -0.67682499 35
8.5407009 8.7979431 -0.67157817 1
8.9102278 7.933146 -0.72340572 0
8.9311323 10.647483 -0.92476064 37
8.358839 8.6106033 -0.86968279 11
8.9737787 7.9897285 -0.94139504 2
8.9500332 10.670016 -1.1731275 33
8.5938683 8.8527117 -1.1124206 0
8.9689732 7.9854488 -1.1533489 2
8.7052546 10.378197 -1.3809475 2
8.85044 9.117012 -1.3704745 2
7.889719 8.1273537 -1.4225014 3
7.0797606 7.2929997 -1.456354 2
6.4283056 6.6219234 -1.4873214 3
5.8665037 6.0432005 -1.506318 4
5.4484282 5.6125326 -1.5384713 4
5.0698242 5.2225251 -1.5605277 4
4.7277727 4.8701711 -1.5756341 3
4.4276805 4.5610404 -1.5878459 6
1.723039 1.7749363 -0.85099548 13
1.651533 1.7012765 -1.1052383 14
3.3996277 3.4534528 1.2791946 19
6.0833855 6.1797013 1.6756911 22
6.9671068 7.0774145 1.3893882 15
12.521533 12.719782 1.5496449 2
13.653389 13.869558 1.0012411 26
13.646838 13.862903 0.65653652 30
13.683932 12.013167 0.50639594 31
9.0359507 10.620961 0.30573431 28
13.638826 13.854765 0.31152081 24
10.084539 8.8532486 0.13584712 0
9.0510006 10.638652 0.058996424 35
13.620915 13.836571 -0.032192931 22
9.065815 10.656064 -0.18803333 27
9.2163992 9.362319 -0.25408876 0
9.1713228 8.0515337 -0.30806622 0
9.0751972 10.667092 -0.43597215 28
8.5556126 8.6910706 -0.45209548 0
9.0396557 7.9359422 -0.51677978 0
9.032548 10.616961 -0.68053097 39
8.5626869 8.6982565 -0.66851556 4
9.1154184 8.0024548 -0.73551089 1
9.0569715 10.64567 -0.93007231 35
9.0712938 7.9637179 -0.94576925 3
9.0785446 10.671027 -1.1801784 30
8.4737997 8.6079617 -1.0890729 1
9.0753708 7.9672966 -1.15985 2
8.8032818 10.34748 -1.3850044 2
8.8943424 9.0351639 -1.3674718 2
7.9574027 8.0833893 -1.4244951 3
7.1166129 7.2292876 -1.4535173 2
6.4688368 6.5712557 -1.4860486 3
5.8947382 5.9880676 -1.502797 4
5.462697 5.5491858 -1.5315238 4
5.097929 5.1786423 -1.558012 4
4.7643905 4.8398232 -1.5765387 4
4.4675817 4.5383153 -1.590754 6
1.7539629 1.7817327 -0.86010402 12
1.6862602 1.7129582 -1.1204481 7
3.4427812 3.4487951 1.286341 19
6.1263795 6.1370811 1.6756911 22
7.0611262 7.0734606 1.3982555 16
13.570068 13.593773 1.6676241 24
13.653928 13.677779 0.99425381 26
13.650082 13.673926 0.65208405 31
13.685841 11.846688 0.50339359 29
9.1647415 10.621202 0.30757555 30
13.644798 13.668633 0.30947006 22
10.073519 8.7198038 0.13487533 0
9.1799278 10.638802 0.059351213 35
13.635228 13.659046 -0.032000598 21
9.7441072 8.434659 -0.09717232 0
9.2026968 10.66519 -0.18932343 26
9.2335033 9.2496328 -0.25277382 0
9.2787066 8.0318003 -0.30978221 0
9.2042961 10.667043 -0.43858573 34
8.5765429 8.5915251 -0.45002097 0
9.1341171 7.906642 -0.51901174 0
9.1638689 10.620192 -0.68482208 33
8.5893421 8.6043453 -0.66589051 4
9.1861563 7.9516878 -0.7367214 2
9.1858273 10.645638 -0.93564957 38
8.4359684 8.4507046 -0.86534595 0
9.2382278 7.9967613 -0.95732969 5
9.2048998 10.667743 -1.1868935 31
8.457696 8.4724693 -1.0793748 1
9.2481785 8.0053759 -1.1747639 7
8.974061 8.9897375 -1.3700455 2
7.9940133 8.0079775 -1.4210061 3
7.1808963 7.1934404 -1.456354 2
6.5006056 6.511961 -1.4828664 3
5.9503078 5.9607024 -1.506318 4
5.5151687 5.5248027 -1.5353836 4
5.1450109 5.1539984 -1.5613662 4
4.789804 4.798171 -1.5738251 4
4.4964142 4.5042686 -1.5897847 6
1.7797201 1.7828289 -0.86661011 12
1.7519664 1.7550267 -1.1559373 2
3.4915369 3.4491379 1.2955291 19
6.1746621 6.0996814 1.677209 14
7.1610632 7.0741038 1.4082311 17
13.571085 13.406286 1.6562067 23
13.66951 13.503516 0.98849952 27
13.642826 13.477157 0.64722681 33
13.695219 11.688559 0.50072485 29
9.296607 10.623169 0.30950448 33
13.645996 13.480288 0.30735523 25
10.09764 8.6181068 0.13438945 0
9.3066607 10.634657 0.059689108 35
13.627809 13.462322 -0.031761836 27
9.7692871 8.3378639 -0.096840568 0
9.3138056 10.642821 -0.19007599 11
9.2238789 9.1118708 -0.25076279 0
9.4166746 8.0369177 -0.31250754 0
13.638719 15.584869 -0.64468616 28
8.6135635 8.5089664 -0.44883552 0
9.2590065 7.9023519 -0.52296054 0
9.2983027 10.625107 -0.68930823 36
8.4787188 8.3757582 -0.65276521 1
9.3052216 7.9417949 -0.74180561 2
9.3203764 10.650331 -0.94175798 38
8.4692154 8.3663712 -0.86274385 0
9.3514614 7.9812603 -0.96326613 6
9.3447723 10.678207 -1.1952873 19
8.4684572 8.3656225 -1.0732685 2
9.3856134 8.0104074 -1.185089 2
8.7791748 10.031903 -1.3590406 2
9.0281143 8.9184837 -1.3687587 2
8.0384302 7.9408174 -1.4190124 3
7.2309408 7.1431332 -1.456354 2
6.5487185 6.4691949 -1.4835029 3
5.9721675 5.8996453 -1.5013885 4
5.5591888 5.4916816 -1.5369275 5
5.1586075 5.0959649 -1.5546578 5
4.8204131 4.7618771 -1.5729207 4
4.5222287 4.4673138 -1.5878459 6
1.8055775 1.7836518 -0.8731162 12
1.7796512 1.7580403 -1.1660771 2
3.5349233 3.4435694 1.3026754 20
6.2058425 6.0454636 1.6741734 18
7.2641888 7.0764589 1.418761 18
13.575859 13.225016 1.6454813 24
13.654716 13.301834 0.98069018 27
13.659266 13.306266 0.64358389 32
13.693884 11.523153 0.49772248 22
13.678869 15.412299 0.4518064 33
13.642369 13.289806 0.30517632 23
10.102472 8.5010471 0.1336606 0
13.663448 15.394923 0.086940318 34
13.638371 13.285913 -0.0315695 22
9.7752295 8.2256775 -0.096327864 0
13.643751 15.372731 -0.27624449 28
9.2242451 8.9858608 -0.24906112 0
9.5429239 8.0301962 -0.31482914 0
13.622453 15.348734 -0.63883674 27
8.644125 8.4207335 -0.44735372 1
9.3873367 7.8992724 -0.52708101 0
13.710964 15.448462 -1.0084107 29
8.5083761 8.2884922 -0.65057766 3
9.4490337 7.9511895 -0.74882656 3
12.523353 14.110353 -1.2554117 4
8.4759779 8.2569323 -0.85753959 6
9.5198488 8.0107794 -0.97482657 5
10.204898 11.498096 -1.2950065 2
8.4838495 8.2645988 -1.0678806 30
9.4900532 7.9857063 -1.1912075 3
8.8463554 9.9673939 -1.3586349 2
9.0759134 8.841363 -1.366614 2
8.0936718 7.8845057 -1.4190124 3
7.2749605 7.0869522 -1.4552194 3
6.5880647 6.4178081 -1.4822299 3
6.0244918 5.8687997 -1.5042053 4
5.5833354 5.4390445 -1.5330677 4
5.1884551 5.054369 -1.5529808 5
4.8451667 4.7199521 -1.5702071 4
4.5560861 4.4383421 -1.5888153 6
1.8288231 1.7815604 -0.87832105 12
1.7866873 1.7405136 -1.1626972 2
3.5839791 3.4429212 1.3118635 18
6.2790508 6.0319204 1.6825215 21
7.3791208 7.0886941 1.4315077 17
13.567271 13.033292 1.6333721 25
13.666582 13.128695 0.97493595 27
13.65957 13.121958 0.63926637 34
13.681677 11.350681 0.49438655 32
13.681794 15.200508 0.44838694 33
13.645404 13.108349 0.30318967 25
10.161574 8.4303112 0.1336606 0
13.671579 15.189159 0.086315215 43
9.7954769 8.1265869 -0.095965959 0
13.641033 15.155222 -0.27404055 26
9.2319546 8.8686037 -0.2475915 0
9.6756897 8.0272083 -0.31735262 0
13.619613 15.131424 -0.63373399 26
8.6854057 8.3435669 -0.44646466 8
9.519146 7.8973355 -0.5313732 0
13.706221 15.227646 -1.0002186 30
8.551631 8.2150564 -0.64948386 7
9.7071199 8.0532837 -0.76480544 2
8.4882431 9.430459 -0.84428895 0
8.5276604 8.19203 -0.85696137 15
9.6000957 7.9644933 -0.97732615 2
8.4263287 9.3616714 -1.0609854 0
8.5442123 8.2079306 -1.0682398 2
10.639559 8.8268595 -1.327728 3
8.9077377 9.8965187 -1.3574178 2
9.1345482 8.7750311 -1.3661849 1
8.1427946 7.8223109 -1.4180156 3
7.3128366 7.0250187 -1.45295 2
6.6241641 6.363451 -1.4803207 3
6.0766745 5.8375092 -1.5070223 5
5.6268315 5.4053712 -1.5346116 4
5.2292552 5.0234427 -1.5546578 5
4.8751898 4.6833124 -1.5693027 4
4.5869598 4.4064269 -1.5888153 7
1.8466716 1.7739904 -0.88092345 11
1.8066382 1.7355328 -1.1677672 1
3.6360049 3.4444146 1.3220726 18
6.3381147 6.0041432 1.6870749 22
7.474443 7.0805955 1.440375 18
13.571139 12.856041 1.6229926 26
13.656403 12.936811 0.9677431 29
13.660875 12.941049 0.63508373 31
13.639878 11.156162 0.49004981 32
13.674346 14.980569 0.44470444 29
13.632057 12.913749 0.30088258 20
10.164452 8.3135834 0.13293177 0
13.66942 14.975172 0.085639425 37
9.940033 9.4162674 -0.022702185 0
9.8829336 8.0833282 -0.096267544 0
13.646737 14.950322 -0.27205163 24
9.2326727 8.7461796 -0.24596719 0
9.7964954 8.0126295 -0.31947234 0
13.625189 14.926716 -0.62912911 9
8.7521486 8.2909756 -0.44690919 21
9.6668491 7.9065905 -0.53652388 0
8.6000748 8.1469154 -0.64882761 19
9.7043848 7.9372916 -0.76020545 0
8.4650793 9.273694 -0.83552468 0
8.5991249 8.1460152 -0.85840696 1
9.7357197 7.9629207 -0.98544967 1
8.4028034 9.2054701 -1.0499055 1
8.60709 8.1535606 -1.0689582 2
10.713251 8.7624512 -1.3292576 3
8.9658804 9.8223333 -1.3557951 2
9.1782627 8.6946363 -1.3636113 1
8.2029676 7.7707324 -1.4190124 2
7.3703256 6.9819641 -1.454652 2
6.6741619 6.3224831 -1.4815936 3
6.1229959 5.8003597 -1.5084307 5
5.6615815 5.3632579 -1.5338397 3
5.2613587 4.9841242 -1.5538193 5
4.9162526 4.6572022 -1.5720161 4
4.6091585 4.3662901 -1.5859072 7
1.875487 1.7766627 -0.88873076 11
1.8239745 1.7278646 -1.1711471 2
3.688225 3.4453478 1.3322817 21
6.3913569 5.9704728 1.6901106 20
7.5786948 7.0796223 1.4509048 18
13.558637 12.665772 1.6108834 25
13.661729 12.762075 0.96178335 43
13.657404 12.758036 0.63076621 34
13.639613 10.997921 0.48726988 33
13.678082 14.776155 0.44146034 33
13.660503 12.760931 0.29953676 24
10.19422 8.2198238 0.13256735 0
13.673096 14.770769 0.085014321 38
9.8009157 9.1555061 -0.022237927 0
9.9297829 8.0066032 -0.096177071 0
13.65568 14.751956 -0.27017024 28
9.2701273 8.6596708 -0.24534841 0
9.9175644 7.9967508 -0.32159206 0
8.6828518 9.3799095 -0.39788836 0
8.8127375 8.2323999 -0.44705737 8
9.808918 7.9091473 -0.54133111 0
8.4406042 9.1182137 -0.60660684 0
8.642148 8.0730448 -0.64773387 37
9.8403721 7.9345093 -0.76650017 0
8.3669386 9.0386353 -0.81958973 20
8.6878538 8.1157408 -0.86158735 11
9.8593693 7.9498267 -0.99232346 0
8.3937569 9.067606 -1.0408401 2
8.6608915 8.0905533 -1.068599 1
10.758664 8.6749487 -1.3273456 2
9.0288277 9.7536602 -1.3549837 2
9.238739 8.6303492 -1.3636113 1
8.2367153 7.6943111 -1.4155234 2
7.4073143 6.9195275 -1.4523827 2
6.7123661 6.2703428 -1.4803207 3
6.1403217 5.7359691 -1.502797 4
5.7017536 5.3262815 -1.5346116 3
5.2988839 4.9499416 -1.5546578 4
4.9344087 4.609468 -1.5674937 5
4.6310205 4.3260584 -1.582999 6
1.9127209 1.7867643 -0.90044171 11
1.8439405 1.7225133 -1.176217 2
3.7463229 3.450959 1.3445325 16
6.4704337 5.9602981 1.6999766 19
7.6774664 7.0721674 1.4603262 17
13.576385 12.50601 1.6025798 25
13.662347 12.585194 0.95561808 53
13.654987 12.578414 0.62658358 33
13.637809 10.840232 0.48448992 38
13.676898 14.569511 0.43812856 36
13.655125 12.578541 0.29748604 21
10.267012 8.1609001 0.13276981 0
13.674587 14.56705 0.08438921 35
9.7969284 9.0245285 -0.022085385 0
10.066849 8.0017967 -0.0969612 0
13.63515 14.525039 -0.26775128 27
9.3009415 8.567646 -0.24457492 0
10.054538 7.9920111 -0.32421649 0
8.6277246 9.1908073 -0.39241228 0
8.8258953 8.1300526 -0.44483468 6
9.9546194 7.9125896 -0.54631007 0
8.4384289 8.9891577 -0.60192561 0
8.7041731 8.0179272 -0.64817137 5
10.001795 7.9500875 -0.7747317 0
8.3642769 8.9101658 -0.81321573 25
8.7120228 8.0251589 -0.85840696 5
10.048863 7.9875007 -1.0057586 0
8.3968391 8.9448538 -1.0334535 2
8.6995821 8.0136976 -1.0664438 2
10.840783 8.616971 -1.3300225 3
9.0994234 9.6932917 -1.3553895 2
9.2987642 8.5656404 -1.3636113 2
8.2989874 7.6446872 -1.4170188 2
7.4467039 6.8595986 -1.4506806 2
6.7646914 6.2313561 -1.4822299 3
6.1773205 5.6902943 -1.5020927 4
5.7185922 5.2677326 -1.5292081 3
5.3246818 4.9048786 -1.5521423 5
4.9722004 4.5801868 -1.5693027 5
4.661109 4.2936225 -1.582999 5
1.9334942 1.7810556 -0.90434539 10
1.8745869 1.7267926 -1.1880467 2
3.7932262 3.4455242 1.3526998 17
6.526422 5.9281845 1.7037711 20
7.8028922 7.0876484 1.4747355 17
13.580769 12.335902 1.5928924 25
13.667078 12.4143 0.94986379 34
13.674406 12.420956 0.62348032 32
13.63447 10.683106 0.48170996 48
13.681772 14.372298 0.43505982 58
10.332118 9.3850355 0.22365925 0
10.408743 8.1556311 0.13386306 0
13.665632 14.355343 0.08371342 37
9.7827091 8.8859873 -0.021912947 0
10.336565 8.0990772 -0.099012017 0
13.650732 14.339691 -0.26608488 26
9.3398056 8.4836826 -0.24403349 0
10.188777 7.9832802 -0.32673997 0
8.6089783 9.0434771 -0.38867855 0
8.85285 8.0413628 -0.44335288 1
10.103988 7.9168444 -0.55146068 0
8.4403763 8.8663654 -0.59763455 0
8.7924566 7.986505 -0.65057766 0
10.138766 7.9440947 -0.78102636 0
8.3629847 8.7850676 -0.80710733 38
8.7737417 7.9695063 -0.85898525 1
10.167161 7.9663429 -1.0120075 0
8.3958721 8.8196163 -1.0257311 1
8.7641621 7.9608045 -1.0675215 1
10.881871 8.5263443 -1.327728 2
9.136693 9.597826 -1.3509269 2
9.3642235 8.5058622 -1.3644692 2
8.3492174 7.5838952 -1.4165204 2
7.4914808 6.8047824 -1.4501133 3
6.8080292 6.1839786 -1.4822299 3
6.2431264 5.670857 -1.5084307 5
5.7639432 5.2355976 -1.5315238 3
5.353004 4.8623266 -1.5504651 5
5.0011702 4.5427432 -1.5683981 5
4.688098 4.2583685 -1.5820297 7
1.9710796 1.7904028 -0.91605633 4
1.88928 1.7161012 -1.1897367 2
3.8546395 3.4525034 1.3659716 17
6.5793509 5.8929586 1.7068068 20
7.9023471 7.0779333 1.484157 18
13.589378 12.171664 1.5838969 25
13.661167 12.235964 0.94349301 49
13.665494 12.239839 0.6191628 30
13.683404 10.568109 0.48082039 54
13.681787 14.172854 0.43190342 43
10.266302 9.1952677 0.22083947 0
10.550897 8.148778 0.13495632 0
13.671062 14.161744 0.083139002 37
9.7938528 8.7721071 -0.0218002 0
10.623948 8.2051973 -0.10121363 0
13.650504 14.140449 -0.26414973 25
9.3660355 8.3889217 -0.24318266 0
10.310722 7.963284 -0.32885969 0
8.5969296 8.9054918 -0.38531822 0
8.9474802 8.0140324 -0.44527921 0
10.238082 7.9071817 -0.55575287 0
8.4465714 8.7497358 -0.59373349 0
8.8896503 7.9622355 -0.65364021 1
10.282457 7.9414544 -0.78780526 0
8.3769865 8.6776543 -0.8025924 35
8.9123755 7.9825902 -0.86708069 0
10.332991 7.9804831 -1.022943 0
8.3769579 8.6776237 -1.0159942 1
8.8670053 7.9419532 -1.0732685 0
10.956887 8.4623365 -1.32964 2
9.1896553 9.5194902 -1.3488985 2
9.3552427 8.3792553 -1.3546035 1
8.4019594 7.525423 -1.4165204 2
7.5329051 6.7470331 -1.4489787 3
6.8510351 6.1362996 -1.4822299 3
6.2825642 5.6271343 -1.5084307 5
5.8120484 5.2057052 -1.5346116 3
5.3955588 4.8326659 -1.5529808 5
5.021153 4.4973202 -1.5647801 5
4.7263846 4.2333035 -1.5849378 8
1.9976183 1.7892164 -0.92256242 0
1.9147173 1.714964 -1.1981865 2
3.901839 3.4459901 1.3741388 20
6.6291623 5.854682 1.7090836 20
7.9990745 7.064549 1.4930242 16
13.584414 11.997357 1.5735176 24
13.66841 12.07154 0.93814975 41
13.660717 12.064746 0.61511511 28
13.67413 10.409354 0.47792923 40
13.679688 13.974115 0.428747 56
10.2583 9.0598307 0.21930142 0
10.718919 8.1597166 0.1363735 0
13.671661 13.965916 0.082547687 38
10.763288 9.5058222 -0.02380977 0
10.607771 8.0751057 -0.10051997 0
13.650964 13.944773 -0.2622683 22
9.3824072 8.2862673 -0.24209978 0
10.48697 7.9831462 -0.33269539 0
8.6225338 8.808116 -0.38370028 0
9.0541439 7.9963546 -0.44779828 0
10.37889 7.9008708 -0.56038845 0
8.4347849 8.6163263 -0.58866221 0
8.9809437 7.9317064 -0.65626526 0
10.442486 7.9492831 -0.79579473 0
8.3926926 8.573328 -0.79834306 7
9.0247021 7.9703536 -0.87257403 2
8.6781979 6.6062284 -0.85453546 1
8.4206047 8.601841 -1.0139797 1
8.9998703 7.9484224 -1.0826075 2
8.763135 6.6708865 -1.0577464 4
9.2781591 9.4778528 -1.352144 2
9.1124468 8.0478468 -1.3112803 1
8.4542913 7.4665828 -1.4165204 3
7.5916953 6.7047634 -1.4512479 2
6.8907471 6.0857062 -1.4815936 3
6.3275986 5.5883498 -1.5098391 4
5.8364816 5.1546102 -1.5315238 3
5.4203706 4.7871127 -1.5504651 5
5.06703 4.4750528 -1.5693027 4
4.7441878 4.1899281 -1.5810603 7
2.0497515 1.8102807 -0.94077945 0
1.9755567 1.744754 -1.228606 1
3.9520512 3.4415255 1.3833269 17
6.6698737 5.80826 1.7090836 21
8.1228857 7.0735722 1.5068793 18
13.595714 11.83942 1.565214 26
13.664986 11.899744 0.93219 63
13.654167 11.890324 0.61106741 36
13.688897 10.270444 0.47592765 44
13.69239 13.793132 0.42611665 51
10.239862 8.917078 0.21757109 0
10.817215 8.1158915 0.13689989 0
13.673015 13.773613 0.081973262 42
9.8490124 8.5767183 -0.021654289 0
10.759871 8.0728674 -0.10142474 0
13.660631 13.761138 -0.26060194 2
9.3978033 8.1837959 -0.24101691 0
10.596823 7.9505363 -0.33441135 0
8.6415644 8.7051449 -0.38183343 0
9.1459208 7.9644518 -0.44957644 0
10.53289 7.9025698 -0.56571072 0
8.4553261 8.5175352 -0.58593148 0
9.3222408 8.1179943 -0.67704701 3
8.9104538 6.6852951 -0.67546916 1
8.424222 8.4862022 -0.79568726 0
9.2756882 8.0774555 -0.89136702 2
8.6347914 6.4784727 -0.84578705 3
8.4860668 8.5485029 -1.0146512 1
9.1152287 7.9377241 -1.0897914 2
8.7043905 6.5306907 -1.0451269 1
9.3441 9.4128494 -1.352144 1
9.126421 7.9474702 -1.3052751 2
8.4882526 7.3917413 -1.4135298 3
7.6204019 6.6359987 -1.4478439 3
6.9271088 6.0322657 -1.4803207 3
6.3723965 5.5492105 -1.5112475 4
5.8871245 5.1266265 -1.5353836 3
5.4566083 4.7517242 -1.5513036 5
5.0952091 4.4370108 -1.5683981 5
4.7821035 4.1643515 -1.5839684 7
2.0851593 1.8157986 -0.95118916 0
2.1189258 1.8452032 -1.3097243 1
4.0011902 3.4379234 1.3925151 16
6.717185 5.7715745 1.7113603 22
8.2507458 7.0892491 1.5218428 17
13.592328 11.67887 1.5558726 28
13.664831 11.741167 0.92684674 49
13.672082 11.747397 0.60836893 36
13.695641 10.134241 0.4738149 26
13.68714 13.606159 0.42313558 52
10.225973 8.7864132 0.21603304 0
11.025135 8.1581707 0.13884345 0
13.681797 13.600848 0.081483319 45
9.8419666 8.4564657 -0.021515012 0
10.916065 8.0774632 -0.10238983 0
9.5875406 9.5308151 -0.18169029 1
9.3548059 8.0378857 -0.23854177 0
10.752179 7.9561939 -0.33764139 1
8.687767 8.6363659 -0.38133562 0
9.2440195 7.9426947 -0.45179912 0
10.700718 7.9181147 -0.57189149 0
8.4691286 8.4190207 -0.58300573 0
9.5515795 8.2069569 -0.68973482 2
8.8037472 6.51443 -0.66409034 1
8.429369 8.3794956 -0.79090673 0
9.3320818 8.0183601 -0.89165616 5
8.6198673 6.378366 -0.84016305 3
8.4719057 8.4217806 -1.0062573 1
9.2643661 7.9601765 -1.1012856 2
8.5874767 6.3543983 -1.0260065 25
9.3696346 9.3141985 -1.3468701 1
9.2483072 7.9463782 -1.3151407 2
8.5250492 7.3249369 -1.4115361 3
7.6972814 6.613698 -1.4540846 3
6.9729548 5.9913383 -1.4815936 3
6.4120464 5.5093918 -1.5119518 5
5.92695 5.0925846 -1.5369275 3
5.4761372 4.705235 -1.5479496 5
5.1156588 4.3955026 -1.5656847 4
4.8155041 4.1376023 -1.5859072 7
2.105763 1.8093246 -0.95509279 0
2.1256173 1.8263839 -1.3063444 2
4.0634561 3.4424052 1.4057869 16
6.7423315 5.7118464 1.7075658 11
8.3514204 7.0750055 1.5312643 17
13.582314 11.506419 1.5454931 27
13.655025 11.568018 0.92068148 47
13.668353 11.579309 0.60459107 33
13.707905 9.9959755 0.47181335 24
13.676133 13.406693 0.41989148 54
10.253496 8.6863718 0.2153281 0
11.162616 8.1399193 0.13985573 0
13.68501 13.415395 0.080942683 41
9.8641396 8.3565235 -0.021435425 0
11.046523 8.0552626 -0.10308348 0
9.5995779 9.4104519 -0.18066895 0
9.4717216 8.0240822 -0.24008873 0
10.956084 7.9893136 -0.34228459 0
8.6907482 8.5195274 -0.37884647 0
9.3510933 7.9218903 -0.45431817 0
10.846148 7.9091468 -0.57669878 0
8.5048742 8.3373156 -0.58144534 0
9.6360683 8.1633101 -0.69170362 5
8.7167444 6.356359 -0.65416408 1
8.4591627 8.2925043 -0.78825092 5
9.4334936 7.9916964 -0.89599299 2
8.5965223 6.2686915 -0.83360171 3
8.5020304 8.334528 -1.0028998 1
9.3896246 7.9545326 -1.109547 6
8.6605835 6.3154054 -1.0294482 1
9.440114 9.2541304 -1.3476814 1
9.3915558 7.9561682 -1.3275801 2
8.5759783 7.2652426 -1.4115361 3
7.7251382 6.5444431 -1.4506806 3
7.020638 5.9476175 -1.4828664 3
6.4203091 5.4390416 -1.5049096 5
5.9683475 5.0561566 -1.5384713 3
5.5207887 4.677002 -1.5513036 4
5.1491933 4.3622007 -1.5665891 4
4.8294668 4.0913405 -1.5810603 6
2.2799604 1.9314958 -1.0279609 0
2.1244848 1.7997828 -1.2978946 1
4.1230092 3.4437046 1.4180378 19
3.9034421 3.2603133 0.98279893 4
8.4674978 7.0723982 1.5434568 19
13.56138 11.327016 1.5340759 26
13.652672 11.403266 0.91513276 47
13.666015 11.414411 0.60094815 32
13.696177 9.8417015 0.46903339 26
13.694639 13.238624 0.41761184 53
10.243287 8.5556087 0.21385413 0
11.329609 8.1411495 0.14123242 0
13.680552 13.225006 0.080368266 39
9.882328 8.2541218 -0.021349207 0
11.258406 8.0899849 -0.10453112 0
9.5471382 9.2292299 -0.17846502 0
9.579689 8.0013456 -0.24140365 0
11.09927 7.9756346 -0.34500995 0
8.6953974 8.4058514 -0.3764818 0
9.4828672 7.920476 -0.45802265 0
9.2557116 6.6509032 -0.48965314 0
8.5599985 8.2749605 -0.58125031 1
9.6621695 8.0702362 -0.68951607 2
8.6830902 6.2394333 -0.64835358 2
8.5053692 8.2221508 -0.78718859 10
9.5502949 7.9767942 -0.90177548 2
8.5785465 6.1643109 -0.82766527 2
8.5342169 8.2500381 -0.99987799 1
9.521369 7.9526339 -1.1185268 2
8.5395555 6.1362934 -1.0099452 6
9.4873228 9.1714067 -1.3452474 1
9.6849499 8.089263 -1.3610377 1
8.6203976 7.2001057 -1.4105393 3
7.7554436 6.4776616 -1.4478439 3
7.0710812 5.906054 -1.4847757 3
6.4823008 5.4142809 -1.5105433 5
5.9944634 5.0068192 -1.5361555 3
5.5473018 4.6333318 -1.5496266 5
5.1825118 4.3286443 -1.5674937 5
4.8549337 4.0550375 -1.5800909 7
2.3369346 1.9519027 -1.0474792 0
2.1286502 1.777935 -1.2928247 1
4.1797915 3.44188 1.4292676 16
3.8957908 3.2080178 0.97520977 3
8.5992336 7.0811024 1.5584203 11
13.550915 11.158601 1.5240424 25
13.611682 11.20864 0.9071179 42
13.606496 11.20437 0.59487659 34
13.689497 9.6927042 0.46647584 46
13.688313 13.048878 0.41463077 46
10.268805 8.4559231 0.21314919 0
11.487364 8.1335068 0.14248763 0
13.682795 13.043618 0.079844527 33
9.9026575 8.1544161 -0.021269619 0
11.490891 8.1360035 -0.1061597 1
9.5505428 9.1043997 -0.17733617 0
9.7155848 8.00037 -0.2434147 0
11.262376 7.974206 -0.34834096 0
8.7278242 8.3201132 -0.37536168 0
9.6428452 7.9404721 -0.46306077 0
9.2366877 6.5399389 -0.48621938 1
8.6031008 8.2012157 -0.58027506 0
9.6442776 7.9416513 -0.68426591 0
8.6743011 6.141747 -0.64447993 2
8.5683413 8.1680803 -0.78771973 2
9.728941 8.0113678 -0.91334039 1
8.7352819 6.1849241 -0.83860081 2
8.5656395 8.1655045 -0.99685621 2
9.6227865 7.9239545 -1.1239147 2
8.5106955 6.0259085 -1.0015322 23
9.5540009 9.1076956 -1.3456531 1
9.7319775 8.0138683 -1.3597509 2
8.6735172 7.142272 -1.4110377 3
7.7974205 6.4208436 -1.4472766 3
7.1090918 5.8540344 -1.4841392 3
6.5381784 5.3839116 -1.5147686 4
6.0292711 4.964848 -1.5361555 2
5.5795131 4.5944915 -1.5496266 4
5.2005734 4.2824507 -1.5638757 5
4.8921118 4.0284457 -1.582999 7
3.6878099 3.0367544 -1.6434363 6
2.0934327 1.7238525 -1.2640953 1
4.2517605 3.4516175 1.4456022 19
3.9119937 3.1757917 0.97369194 3
6.8646374 5.5727744 1.2369822 3
13.560421 11.008471 1.5164309 30
13.618268 11.055432 0.90239114 39
13.622309 11.058713 0.59217817 34
13.691243 9.5511436 0.46425188 49
13.688751 12.868088 0.41191274 31
10.308956 8.3689032 0.21276467 0
11.704608 8.1652479 0.14447169 0
10.018349 8.1329851 -0.021395631 0
11.593337 8.0876245 -0.10658193 0
9.5177031 8.9471006 -0.17556228 0
9.8457184 7.9928422 -0.24527106 1
11.422716 7.9685974 -0.35157099 0
8.7594795 8.234334 -0.37424159 0
9.7787323 7.9384627 -0.46691343 0
9.2296772 6.4387126 -0.48347238 1
8.636858 8.1190643 -0.57871461 0
9.7863092 7.9446135 -0.69039106 0
8.6743965 6.051343 -0.64133257 3
8.6455116 8.1271992 -0.7895788 0
9.849678 7.996057 -0.91941202 0
8.7651653 6.1146646 -0.83735102 2
8.6137238 8.0973167 -0.99584895 10
11.267653 9.1471815 -1.3085399 2
8.5362282 5.9549556 -0.99962008 21
9.6289492 9.0516777 -1.3472757 1
9.7722483 7.9331994 -1.3576062 1
8.7324114 7.0890503 -1.4125329 3
7.8297591 6.3562689 -1.4450073 3
7.1497869 5.8042612 -1.4841392 3
6.5756054 5.3381357 -1.5147686 4
6.0546436 4.9152141 -1.5338397 3
5.6023431 4.5480323 -1.5471109 4
5.2363935 4.2509513 -1.5656847 7
4.9201159 3.9941945 -1.582999 7
3.7089202 3.0109348 -1.6434363 8
2.1026013 1.7069106 -1.2624053 9
4.3301067 3.4653487 1.4639785 18
3.9003401 3.1214101 0.96534383 3
6.9559541 5.566793 1.2464037 5
13.552938 10.846305 1.5070894 28
13.623382 10.90268 0.89766443 53
13.633635 10.910886 0.58934474 30
13.691684 9.4100342 0.46202791 67
13.693202 12.693368 0.40937006 37
10.339027 8.2742386 0.2121879 0
11.853623 8.1467695 0.14560543 0
10.073535 9.3379974 0.058016527 0
10.209173 8.1703176 -0.021680819 0
11.751705 8.0767241 -0.10751686 0
9.5271349 8.8314934 -0.17459469 0
9.935626 7.9513993 -0.24612188 0
11.603296 7.9747252 -0.35540667 0
8.8050232 8.1621084 -0.37374374 0
9.9306622 7.9474273 -0.47150698 0
9.2348804 6.3469582 -0.48141211 1
8.6845388 8.0504217 -0.57812947 1
9.9350853 7.9509668 -0.69695371 0
8.6769457 5.9635 -0.63842732 3
8.6932583 8.0585041 -0.78878206 1
9.9955921 7.9993901 -0.92779654 0
8.7714891 6.0284777 -0.83391416 3
8.6700439 8.0369844 -0.99584895 5
11.35612 9.0882101 -1.3114134 4
8.5480604 5.8749194 -0.99617839 20
9.6831512 8.9761181 -1.3460587 1
9.8242893 7.862298 -1.3571771 1
8.7661963 7.0155149 -1.4100409 4
7.8924923 6.3162971 -1.4484113 3
7.1932173 5.7566729 -1.4847757 4
6.6127124 5.2920995 -1.5147686 4
6.1041322 4.885087 -1.5376993 3
5.6339579 4.50881 -1.5471109 3
5.2568169 4.2069869 -1.5629711 7
4.9478807 3.9597485 -1.582999 6
3.7387097 2.9920588 -1.6473399 7
2.1342807 1.7080474 -1.274235 8
4.3906302 3.4637797 1.4762293 17
3.9035361 3.07951 0.96079034 3
7.0599604 5.5696216 1.258042 8
13.572013 10.706998 1.5008618 30
13.623895 10.747927 0.8927322 45
13.621593 10.746111 0.58556688 34
13.697447 9.2738695 0.46002635 59
13.695885 12.519217 0.40682742 34
10.402821 8.2068129 0.21231607 0
12.098997 8.191637 0.14791341 0
9.961338 9.1055202 0.057002842 0
10.297367 8.123621 -0.02174714 0
11.927042 8.0752144 -0.10860258 0
9.5619888 8.7404804 -0.1741109 0
10.100787 7.9685383 -0.24882907 0
10.168653 6.8846965 -0.30998409 6
8.8765459 8.1139269 -0.37436604 1
10.054945 7.932373 -0.47476694 0
9.2094727 6.2352819 -0.47780669 0
8.7464275 7.9949875 -0.57851958 0
10.078151 7.9506798 -0.70307887 0
8.6819992 5.8781557 -0.63576418 3
8.7227917 7.9733825 -0.78639179 2
10.129498 7.991188 -0.93502462 0
8.7076931 5.8955522 -0.82391596 1
8.7435932 7.9923964 -0.99786347 1
11.384886 8.9815664 -1.3074623 3
8.5493021 5.7883129 -0.99158949 15
9.7338314 8.8975592 -1.3444359 1
9.872694 7.7885947 -1.3563193 1
8.802496 6.9443121 -1.4080471 4
7.9146357 6.2438769 -1.4444399 3
7.2177291 5.6940856 -1.4815936 4
6.6371312 5.2360506 -1.5119518 4
6.1380877 4.8423538 -1.5376993 3
5.6714387 4.4742131 -1.5487881 3
5.3013539 4.1822524 -1.5674937 5
4.9662642 3.9178989 -1.5800909 7
3.7535679 2.9611998 -1.6447375 6
2.1831558 1.7222974 -1.2962046 7
4.4482884 3.4591589 1.4874593 16
3.8908372 3.0256634 0.95244223 4
7.1549611 5.5639706 1.2680176 8
13.592954 10.570399 1.4949801 27
13.660755 10.623124 0.89026612 56
13.674193 10.633574 0.58462244 32
13.698651 9.1358652 0.45791358 54
13.693837 12.342976 0.40419707 32
10.55142 8.2051868 0.21417455 0
12.259048 8.1757689 0.14916864 0
9.9503841 8.9688044 0.056580476 0
10.549603 8.2037725 -0.02215834 0
12.112907 8.0783052 -0.10977878 0
9.5990067 8.6520901 -0.17368087 0
10.269826 7.986208 -0.25161362 0
10.063439 6.7114797 -0.30534089 0
8.953763 8.0704975 -0.37523723 1
10.195275 7.9282351 -0.47876778 0
9.226181 6.1530981 -0.47643319 1
8.8317051 7.9604802 -0.58047009 0
10.224845 7.9512296 -0.70942277 0
8.7062159 5.8063245 -0.63455367 3
8.810854 7.9416862 -0.78931326 1
10.279522 7.9937482 -0.94369835 0
8.7121458 5.8102794 -0.82047904 1
8.8317432 7.960515 -1.0015568 1
11.437877 8.8945293 -1.3063847 2
8.5596895 5.7086039 -0.9881478 17
9.0005836 8.1126995 -1.235307 1
9.9393864 7.7292461 -1.3580351 1
8.8382301 6.8729448 -1.4060534 4
7.9705358 6.1981926 -1.4467093 2
7.2666578 5.6508303 -1.4835029 3
6.6735244 5.1895871 -1.5119518 5
6.1562524 4.7873368 -1.5338397 3
5.7025366 4.4345098 -1.5487881 3
5.3273468 4.1427479 -1.5665891 5
5.0026855 3.8902791 -1.582999 7
3.7771354 2.9372444 -1.6460387 7
2.2180221 1.7248187 -1.3097243 5
4.5165105 3.4593828 1.501752 15
3.9004402 2.9875088 0.94940656 3
7.2678871 5.5667758 1.2807643 7
13.61629 10.429281 1.4890984 27
13.658976 10.461976 0.88512838 25
13.666082 10.467419 0.58097953 33
13.71177 9.0000992 0.45613441 34
13.697236 12.165252 0.40165439 38
10.697012 8.193285 0.21590488 0
13.699648 8.9921427 0.16589139 26
9.9470739 8.8345318 0.056191895 0
10.590402 8.1116276 -0.022118546 0
12.308899 8.0792856 -0.1110153 0
9.6083431 8.5336866 -0.17271328 0
10.38524 7.9544854 -0.25300586 0
10.082279 6.6177826 -0.30443242 0
9.0455627 8.0338507 -0.37660626 0
10.345145 7.9237757 -0.48306498 0
9.214241 6.0480218 -0.4735145 0
8.9346285 7.9353237 -0.58339584 1
10.374807 7.9464951 -0.71576667 0
8.7151661 5.7204399 -0.63213265 2
8.9374666 7.9378448 -0.79542166 0
8.7542257 6.7052245 -0.7991367 0
8.6344872 5.6674848 -0.80923104 3
8.9733047 7.9696741 -1.010958 2
11.52807 8.8298273 -1.3092582 2
8.5879917 5.6369658 -0.98661816 16
9.0032797 7.9962969 -1.227599 1
9.9831476 7.6465068 -1.3563193 2
8.8789206 6.8007336 -1.4045582 3
8.0000391 6.1275616 -1.4438726 3
7.3016148 5.5926094 -1.4822299 4
6.6895046 5.1237693 -1.5070223 4
6.1756001 4.7301483 -1.5299799 3
5.7255745 4.3854547 -1.5462724 3
5.3482914 4.096478 -1.5638757 5
5.0125828 3.839345 -1.5771828 7
3.795562 2.9071784 -1.6447375 7
2.8810794 2.2067382 -1.6916568 12
4.5806785 3.4580605 1.5150237 15
3.9055295 2.9483747 0.94561195 3
7.3761292 5.5684114 1.2929568 6
13.615616 10.278745 1.4811409 30
13.67748 10.325447 0.88163471 30
13.690965 10.335627 0.57895565 33
13.707108 8.8607407 0.45391044 58
10.840135 8.1834688 0.21763518 0
13.704988 8.8593693 0.16520305 36
9.9994822 8.7569675 0.056141213 0
10.755316 8.1194372 -0.022344043 0
12.502728 8.0821877 -0.11225182 0
9.6255608 8.4295092 -0.17196073 0
10.529891 7.9492588 -0.25517163 0
9.9972658 6.4625716 -0.3004958 0
9.1555691 8.0179176 -0.37884647 0
10.479967 7.9115701 -0.48676947 0
9.242815 5.9748693 -0.47282773 0
9.025877 7.9043403 -0.58573645 0
10.538411 7.9556913 -0.72320437 0
8.7481833 5.6551228 -0.63164842 3
9.0767374 7.9488811 -0.802858 2
8.7053003 6.5718336 -0.79046303 1
8.6470518 5.5897474 -0.80673146 65
9.1576633 8.0197515 -1.0253954 6
8.7914352 6.6368585 -0.99316847 4
8.6037283 5.5617418 -0.98394132 19
9.1097784 7.9778166 -1.2344956 1
10.045808 7.5838137 -1.3576062 2
8.9325171 6.7433643 -1.405555 2
8.0584221 6.0834899 -1.4467093 3
7.3341761 5.5367398 -1.4809572 4
6.7471099 5.0935497 -1.5119518 4
6.2397966 4.7105675 -1.5376993 3
5.768537 4.3548021 -1.5496266 3
5.3767595 4.0590405 -1.5638757 5
5.0547504 3.8159485 -1.5820297 6
3.8187838 2.8828886 -1.6460387 8
2.896415 2.1865709 -1.6916568 12
4.6605611 3.4675524 1.5334001 16
3.9134142 2.9116602 0.94257629 2
7.4942799 5.5758972 1.3068119 1
13.616707 10.131107 1.4735292 29
13.691544 10.186789 0.87793559 31
13.682603 10.180136 0.57558256 27
13.694427 8.7175932 0.45146409 60
10.608922 9.1606073 0.30731252 1
11.028563 8.2054758 0.22026271 0
13.709143 8.7269611 0.16451471 38
9.9604654 8.6006765 0.055583686 0
10.911222 8.1181726 -0.022549642 0
10.426339 6.6371956 -0.093191326 0
9.6327114 8.317668 -0.1710469 0
10.658928 7.93046 -0.25695062 0
9.9578075 6.3389378 -0.29797232 0
9.26579 8.0008383 -0.38108671 0
10.643983 7.9193401 -0.49180758 0
9.2539606 5.890883 -0.47128254 0
9.3711357 8.0918026 -0.60446131 0
8.8344889 6.57304 -0.60310781 1
8.7638721 5.5789027 -0.62995368 2
9.195447 7.9400978 -0.8084352 2
8.7477684 6.5085177 -0.79017389 3
8.6791363 5.5249615 -0.80610663 53
9.2466135 7.9842796 -1.0290887 8
8.6361933 6.4255037 -0.97053933 2
8.6322699 5.4951272 -0.98279405 28
9.2465725 7.9842439 -1.2454492 3
10.060221 7.4850097 -1.3524588 1
8.9952974 6.6926851 -1.4080471 2
8.0848131 6.0152664 -1.4438726 3
7.3884926 5.497189 -1.4841392 4
6.7603917 5.0298696 -1.5070223 4
6.2473392 4.6481481 -1.5315238 3
5.7987986 4.3144245 -1.5496266 4
5.4205956 4.0330338 -1.5683981 6
5.0750408 3.7759337 -1.5800909 7
3.8327477 2.8516426 -1.6434363 6
2.9116096 2.166297 -1.6916568 10
4.7314391 3.4692349 1.5487137 18
3.9146423 2.8703349 0.93802279 1
7.5745544 5.5538936 1.3140166 1
13.622828 9.9886713 1.4666097 27
13.678567 10.029541 0.87259233 30
13.682412 10.03236 0.57261425 26
13.69397 8.5835524 0.44946253 50
10.599537 9.0241032 0.30520824 1
11.20169 8.2134199 0.22256979 0
13.701952 8.5885563 0.16370489 37
9.9837179 8.499815 0.055380948 0
11.070856 8.1174879 -0.022761876 0
10.431751 6.538753 -0.092829421 0
9.6722727 8.2346601 -0.17072436 0
10.807562 7.9244328 -0.25919372 0
9.9509964 6.2374101 -0.29645824 0
9.403615 8.0059328 -0.38444704 0
10.79894 7.9181108 -0.49640113 0
9.2847023 5.8197684 -0.4707675 1
9.5429983 8.1245995 -0.61187321 2
8.8318472 6.4757786 -0.59982646 1
8.7958403 5.5133433 -0.62946951 4
9.3418245 7.9533277 -0.81640273 18
8.6224728 6.3222589 -0.77485037 2
8.7208738 5.4663534 -0.80641901 6
9.3901424 7.9944634 -1.0388256 2
8.6069469 6.3108749 -0.96227789 3
8.6603012 5.4283857 -0.98164684 39
9.3657179 7.9736691 -1.2539685 2
8.7459726 6.4128127 -1.1697289 1
9.0482035 6.6344175 -1.4090439 2
8.1298037 5.961019 -1.4444399 3
7.4298744 5.4478092 -1.4847757 4
6.8175693 4.9988489 -1.5119518 3
6.3017931 4.620666 -1.5369275 4
5.8224688 4.2692113 -1.5479496 3
5.4203391 3.9743574 -1.5602577 4
5.1044068 3.7427063 -1.5810603 8
3.8556128 2.8270524 -1.6447375 6
2.9237382 2.1437738 -1.6899669 10
4.808836 3.4746253 1.566069 18
3.918669 2.831435 0.93422818 1
8.6759653 6.2688203 1.4974579 24
13.608248 9.8326416 1.4576142 25
13.677017 9.8823309 0.86807114 50
13.68407 9.8874273 0.56978089 32
13.709327 8.4604435 0.44801694 49
10.561199 8.8650398 0.30231485 0
11.365737 8.2123156 0.22468463 0
13.717327 8.4653807 0.1631785 34
9.9907312 8.3861904 0.055093739 0
11.269914 8.1430779 -0.023053695 0
10.487357 6.4720678 -0.092919894 0
9.6590652 8.1077909 -0.16948801 0
10.979319 7.9331088 -0.26197827 0
11.845473 7.3102021 -0.35136911 0
9.5174599 7.9889274 -0.3868117 0
10.957634 7.9174409 -0.50114286 0
9.3149033 5.7485108 -0.47025242 1
9.587244 8.0475044 -0.61109298 1
8.7732449 6.3391099 -0.59282631 1
8.834116 5.4518023 -0.62946951 4
9.461318 7.941802 -0.82197994 3
8.6146603 6.2245245 -0.77022439 1
8.7384624 5.3927712 -0.80454439 9
9.522048 7.9927788 -1.0472194 4
8.5991297 6.2133026 -0.95653081 3
8.6912107 5.3636112 -0.98088199 50
9.5095453 7.9822845 -1.2657334 1
8.6648111 6.2607608 -1.1530001 2
9.0975161 6.5734115 -1.4095423 2
8.1648016 5.8994789 -1.4433053 3
7.4613242 5.3911815 -1.4835029 3
6.8491096 4.9488254 -1.5112475 3
6.3275352 4.5719614 -1.5353836 4
5.8616419 4.2353301 -1.5504651 3
5.4479532 3.9364195 -1.5602577 5
5.1115379 3.6933427 -1.5752439 7
3.8691235 2.7956357 -1.642135 6
2.9474492 2.1296799 -1.6950368 10
4.8644819 3.4634001 1.5762781 18
3.9287426 2.7971754 0.93195146 3
8.6904745 6.1874199 1.49247 14
13.618128 9.695797 1.4513866 28
13.693608 9.7495375 0.86478299 40
13.687632 9.7452812 0.56708241 27
13.706547 8.3271608 0.44601539 74
10.555053 8.7350016 0.30038592 0
11.530309 8.2093172 0.22679944 0
13.711142 8.3299522 0.16240917 38
10.033627 8.3034878 0.055009264 0
11.769642 8.3797169 -0.02395568 1
10.545959 6.4070034 -0.093040533 0
9.7400837 8.0605612 -0.16991805 0
11.125656 7.9212132 -0.264144 0
11.831286 7.187881 -0.34945127 0
9.6438437 7.9809165 -0.38967422 0
11.126611 7.9218931 -0.50632918 0
9.3479767 5.6791921 -0.46990904 1
9.5539322 7.9065089 -0.60543656 0
8.7684832 6.24296 -0.58954501 1
8.8651371 5.3858509 -0.62898529 3
9.6917953 8.0205994 -0.83711821 2
8.7229052 6.2105103 -0.77600688 1
8.7929382 5.3419881 -0.80610663 92
9.6543837 7.9896393 -1.0556133 2
8.5676546 6.0999751 -0.94826937 5
8.7318459 5.304873 -0.98126441 58
10.156724 8.4053583 -1.3440303 1
8.6337957 6.1470656 -1.1431344 2
9.1399527 6.5074377 -1.4090439 3
8.2025633 5.8400383 -1.4427379 3
7.4987803 5.3389606 -1.4835029 3
6.8866997 4.9031734 -1.5119518 4
6.3465099 4.5185704 -1.5322958 3
5.891067 4.1943054 -1.5504651 3
5.4753017 3.8982902 -1.5602577 5
5.1530046 3.6688221 -1.5800909 7
3.8854651 2.7663627 -1.6408339 6
2.9651988 2.1111538 -1.6967268 10
4.9423671 3.467114 1.5936335 17
3.9128087 2.7448697 0.92360336 0
8.6750841 6.0856485 1.4824944 21
13.620238 9.5547171 1.4444669 29
13.66977 9.5894651 0.8590287 42
13.689878 9.60357 0.56438392 26
13.712873 8.2004852 0.44434741 58
10.5631 8.618125 0.29889539 0
11.711759 8.2159014 0.22923471 0
13.707172 8.1970758 0.16168034 36
10.04176 8.1927786 0.05473895 0
11.634655 8.1618137 -0.023564378 0
10.511476 6.286006 -0.092346877 0
9.8673964 8.0505209 -0.17115441 0
11.298549 7.9260316 -0.26692855 0
9.9558935 5.9537601 -0.29282442 0
9.7891617 7.9866905 -0.39328346 0
9.5781889 6.7191844 -0.43372121 0
9.3908272 5.6158428 -0.47008073 0
9.677001 7.8951821 -0.60972768 0
8.7758856 6.1563611 -0.58713865 1
8.9025211 5.3238292 -0.62898529 3
9.7289972 7.9376044 -0.83552468 0
8.6484728 6.0669799 -0.76559842 0
8.8094835 5.2681913 -0.80423194 10
9.7902241 7.9875574 -1.064343 0
8.5643721 6.0079827 -0.94324064 29
8.7789202 5.2499142 -0.98241162 32
10.184322 8.3090906 -1.3399734 1
8.6146402 6.0432467 -1.1349845 4
9.1981554 6.4525876 -1.4110377 2
8.2560997 5.7917271 -1.4450073 3
7.5358701 5.2864795 -1.4835029 3
6.9143157 4.8504534 -1.5105433 4
6.3650489 4.465138 -1.5292081 3
5.9105997 4.146338 -1.5479496 4
5.4960041 3.8554952 -1.5584487 5
5.1784921 3.6327579 -1.5800909 7
3.9108758 2.7435141 -1.6434363 6
2.9709609 2.0841553 -1.6916568 10
5.0173559 3.4677083 1.6099679 19
3.9189525 2.708555 0.92056769 1
8.6945467 6.009171 1.4786149 18
13.624324 9.4163504 1.4378933 28
13.680518 9.4551888 0.85553503 43
13.697392 9.4668503 0.56195533 30
13.711207 8.0700722 0.44245705 70
10.579382 8.5090818 0.29766789 0
11.890564 8.2180748 0.23160589 0
13.719253 8.0748072 0.16115396 28
10.095595 8.1199684 0.054722056 0
11.796648 8.1531658 -0.023776609 0
10.517185 6.1901507 -0.092015125 0
9.8703756 7.9388227 -0.17024058 1
11.458884 7.9197226 -0.2694037 0
11.103422 6.5351949 -0.32522589 0
9.9069881 7.9682703 -0.39577261 0
9.5426559 6.5953355 -0.43001673 1
9.4229155 5.5460911 -0.46973735 1
9.828393 7.9050555 -0.61577421 0
8.7726517 6.0631533 -0.58407611 1
8.9257069 5.2534466 -0.62801689 4
9.8868055 7.9520373 -0.84428895 0
8.6118498 5.9520159 -0.75865948 2
8.8666677 5.2186975 -0.80610663 9
9.9358206 7.9914603 -1.0740799 0
8.5667782 5.9208651 -0.93893033 32
8.8290825 5.1965761 -0.98394132 8
10.23588 8.2328005 -1.3391621 1
8.614089 5.9535637 -1.1294082 5
9.2364483 6.3837028 -1.4100409 2
8.2865601 5.7271943 -1.4433053 3
7.5660949 5.22925 -1.4822299 3
6.9415302 4.7975869 -1.5091349 4
6.3960657 4.4205933 -1.5292081 3
5.9361849 4.1027498 -1.5471109 4
5.5195804 3.814817 -1.5575442 5
5.1941495 3.5898976 -1.5771828 8
3.9299335 2.7161443 -1.6434363 7
2.982456 2.0613022 -1.6899669 10
5.0766087 3.4565399 1.6211979 18
3.9020569 2.656816 0.91221958 2
8.6838951 5.9126539 1.4697477 29
13.627145 9.2783928 1.4313197 28
13.690061 9.3212299 0.85204136 39
13.703668 9.3304949 0.55952674 30
13.704932 7.9380817 0.4404555 55
10.625994 8.4250793 0.29731718 0
12.076579 8.2226505 0.23410523 0
13.716452 7.9447536 0.16046561 26
10.2492 8.1263285 0.055245791 0
11.982229 8.1584091 -0.024035266 0
10.411311 6.0303721 -0.090718292 0
10.013312 7.9392996 -0.1717457 0
11.599845 7.8980532 -0.27141473 0
10.017288 5.8021488 -0.29221877 0
10.068892 7.983367 -0.40000412 0
9.5917721 6.5308051 -0.43016493 1
9.4648628 5.4821763 -0.46990904 1
9.9709978 7.9057493 -0.62123561 0
8.7949591 5.9882741 -0.58276355 1
8.9690762 5.1950097 -0.62850106 4
10.01401 7.9398532 -0.85039735 0
8.5971317 5.8535786 -0.75374436 1
8.9235888 5.168663 -0.80798125 7
10.144409 8.0432425 -1.0905318 0
8.5782681 5.840735 -0.93569762 26
8.9099379 5.1607561 -0.98891264 3
10.28687 8.1561966 -1.3383507 1
8.6159954 5.8664227 -1.1242609 5
9.2807903 6.3190651 -1.4100409 3
8.3427057 5.6803465 -1.446142 3
7.5926247 5.1696339 -1.4803207 3
6.9846187 4.7556577 -1.5112475 4
6.4137945 4.3669972 -1.5261203 3
5.9582167 4.0568056 -1.5454339 4
5.5525198 3.7805762 -1.5593532 5
5.2158775 3.5513647 -1.5762134 8
