# .PCD v0.7 - Point Cloud Data file format
VERSION 0.7
FIELDS x y z intensity
SIZE 4 4 4 4
TYPE F F F F
COUNT 1 1 1 1
WIDTH 1336
HEIGHT 1
VIEWPOINT 0 0 0 1 0 0 0
POINTS 1336
DATA ascii
7.4482822 -46.762474 -0.078512549 40
2.3182385 -27.152439 -0.2054733 40
2.7164106 -11.572387 -0.15975845 40
7.4909344 -47.030254 -0.92106205 42
2.3199475 -27.172455 -0.68840486 37
2.7135134 -11.560044 -0.36963668 30
7.4702163 -46.900181 -1.76052 39
0.65204906 -7.6371446 -0.32929689 1
2.7152503 -11.567443 -0.58007997 23
5.9915571 -37.61673 -2.0862675 0
0.61341286 -7.184617 -0.4372392 0
2.7106614 -11.547894 -0.78931326 19
1.2029928 -7.5527372 -0.55424929 0
0.60621643 -7.1003284 -0.55833817 0
2.7107122 -11.54811 -0.99920648 38
1.1204379 -7.0344338 -0.64223695 11
0.59986955 -7.0259905 -0.67724836 0
1.6659659 -7.0973077 -0.74321264 11
1.1016058 -6.9161997 -0.75536948 1
1.1068509 -6.9491305 -0.88370532 21
1.105513 -6.9407306 -1.0070231 29
1.1050618 -6.9378977 -1.1321971 24
1.103695 -6.9293165 -1.254913 30
1.1019832 -6.9185696 -1.3779083 20
1.1012156 -6.9137506 -1.5009911 3
1.2490661 -7.8419986 -1.8433653 3
1.1567631 -7.2624936 -1.8369769 4
0.83473355 -5.2406988 -1.8256066 5
0.6147536 -3.8596013 -1.8217844 9
0.50488871 -3.3188276 0.88614595 7
1.1577051 -7.6100407 1.4874794 23
1.1713246 -7.6995673 1.0895641 19
1.5097334 -9.924058 0.87152392 13
2.4668784 -16.21574 0.84382105 19
3.2882397 -21.614864 0.73789525 7
1.6509421 -21.071251 0.58779293 2
2.6342721 -11.58543 0.2604923 55
4.202189 -27.622604 0.447703 3
2.1360719 -27.263044 0.27683657 16
2.6357684 -11.592011 0.050211158 51
7.052465 -46.358562 -0.077749841 36
3.3539939 -42.807587 -0.32375693 35
2.6328936 -11.579369 -0.15959717 38
7.0962667 -46.646492 -0.91255373 41
3.3477111 -42.727398 -1.0818657 40
2.63097 -11.570909 -0.36938778 48
7.0776925 -46.524395 -1.7445166 42
0.58841467 -7.5100355 -0.3236312 1
2.6308849 -11.570534 -0.57929981 52
5.7209964 -37.606312 -2.0834236 0
0.56323981 -7.1887245 -0.4372392 0
2.629091 -11.562644 -0.78904766 56
1.1130359 -7.3164129 -0.53632367 0
0.55569756 -7.0924611 -0.55740082 0
2.6300251 -11.566752 -0.99920648 46
1.0563235 -6.9436207 -0.63325715 14
0.55329239 -7.0617633 -0.68030763 0
1.6119653 -7.0893636 -0.74118423 12
1.0562869 -6.9433799 -0.75751418 0
1.0577146 -6.9527645 -0.8832069 26
1.0534592 -6.9247923 -1.0036191 30
1.054819 -6.9337306 -1.1302879 25
1.0535173 -6.9251742 -1.2528002 30
1.0530668 -6.9222136 -1.3771363 18
1.0535115 -6.9251361 -1.5018296 3
1.195462 -7.8582311 -1.8451743 3
1.1083694 -7.2857385 -1.8408544 4
0.79869628 -5.2501378 -1.8269078 6
0.58888495 -3.8709674 -1.8251643 9
0.47782189 -3.2954791 0.87899965 0
1.1006039 -7.5907311 1.482167 28
1.1181115 -7.7114782 1.0901183 18
1.4398417 -9.9304123 0.87117791 12
2.3564773 -16.252335 0.84484857 21
3.1326702 -21.605642 0.73681587 6
1.5015209 -21.050356 0.58690333 1
2.5507481 -11.591823 0.26022926 50
2.8132432 -19.402594 0.31414831 13
2.0606592 -28.889114 0.29319492 17
2.5504787 -11.590598 0.050126687 55
2.8084347 -19.369431 -0.032451589 44
3.0311532 -42.494816 -0.32122356 42
2.546833 -11.574031 -0.15927465 40
6.7153492 -46.314941 -0.9051283 37
3.0225925 -42.374802 -1.0723773 37
2.5458298 -11.569471 -0.36876547 48
2.8116732 -19.391766 -0.72637564 18
0.52886206 -7.4143057 -0.31933901 1
2.5466089 -11.573012 -0.57851958 51
2.8053818 -19.348375 -1.0708061 11
0.51161897 -7.1725688 -0.43602869 0
2.5457313 -11.569024 -0.78825092 58
1.0350245 -7.1384377 -0.52273488 3
0.50730419 -7.1120782 -0.55865061 0
2.5466399 -11.573153 -0.99819922 48
1.0049639 -6.9311132 -0.6314612 16
0.50227875 -7.0416245 -0.67801321 0
1.558157 -7.0810127 -0.73915583 15
1.0112112 -6.9741998 -0.76008785 0
1.0085797 -6.9560513 -0.88270849 25
1.0062256 -6.939815 -1.0047538 28
1.00582 -6.9370174 -1.1296514 25
1.0051448 -6.9323606 -1.2528002 32
1.0041518 -6.9255128 -1.3763645 17
1.0028944 -6.9168401 -1.4984754 3
1.140013 -7.8625298 -1.8442698 3
1.0569215 -7.2894583 -1.839885 4
0.76148123 -5.2518425 -1.8256066 5
0.5618462 -3.8749845 -1.8251643 9
0.30449948 -2.2028816 0.58702064 11
1.0513115 -7.6056437 1.4836849 37
0.75721985 -5.4780574 0.77366811 1
1.3717663 -9.923954 0.86979401 13
2.289659 -16.564388 0.86026174 15
2.6805778 -19.392464 0.66071916 49
1.3616229 -21.055862 0.58679211 16
2.4696443 -11.588928 0.25979087 47
2.6784739 -19.377245 0.31344336 46
1.8509518 -28.622744 0.29036057 10
2.4702158 -11.59161 0.050059106 53
2.6766233 -19.363857 -0.032411795 48
2.7286096 -42.194664 -0.31881085 42
2.4675138 -11.578932 -0.15911339 40
2.6788645 -19.38007 -0.37838727 64
2.7203348 -42.066704 -1.0641004 34
2.4657087 -11.57046 -0.36826766 45
2.6780736 -19.374348 -0.72504199 67
0.47400481 -7.3299146 -0.31556186 2
2.4656336 -11.570109 -0.57754433 49
2.6753557 -19.354685 -1.0701499 58
0.46455422 -7.1837726 -0.43651289 0
2.4647868 -11.566134 -0.78692299 58
0.98438013 -7.1214333 -0.52100015 17
0.45935339 -7.1033483 -0.55771327 0
2.4665046 -11.574195 -0.99685621 50
0.95733631 -6.925787 -0.63038361 15
0.45531037 -7.0408273 -0.67763078 0
1.5078418 -7.075623 -0.73753309 15
0.97201324 -7.0319657 -0.7656641 0
0.96024942 -6.9468613 -0.88071477 27
0.95855027 -6.9345694 -1.0030518 32
0.95978969 -6.9435358 -1.1296514 26
0.95806712 -6.9310737 -1.2513919 30
0.95551085 -6.9125805 -1.3725047 16
0.95646244 -6.9194651 -1.4976369 2
1.0899755 -7.8853564 -1.8478878 3
1.0085526 -7.2963076 -1.839885 3
0.72870445 -5.2717643 -1.8308114 6
0.53613389 -3.8786254 -1.8251643 8
0.29464388 -2.2471354 0.59825063 5
0.99869895 -7.6166921 1.4844438 36
0.74110281 -5.6521058 0.79749882 0
1.3008963 -9.9214354 0.86875606 18
2.0763257 -15.835336 0.82162601 8
2.5414894 -19.382959 0.65977466 48
1.1563599 -20.054924 0.55865902 8
2.3854563 -11.590219 0.25944015 46
2.5420899 -19.387541 0.31331521 38
1.6381887 -28.411352 0.28809306 10
2.3852017 -11.588984 0.049974632 53
2.5408528 -19.378105 -0.032405164 41
2.4148579 -41.881245 -0.31630766 40
2.3825889 -11.576288 -0.15884462 39
2.5403812 -19.374508 -0.37792316 61
2.4079425 -41.761311 -1.0559243 37
2.3808444 -11.567812 -0.36764535 46
2.5422304 -19.388611 -0.72489381 63
0.42144057 -7.3091068 -0.31453174 2
2.3823857 -11.5753 -0.57695919 48
2.5391307 -19.364971 -1.0697124 52
0.41370124 -7.1748824 -0.43578658 0
2.3807645 -11.567423 -0.78586066 54
0.93308306 -7.1162653 -0.52013278 7
0.41044018 -7.1183252 -0.55865061 0
2.3824301 -11.575517 -0.9955132 45
0.90689009 -6.9165015 -0.62894684 1
0.40637425 -7.0478096 -0.67801321 0
1.451992 -7.0547957 -0.73428762 16
0.9228971 -7.0385804 -0.7656641 0
0.91069579 -6.9455261 -0.87971795 25
0.90908486 -6.9332399 -1.0019171 30
0.91077781 -6.9461517 -1.129015 24
0.90811998 -6.9258809 -1.2492791 33
0.90824908 -6.9268661 -1.3740486 16
0.90609819 -6.9104619 -1.4942827 2
1.0338856 -7.8850474 -1.8460788 3
0.96112174 -7.3301053 -1.8466706 4
0.69089931 -5.2692232 -1.828209 6
0.50904286 -3.8822739 -1.8251643 8
0.27609316 -2.226109 0.59212518 21
0.94598532 -7.6273766 1.4852028 37
0.95126772 -7.6699681 1.081251 11
0.93191731 -7.5139475 0.65736222 2
1.9627774 -15.82566 0.82039297 10
2.4070976 -19.408165 0.66004455 40
1.0266389 -20.266167 0.5643301 6
2.3005891 -11.586978 0.25900176 44
2.4056978 -19.396879 0.31318703 40
1.4306939 -28.242336 0.28627098 10
2.3019006 -11.593583 0.049923949 51
2.404526 -19.387432 -0.032391898 40
2.1062238 -41.577503 -0.31389493 38
2.2985973 -11.576946 -0.1586296 38
2.4030955 -19.375896 -0.37761378 61
2.0999482 -41.453621 -1.0477482 35
2.2984707 -11.576309 -0.36739644 47
2.4048469 -19.390018 -0.7243011 63
0.37020093 -7.3078799 -0.31436005 3
2.2968483 -11.568138 -0.57578886 48
2.4009309 -19.358444 -1.0683999 8
0.36380306 -7.1815834 -0.43602869 0
2.2976189 -11.572018 -0.78506392 55
0.36194539 -7.1449132 -0.5605253 0
2.2976785 -11.572319 -0.99383444 41
0.86691916 -6.9898744 -0.6350531 0
0.35695991 -7.0464983 -0.67763078 0
1.3980551 -7.0413413 -0.73185349 17
0.8717798 -7.0290651 -0.76394832 0
0.86120933 -6.9438372 -0.87872106 29
0.86017388 -6.9354882 -1.0013498 30
0.86129194 -6.9445028 -1.1277422 29
0.85974777 -6.9320521 -1.2492791 33
0.85938692 -6.929143 -1.3732767 15
0.85638958 -6.9049754 -1.4917672 2
0.98169178 -7.9152737 -1.8515058 3
0.90753812 -7.3173809 -1.8418237 3
0.65456319 -5.2776713 -1.8295102 6
0.48103556 -3.8785372 -1.8217844 9
0.25695151 -2.1972513 0.58395797 4
0.89316934 -7.6376953 1.4859617 32
0.90275937 -7.7197022 1.0873473 19
0.90211761 -7.7142138 0.67431521 3
1.8494617 -15.81517 0.81915992 13
2.2696872 -19.408613 0.65950483 41
0.871351 -19.957264 0.55554545 0
2.2196405 -11.602757 0.25900176 48
2.2692943 -19.405254 0.31305885 36
1.2348861 -28.283604 0.2865949 25
2.2171478 -11.589726 0.049839474 51
2.26633 -19.379908 -0.032352105 38
1.8019489 -41.271507 -0.31148222 44
2.2162161 -11.584856 -0.15852208 40
2.2673032 -19.388227 -0.37753642 56
1.7965424 -41.147678 -1.0396731 35
2.2145917 -11.576365 -0.36689863 48
2.2680278 -19.394424 -0.72385657 60
0.31795308 -7.2823391 -0.31315824 5
2.2160316 -11.583891 -0.57578886 49
0.86657953 -7.4103198 -0.40863451 0
0.31383142 -7.1879373 -0.43627077 0
2.2137752 -11.572096 -0.78400159 53
0.83224434 -7.1167116 -0.51926541 0
0.31066412 -7.1153941 -0.55802572 0
1.5982163 -8.3543777 -0.71650088 0
0.83244407 -7.1184196 -0.64618808 0
0.30775738 -7.0488186 -0.67763078 3
1.3481153 -7.0470214 -0.73144782 19
0.82083875 -7.0191798 -0.7622326 0
0.8127113 -6.9496799 -0.87872106 28
0.81173414 -6.9413242 -1.0013498 29
0.8127892 -6.9503465 -1.1277422 26
0.81133199 -6.9378853 -1.2492791 36
0.81053561 -6.9310751 -1.3725047 16
0.80861717 -6.9146705 -1.4926057 2
0.92731392 -7.9296737 -1.8533148 3
0.85868478 -7.3428102 -1.8466706 3
0.61814147 -5.2858691 -1.8308114 5
0.45436767 -3.885402 -1.8234743 8
0.24836375 -2.2605016 0.60029244 3
0.8385396 -7.6320329 1.4836849 48
0.84711313 -7.7100654 1.0851305 16
1.0884807 -9.9068909 0.86529624 12
1.7337706 -15.780046 0.81669378 15
2.1323876 -19.408091 0.65896517 43
0.57230139 -15.607472 0.43433958 2
2.1356883 -11.602239 0.25865105 45
2.1324544 -19.408697 0.3128666 27
1.0319829 -28.143641 0.28509673 18
2.1354582 -11.600989 0.04982258 51
2.1650524 -19.705391 -0.032869421 5
1.5030857 -40.991283 -0.3092806 38
2.1309402 -11.576444 -0.15819956 41
2.1292717 -19.37973 -0.37707233 85
1.4986936 -40.871502 -1.0324055 39
2.1301007 -11.571883 -0.36627635 46
2.1325738 -19.409786 -0.72385657 44
0.26696032 -7.2803874 -0.31298655 7
2.1336603 -11.591222 -0.5753988 49
0.79083353 -7.1978326 -0.39660299 1
0.26393685 -7.1979327 -0.436755 0
2.1300428 -11.571568 -0.78293926 51
0.78210431 -7.1183825 -0.51897627 0
0.26054507 -7.1054339 -0.55708838 1
2.1272197 -11.556231 -0.98980534 8
0.77837694 -7.0844574 -0.64259619 0
0.25795794 -7.0348792 -0.67610115 4
1.2967238 -7.0445204 -0.73023075 22
0.77138132 -7.0207863 -0.76180363 0
0.76243979 -6.9394045 -0.8767274 25
0.7623899 -6.9389505 -1.0002151 30
0.76381552 -6.9519258 -1.1271057 26
0.76244664 -6.9394665 -1.248575 36
0.76212782 -6.9365649 -1.3725047 16
0.75861537 -6.9045959 -1.4892515 2
0.8732084 -7.9475737 -1.8560283 3
0.80697763 -7.3447685 -1.8457012 4
0.58205032 -5.2975755 -1.8334138 5
0.42683542 -3.8848753 -1.8217844 8
0.33782533 -3.2972078 0.87491602 7
0.78177106 -7.6301613 1.482167 31
0.78976536 -7.7081866 1.084022 18
1.012175 -9.8789263 0.86218244 7
1.6143863 -15.756567 0.81484419 12
2.2125385 -21.594589 0.73263323 11
0.79958624 -27.26173 0.75848192 3
2.0484998 -11.605766 0.25838801 45
2.7846253 -27.178213 0.43776971 29
0.81885111 -27.918562 0.28274825 15
2.0489738 -11.608452 0.049788792 43
2.7833481 -27.165747 -0.045278355 35
1.1933007 -40.685345 -0.30689806 40
2.0627115 -11.686282 -0.15948968 11
2.7824237 -27.156727 -0.5279786 63
1.1904927 -40.589607 -1.0250369 32
2.0931714 -11.858853 -0.37486386 10
2.783886 -27.170998 -1.0125102 43
0.21346818 -7.2781539 -0.31281486 10
2.0472491 -11.59868 -0.57500869 33
0.73682839 -7.1915169 -0.39594671 12
0.21011287 -7.1637554 -0.43457606 0
2.0722208 -11.740157 -0.79329699 14
0.72705668 -7.0961437 -0.5169524 0
0.2083358 -7.1031671 -0.55677593 1
1.3032076 -7.383317 -0.6315549 0
0.72195792 -7.0463791 -0.63864505 0
0.20673305 -7.048521 -0.67724836 3
1.2415935 -7.0342426 -0.72820234 6
0.71949041 -7.0222964 -0.76137471 1
0.71155101 -6.9448071 -0.8767274 23
0.71069729 -6.9364748 -0.99908042 32
0.71202993 -6.9494815 -1.1258329 27
0.71035337 -6.9331183 -1.2464623 37
0.71045977 -6.9341564 -1.3709608 17
0.70678592 -6.8982992 -1.4867359 2
0.81492645 -7.9537611 -1.8560283 3
0.75390726 -7.3582082 -1.84764 4
0.54397261 -5.3092256 -1.8360163 6
0.40019405 -3.9059329 -1.8302342 8
0.31296161 -3.280236 0.86981148 1
0.72699136 -7.6197944 1.4791313 23
0.73593283 -7.7135124 1.084022 16
0.94734567 -9.929388 0.86598819 13
1.5005513 -15.727687 0.81278914 17
2.062865 -21.621449 0.73303801 7
0.45909899 -20.546926 0.571558 27
2.0061471 -11.848475 0.26347336 12
2.5925386 -27.173103 0.4373852 34
0.61704296 -27.615692 0.27963045 14
2.0359929 -12.024746 0.051512055 14
2.5932477 -27.180534 -0.045271724 32
0.82372558 -36.865749 -0.27803588 43
2.0491812 -12.102637 -0.16497263 1
2.5897276 -27.143641 -0.52735984 87
0.8212536 -36.755116 -0.92803437 44
7.9992714 -47.24437 -1.4916147 28
2.5922306 -27.169872 -1.0117692 43
0.16283043 -7.2874579 -0.31315824 9
2.0375907 -12.034184 -0.59587908 10
0.68546617 -7.1845574 -0.39529046 17
0.16045207 -7.181015 -0.43554446 0
0.67977202 -7.1248755 -0.51868713 0
0.1586522 -7.100462 -0.55646348 1
1.2143676 -7.1721578 -0.61275262 0
0.6708554 -7.0314183 -0.63684911 0
0.15778688 -7.0617347 -0.67839557 3
1.1665465 -6.8897214 -0.71238065 36
0.66855943 -7.0073533 -0.75922996 1
0.66191894 -6.9377527 -0.8752321 24
0.66263032 -6.945209 -0.99964774 31
0.66274589 -6.9464202 -1.1245601 26
0.66081184 -6.9261489 -1.2443497 42
0.66240573 -6.9428544 -1.3717328 16
0.65786654 -6.8952785 -1.4850588 2
0.75974894 -7.9631352 -1.8569328 3
0.7039932 -7.3787446 -1.8515176 4
0.5079717 -5.3241897 -1.8399199 5
0.37119406 -3.8905861 -1.8217844 9
0.18928432 -2.1419971 0.56762344 5
0.67205071 -7.6051235 1.4753368 39
0.52584654 -5.950634 0.8357389 1
0.87870628 -9.9436979 0.86668015 10
1.3872021 -15.697987 0.81073403 15
1.910114 -21.615412 0.7323634 8
0.21886235 -14.248809 0.39630985 1
4.0656614 -25.074423 0.55693269 3
2.4010174 -27.170618 0.43706477 30
0.42159262 -27.447353 0.27788934 12
7.6543283 -47.20705 0.20199348 37
2.4002659 -27.162115 -0.045212034 33
0.56203395 -36.590641 -0.27592474 43
7.6229777 -47.013699 -0.64010888 35
2.4001725 -27.161058 -0.52735984 97
0.56045842 -36.488071 -0.92117053 42
7.5975785 -46.857052 -1.4776756 32
2.4014366 -27.175362 -1.0113246 50
0.11195041 -7.2884169 -0.31315824 9
0.63634819 -7.2011032 -0.39594671 16
0.1104992 -7.1939363 -0.43627077 0
2.1668134 -13.363532 -0.90085816 0
0.63598615 -7.1970062 -0.52360225 0
0.10975147 -7.1452565 -0.5599004 1
1.150232 -7.0939016 -0.60536605 7
0.62490821 -7.0716453 -0.64008182 0
1.1145972 -6.8741293 -0.70994657 35
0.62067437 -7.0237341 -0.76051682 2
0.61416847 -6.9501109 -0.87622899 22
0.61378056 -6.9457211 -0.99908042 29
0.61423624 -6.9508777 -1.1245601 27
0.61244375 -6.9305935 -1.2443497 45
0.61357546 -6.9433999 -1.3709608 16
0.61143541 -6.9191828 -1.4892515 2
0.7048251 -7.9760079 -1.8587418 3
0.65280604 -7.3873453 -1.852487 4
0.46979186 -5.3163028 -1.8360163 6
0.34498191 -3.9039168 -1.8268542 8
0.16805503 -2.0661702 0.54720533 4
0.61798543 -7.5978866 1.47306 23
0.4910346 -6.0370765 0.84737718 2
0.8063572 -9.9138441 0.86356634 12
1.2762803 -15.691362 0.80991197 18
1.7565708 -21.596344 0.73128402 7
0.11884563 -14.186017 0.39453068 9
4.0828304 -26.343079 0.58446372 2
2.2099752 -27.170774 0.43680844 29
0.21843702 -26.073748 0.26396045 1
7.2528968 -46.79686 0.2000168 31
2.2251725 -27.357616 -0.045510486 6
0.2955116 -35.273758 -0.26597229 42
7.2278037 -46.634956 -0.63424963 33
2.2082245 -27.14925 -0.52681839 79
0.29559338 -35.28352 -0.89068693 37
7.2047501 -46.486206 -1.4643586 31
2.2087417 -27.155607 -1.009991 29
0.060997985 -7.2810283 -0.31281486 9
7.2418861 -46.725815 -2.3084219 3
0.58638328 -7.2093511 -0.39616549 3
0.060106114 -7.1745701 -0.43506026 0
2.0636852 -13.315229 -0.89660883 1
0.5811981 -7.1456013 -0.5195545 0
0.05936439 -7.0860338 -0.55521375 0
1.0951849 -7.0663095 -0.60234421 21
0.57681549 -7.0917187 -0.64151859 0
0.05964049 -7.1189909 -0.68374932 0
1.068408 -6.8935404 -0.71116364 20
0.571302 -7.023932 -0.76008785 4
0.5646674 -6.9423623 -0.87473369 23
0.56463337 -6.9419441 -0.99794573 31
0.56441438 -6.9392524 -1.1220144 26
0.56372499 -6.9307761 -1.2436454 48
0.56476825 -6.943603 -1.370189 16
0.56184721 -6.9076896 -1.4858973 2
0.64817721 -7.9690833 -1.8560283 3
0.60184598 -7.3994589 -1.8544257 5
0.43266565 -5.3194532 -1.8360163 5
0.31889468 -3.9206841 -1.8336141 8
0.15780348 -2.1135209 0.55945623 4
0.56611848 -7.5822363 1.4692655 15
0.45068929 -6.0362496 0.84682298 3
0.74296188 -9.9507656 0.8663342 9
1.1718854 -15.695498 0.80970651 17
1.6132994 -21.607519 0.73128402 5
0.037776235 -21.643599 0.60191506 2
4.1290541 -27.860926 0.61751842 4
2.5443003 -34.076763 0.54754859 7
0.042787399 -24.514706 0.24816899 2
6.652112 -44.885345 0.19165389 3
3.1778009 -42.561474 -0.070766084 37
0.061679769 -35.338943 -0.26645482 33
6.862071 -46.302048 -0.62908918 70
3.1944818 -42.784885 -0.82979119 70
0.061696772 -35.348686 -0.89230192 33
2.8684738 -19.35512 -0.60909152 21
3.1854453 -42.66386 -1.5859646 43
0.012673688 -7.2612906 -0.31195644 17
6.3449616 -42.81284 -2.1129813 0
0.53558218 -7.1732521 -0.39397794 1
0.012536685 -7.182796 -0.43554446 0
1.1239971 -7.5842071 -0.5101853 0
0.53022915 -7.1015573 -0.51608503 0
0.012430856 -7.1221619 -0.55802572 0
1.0488812 -7.0773602 -0.60267997 2
0.5282855 -7.0755248 -0.63972265 0
0.012300647 -7.0475597 -0.67686594 0
1.0220828 -6.8965378 -0.71075791 14
0.52381641 -7.0156689 -0.75880104 11
0.51831579 -6.9419966 -0.87423527 21
0.51858008 -6.9455366 -0.99794573 30
0.51896703 -6.9507194 -1.1232872 31
0.51657307 -6.9186559 -1.2408286 48
0.51811951 -6.9393682 -1.3686451 17
0.51631236 -6.9151645 -1.4867359 2
0.59676039 -7.9926348 -1.8605508 3
0.55304646 -7.4071574 -1.8553951 4
0.39822093 -5.3335214 -1.8399199 5
0.29315457 -3.9263284 -1.835304 8
0.14069521 -2.0798428 0.55026805 3
0.5129056 -7.5820851 1.4685066 8
0.40693313 -6.0155349 0.84349775 7
0.67212951 -9.9358301 0.86460429 7
1.0595855 -15.663441 0.8076514 26
1.4607922 -21.594324 0.73047447 4
-0.076918133 -14.690119 0.40854165 4
2.7339466 -19.3794 0.42909771 15
1.938954 -28.662806 0.46032789 10
-0.11826411 -22.586533 0.22865236 6
2.7345791 -19.383884 0.082682841 36
2.8589907 -42.263351 -0.070235506 37
-0.18513876 -35.358509 -0.26660562 27
2.7326803 -19.370426 -0.26291338 61
2.8724959 -42.462994 -0.82313925 41
-0.18531537 -35.392239 -0.89341223 37
2.7316039 -19.362797 -0.60871816 49
2.8656652 -42.362019 -1.573962 24
-0.038103685 -7.2771878 -0.31264317 17
2.7313504 -19.361 -0.95457685 20
0.48575997 -7.1808014 -0.39419669 0
-0.037504461 -7.1627455 -0.43433395 0
1.0386851 -7.3626509 -0.49478146 0
0.48252288 -7.1329484 -0.5181089 0
-0.03712447 -7.0901732 -0.5555262 0
0.47806951 -7.0671163 -0.63864505 0
-0.037359551 -7.1350698 -0.68527895 0
0.97502285 -6.9113855 -0.71156931 3
0.47563031 -7.0310588 -0.76008785 14
0.47010678 -6.9494061 -0.87473369 21
0.47007844 -6.9489875 -0.99794573 28
0.47016269 -6.950233 -1.1226507 31
0.4690564 -6.9338789 -1.2429413 48
0.47019076 -6.9506478 -1.370189 16
0.466703 -6.8990893 -1.4825432 2
0.53963184 -7.9771686 -1.8560283 3
0.50184512 -7.4185815 -1.8573338 4
0.36046565 -5.3286238 -1.8373175 4
0.2650024 -3.9174278 -1.8302342 7
0.12660964 -2.1001208 0.5553726 3
0.38688552 -6.4174132 1.2423489 1
0.36235088 -6.0104475 0.84238935 8
0.59928066 -9.9404898 0.86460429 6
0.94450176 -15.6668 0.80744588 16
1.2249993 -20.319517 0.68702918 10
-0.16284376 -12.957967 0.3603929 2
2.5896964 -19.383066 0.428747 51
1.4816225 -24.57622 0.39451185 2
-0.40128991 -31.931841 0.32327971 2
2.588177 -19.371693 0.082547687 52
2.5301025 -41.967743 -0.069711559 35
-0.44593257 -35.484188 -0.2675707 31
2.588496 -19.374081 -0.26269835 41
2.5407035 -42.143585 -0.81656468 47
-0.44715992 -35.581852 -0.89825732 30
2.5880058 -19.370413 -0.60834479 50
0.47026563 -7.8004699 -0.28969082 0
-0.09174832 -7.3006887 -0.31367332 10
2.5861795 -19.356741 -0.95340651 53
0.43335116 -7.1881557 -0.39441544 0
-0.089958735 -7.1582856 -0.43409184 0
0.95508742 -7.14853 -0.47990882 2
0.43118489 -7.1522231 -0.51926541 0
-0.089297384 -7.1056604 -0.55677593 0
0.94062543 -7.0402861 -0.59831518 0
0.42625389 -7.0704303 -0.63864505 0
-0.088810541 -7.0669203 -0.67877799 0
1.0334197 -7.7348232 -0.79554582 0
0.42312178 -7.018477 -0.75837207 28
0.419393 -6.9566269 -0.8752321 22
0.41912892 -6.9522462 -0.99794573 29
0.41872877 -6.9456091 -1.1213779 27
0.41869158 -6.9449916 -1.2443497 52
0.41875669 -6.9460721 -1.3686451 16
0.41682541 -6.9140372 -1.4850588 2
0.48231617 -8.0003567 -1.8605508 3
0.44768611 -7.4259348 -1.8583032 4
0.32276222 -5.3537765 -1.8451248 5
0.23606192 -3.9156461 -1.8285443 8
0.11544323 -2.1666083 0.57272798 3
0.14731963 -2.7648566 0.53503728 1
0.32059199 -6.0167871 0.84294355 12
0.31359556 -5.8854799 0.51170456 1
0.83595407 -15.688969 0.80826789 23
1.1079994 -20.794645 0.70281523 6
-0.25283453 -12.932528 0.35972571 2
2.4533105 -19.392738 0.42857164 52
1.308948 -24.565996 0.39419141 5
-0.40334183 -20.631001 0.20889278 0
2.4528739 -19.389288 0.082547687 55
2.2195988 -41.656853 -0.069167711 39
-0.69919914 -35.764153 -0.269712 10
2.4501646 -19.367872 -0.26237583 40
2.2296135 -41.844807 -0.81045413 51
-0.70048136 -35.829735 -0.90461648 8
2.4517083 -19.380075 -0.60809588 49
0.41473323 -7.7836051 -0.28894991 0
-0.14279261 -7.3038659 -0.31384498 13
2.4504795 -19.370359 -0.95321149 54
0.38337031 -7.1949944 -0.39463419 0
-0.14063318 -7.1934109 -0.43627077 0
0.9021526 -7.1312656 -0.47831532 16
0.38039336 -7.1391234 -0.5181089 0
-0.13905796 -7.1128383 -0.55740082 0
0.90095687 -7.1218138 -0.60469455 0
0.37688258 -7.0732341 -0.63864505 0
-0.13830045 -7.0740905 -0.67954284 0
0.90697706 -7.1694021 -0.73672169 0
0.37347847 -7.0093465 -0.75708526 38
0.37081638 -6.9593854 -0.8752321 24
0.37037221 -6.9510493 -0.99737841 29
0.37064931 -6.9562497 -1.1226507 30
0.36998668 -6.9438138 -1.2436454 52
0.3704626 -6.9527459 -1.369417 17
0.36792189 -6.9050622 -1.4825432 2
0.42810991 -8.0346556 -1.8677868 3
0.39583239 -7.4288793 -1.8583032 4
0.28497544 -5.3483453 -1.8425224 5
0.2094914 -3.9316802 -1.835304 9
0.10389091 -2.2446291 0.59314609 7
0.34954098 -7.5520554 1.4609174 14
0.27912855 -6.0307503 0.84460616 13
0.27084133 -5.8516994 0.50859076 9
0.7245571 -15.654518 0.80621284 24
0.93304026 -20.15893 0.68109256 23
-0.57549369 -21.687979 0.60336065 10
2.3164411 -19.39748 0.42830861 52
1.1366735 -24.558554 0.39393508 10
-0.65929174 -24.845982 0.25161073 39
2.3150799 -19.386082 0.082463212 59
1.9144849 -41.363663 -0.068657033 40
-0.86726326 -32.683567 -0.24651971 9
2.3134689 -19.372591 -0.26221457 41
1.9230047 -41.547745 -0.80442101 46
-0.86616319 -32.642109 -0.82426894 27
2.3149278 -19.384808 -0.60772252 49
0.36130735 -7.8062758 -0.28969082 1
-0.19452003 -7.3306556 -0.31504682 8
2.3118727 -19.359226 -0.95184612 79
0.33331513 -7.2014852 -0.39485294 0
-0.1908475 -7.1922536 -0.43627077 0
0.85234499 -7.1373906 -0.47831532 15
0.32925245 -7.113709 -0.51608503 0
-0.18955608 -7.1435852 -0.5599004 0
0.84318048 -7.0606484 -0.59898669 0
0.32712454 -7.0677338 -0.63792664 0
-0.18852678 -7.104795 -0.68260211 0
0.86398101 -7.2348289 -0.74280697 0
0.3250865 -7.0237012 -0.75837207 46
0.32185468 -6.9538751 -0.87423527 24
0.32183573 -6.9534655 -0.99737841 30
0.32189393 -6.9547229 -1.1220144 32
0.32186481 -6.9540944 -1.2450539 56
0.32245862 -6.9669242 -1.3717328 15
0.32024899 -6.9191833 -1.4850588 2
0.37146658 -8.0257721 -1.8650732 3
0.34413883 -7.435338 -1.8592726 4
0.24780491 -5.3539829 -1.8438236 7
0.18220562 -3.9366684 -1.8369941 9
0.090039961 -2.2916744 0.60539699 27
0.29603824 -7.5346899 1.4571228 25
0.2367081 -6.0246344 0.84349775 9
0.22075157 -5.6185131 0.48817793 8
0.61415249 -15.631252 0.80477428 23
0.91674262 -23.332701 0.78808671 29
-0.63016808 -18.798168 0.52307564 0
2.1791835 -19.397282 0.42795789 52
0.96582282 -24.581877 0.39419141 19
-0.77631545 -23.157804 0.23456404 11
2.1792412 -19.397795 0.082446314 56
1.6135733 -41.068256 -0.068146348 35
-1.0896538 -32.504818 -0.24522288 29
2.1768315 -19.376345 -0.26205331 41
1.6201822 -41.236465 -0.79815578 46
-1.0870603 -32.427448 -0.81902009 25
2.1790984 -19.396524 -0.60759807 31
0.30758512 -7.828578 -0.29043171 1
-0.2458268 -7.3331127 -0.31521851 9
2.1748843 -19.359013 -0.9510659 71
0.28271753 -7.1956549 -0.39441544 0
-0.24065293 -7.1787744 -0.43554446 0
0.80383432 -7.1550651 -0.47911206 1
0.28020784 -7.1317792 -0.51724154 0
-0.23995751 -7.1580296 -0.56115019 0
0.79297906 -7.0584407 -0.59831518 0
0.27777445 -7.0698447 -0.63792664 2
-0.2379896 -7.0993261 -0.68221968 0
0.7872414 -7.007369 -0.71887159 0
0.27604389 -7.0257988 -0.75837207 55
0.2732996 -6.9559522 -0.87423527 23
0.27343896 -6.9594994 -0.99794573 27
0.27348799 -6.9607468 -1.1226507 28
0.27299905 -6.9483027 -1.2436454 72
0.27350432 -6.9611621 -1.370189 16
0.27162907 -6.913434 -1.4833817 2
0.31665084 -8.0593176 -1.8723092 3
0.29267904 -7.4491925 -1.8621807 4
0.21027251 -5.3518023 -1.8425224 6
0.15486038 -3.9414668 -1.838684 8
0.078751862 -2.4120505 0.63704503 4
0.24631765 -7.5443377 1.4586406 29
0.19674727 -6.026072 0.84349775 9
0.18374458 -5.6278191 0.48886991 19
0.50955933 -15.607034 0.80333573 22
0.5309459 -16.262072 0.54913765 21
-0.70139402 -17.463163 0.4860467 10
2.0504875 -19.411308 0.42795789 43
0.80172944 -24.555763 0.39367872 26
-0.87563199 -21.801304 0.22087809 0
2.0833168 -19.722094 0.083764106 6
1.3313819 -40.778217 -0.067648932 36
-1.2983086 -32.32502 -0.24392603 36
2.8688443 -27.15843 -0.3670359 34
1.3368769 -40.946518 -0.7923547 47
-1.300339 -32.375572 -0.81790978 25
2.8677142 -27.147734 -0.84979099 38
0.25474584 -7.8024802 -0.28939444 1
-0.29477742 -7.3393073 -0.31556186 5
0.80162102 -7.5886898 -0.37254632 2
0.23485911 -7.1933799 -0.39419669 0
-0.28954116 -7.2089362 -0.43748128 0
0.75133103 -7.1126103 -0.47592506 0
0.2323827 -7.1175313 -0.51608503 1
-0.28694621 -7.1443272 -0.56021285 0
0.7482416 -7.083364 -0.59999394 0
0.23101085 -7.0755134 -0.63828588 2
-0.28442991 -7.0816774 -0.68069005 0
0.74033117 -7.0084786 -0.71846592 0
0.22983177 -7.0394001 -0.75965893 26
0.22716144 -6.957612 -0.87423527 22
0.22714806 -6.9572024 -0.99737841 28
0.22693142 -6.9505668 -1.1207415 35
0.2272971 -6.9617667 -1.2457581 123
0.22758771 -6.9706678 -1.3717328 68
0.2252624 -6.8994474 -1.4800276 2
0.26281273 -8.0495567 -1.8695958 3
0.24352252 -7.4587274 -1.8641195 4
0.17514479 -5.3644204 -1.846426 6
0.12848039 -3.9351604 -1.835304 9
0.083186343 -3.2863438 0.86776966 7
0.19031274 -7.5184588 1.4533281 28
0.15226804 -6.0154719 0.84183514 12
0.14268744 -5.6369829 0.48956186 19
0.39493847 -15.602364 0.80292469 23
0.52006823 -20.545717 0.69364041 13
-0.83678639 -17.613316 0.49038342 14
2.668895 -27.170675 0.59857988 45
0.52009517 -20.546782 0.32933664 26
-1.1010942 -23.176668 0.23488797 25
2.6695125 -27.176962 0.11534037 37
0.93465054 -36.924126 -0.061242178 39
-1.5477552 -32.578327 -0.24591653 27
2.6669493 -27.150867 -0.36665961 38
1.0289974 -40.651375 -0.78647619 47
-1.5501525 -32.628788 -0.82457179 26
2.6662896 -27.144152 -0.84904426 32
0.19673488 -7.7721701 -0.28820902 1
-0.34951741 -7.3569083 -0.31642032 3
0.72488135 -7.379652 -0.36201361 1
0.1821228 -7.1949081 -0.39419669 0
-0.3431353 -7.2225728 -0.43844971 0
0.70229417 -7.149703 -0.47804973 0
0.18090913 -7.1469612 -0.5181089 0
-0.33949813 -7.1460152 -0.5605253 0
0.69434971 -7.0688248 -0.59831518 0
0.17954189 -7.0929475 -0.63972265 2
-0.33746716 -7.1032658 -0.68298453 0
0.83520436 -8.5027952 -0.87100303 0
0.17802304 -7.0329442 -0.75880104 39
0.17605318 -6.9551229 -0.87373686 24
0.1763436 -6.9665966 -0.9985131 27
0.17607516 -6.9559917 -1.1213779 36
0.17605951 -6.9553733 -1.2443497 101
0.17638484 -6.9682255 -1.3709608 13
0.17547274 -6.9321923 -1.4867359 2
0.20439117 -8.0746384 -1.8750226 3
0.1887427 -7.4564328 -1.8631501 4
0.13581701 -5.3655605 -1.846426 5
0.099997796 -3.9504938 -1.8420639 9
0.061677452 -3.3022909 0.87185329 6
0.14007732 -7.4999218 1.4495336 16
0.11259032 -6.0282321 0.84349775 16
0.10500059 -5.6218677 0.48817793 22
0.16918603 -9.0584393 0.466095 2
0.23806891 -12.746518 0.43027025 1
-0.95660746 -17.663277 0.4919402 11
2.2476797 -24.555416 0.5406245 29
0.38373706 -20.54578 0.32927257 8
-1.2536972 -23.148888 0.23468551 27
2.4873855 -27.174152 0.1152559 40
0.68451011 -36.649559 -0.060777921 40
-1.7754625 -32.783024 -0.24754512 3
2.4860895 -27.159992 -0.36655208 34
0.68759435 -36.814693 -0.71214461 44
-1.8359289 -33.899506 -0.85697323 27
2.4836524 -27.133368 -0.84817302 35
0.14473547 -7.7493248 -0.28731993 1
-0.40219113 -7.4262567 -0.3195107 1
0.6646319 -7.2609606 -0.35596704 4
0.13425097 -7.1879711 -0.39375916 0
-0.39145997 -7.2281113 -0.43893391 0
0.65013033 -7.1025338 -0.47459716 0
0.1332065 -7.1320491 -0.5169524 0
-0.38817725 -7.1674976 -0.56239998 0
0.64890534 -7.0891514 -0.59965819 0
0.13219795 -7.0780497 -0.63828588 2
-0.38499954 -7.1088228 -0.68374932 0
0.64349282 -7.0300202 -0.71968299 0
0.13152321 -7.041923 -0.75965893 36
0.13006921 -6.9640741 -0.87473369 24
0.13013531 -6.9676132 -0.9985131 28
0.1299372 -6.9570065 -1.1213779 39
0.12992565 -6.956388 -1.2443497 70
0.13016574 -6.9692421 -1.3709608 10
0.12949263 -6.9332037 -1.4867359 2
0.15068787 -8.0680246 -1.8732138 3
0.13906799 -7.4458804 -1.860242 4
0.10022812 -5.3663435 -1.846426 5
0.073794812 -3.9510701 -1.8420639 9
0.038485944 -3.291039 0.86879057 7
0.087852366 -7.5124984 1.4518104 22
0.070224658 -6.0051041 0.84017253 11
0.066076182 -5.6503568 0.49059978 12
0.104821 -8.9635324 0.46116278 4
0.14510217 -12.408086 0.41880175 6
-1.0676922 -17.456617 0.48638028 24
2.0741813 -24.5466 0.54009843 25
0.23692389 -20.260015 0.32465839 16
-1.4169855 -23.167517 0.23496895 27
2.2955992 -27.166939 0.11515453 44
0.42559102 -36.393463 -0.060346823 39
-2.0650907 -33.763943 -0.25505471 24
2.2954123 -27.164728 -0.36639082 30
0.42738262 -36.546665 -0.70688492 50
-2.0571682 -33.634415 -0.85061407 32
2.2961915 -27.173948 -0.84891981 29
0.091239102 -7.8021069 -0.28924626 1
-0.45939368 -7.511023 -0.32328781 1
0.6088804 -7.2057076 -0.35304129 9
0.084159613 -7.1967206 -0.39419669 0
-0.44093719 -7.2092614 -0.43796551 0
0.60086721 -7.1108766 -0.47486272 0
0.083132267 -7.1088696 -0.51521766 0
-0.43698913 -7.1447115 -0.56083775 0
0.5997352 -7.0974803 -0.59999394 0
-0.43413296 -7.0980134 -0.68298453 0
0.59540516 -7.046237 -0.72090006 0
0.082358114 -7.0426693 -0.75965893 30
0.081354819 -6.9568748 -0.87373686 23
0.081489034 -6.9683518 -0.9985131 28
0.081411153 -6.9616923 -1.1220144 37
0.08131171 -6.9531884 -1.2436454 64
0.081599876 -6.9778299 -1.3725047 10
0.081178069 -6.9417605 -1.488413 2
0.094404347 -8.0727758 -1.8741182 3
0.087627105 -7.4932356 -1.8718746 4
0.062761538 -5.3669119 -1.846426 6
0.04620935 -3.951489 -1.8420639 8
0.015510006 -3.2912276 0.86879057 7
0.035386387 -7.5090013 1.4510515 23
0.02846886 -6.0411005 0.84516037 12
0.046910599 -9.954442 0.86425829 3
0.065247498 -13.845537 0.71229511 2
0.08941076 -18.972988 0.64034575 5
-1.1919839 -17.484642 0.48738107 14
1.6327933 -21.075766 0.4634676 1
0.1609764 -34.159237 0.54735637 7
-1.4864668 -21.80427 0.22124252 5
2.1228752 -27.401646 0.11608374 6
0.17025213 -36.127548 -0.059902463 36
-2.2920516 -33.621006 -0.25408962 44
3.3151972 -42.791897 -0.5768398 35
0.16616856 -35.261017 -0.68197882 46
-2.2786038 -33.423748 -0.84566808 33
3.3046269 -42.655457 -1.3318121 34
0.036807436 -7.8105483 -0.28954262 1
-0.52106094 -7.6431932 -0.3291252 1
0.55794305 -7.2018166 -0.35265118 13
0.033991985 -7.213109 -0.39507172 0
-0.49234286 -7.2219415 -0.43893391 0
0.55305898 -7.1387739 -0.47645622 0
0.033747081 -7.16114 -0.51897627 0
-0.57609272 -8.450428 -0.66363192 0
0.55047876 -7.1054683 -0.6003297 0
0.033285864 -7.0632701 -0.63684911 0
-0.48259261 -7.0789199 -0.6814549 0
0.54466182 -7.030385 -0.71887159 0
0.033153202 -7.0351186 -0.75880104 60
0.03282376 -6.9652114 -0.87473369 25
0.032821786 -6.9647918 -0.99794573 27
0.032809056 -6.962091 -1.1220144 40
0.032806091 -6.9614615 -1.2450539 61
0.032829627 -6.9664559 -1.370189 8
0.03269669 -6.9382472 -1.4875745 2
0.038082093 -8.0810308 -1.8759272 3
0.035314113 -7.4936647 -1.8718746 4
0.025346652 -5.3785667 -1.8503296 5
0.018554233 -3.9372137 -1.835304 8
-0.0086162677 -3.2912529 0.86879057 7
-0.01961706 -7.49335 1.4480157 23
-0.015763443 -6.0213399 0.84238935 12
-0.02597677 -9.9226398 0.86149049 2
-0.036205087 -13.829665 0.71147305 2
-0.04960753 -18.949146 0.6395362 12
-1.3174098 -17.43955 0.48638028 14
1.722675 -24.573771 0.54009843 16
-0.048561431 -18.549557 0.29722968 7
-1.5347818 -20.317068 0.20626087 0
2.6755195 -38.165993 0.16159816 3
-0.093868025 -35.855827 -0.059451472 44
-2.4414253 -32.318996 -0.24437842 12
2.9754164 -42.443993 -0.57184064 35
-0.092479073 -35.325275 -0.68321639 53
-2.3840895 -31.559996 -0.79893321 12
2.967814 -42.335545 -1.3211088 40
-0.020573195 -7.8585753 -0.29132077 1
-0.58369684 -7.7268367 -0.33290231 1
0.50513619 -7.2057128 -0.35265118 15
-0.018852187 -7.2011824 -0.39441544 0
-0.54496825 -7.2141571 -0.43869182 1
0.49959797 -7.1267109 -0.47539389 0
-0.018726613 -7.1532159 -0.51839805 0
-0.54039603 -7.1536312 -0.56208754 0
0.49447602 -7.053647 -0.59562916 0
-0.01857472 -7.0951948 -0.63972265 0
-0.53687 -7.1069546 -0.68451416 0
0.49339023 -7.0381584 -0.71927732 0
-0.018417586 -7.0351729 -0.75880104 56
-0.018224182 -6.9612956 -0.87423527 25
-0.018243838 -6.9688044 -0.9985131 29
-0.018226404 -6.9621444 -1.1220144 39
-0.018162906 -6.9378901 -1.2408286 55
-0.018258378 -6.9743586 -1.3717328 7
-0.01815374 -6.9343891 -1.4867359 2
-0.021176133 -8.0888863 -1.8777362 4
-0.019607877 -7.4898419 -1.8709052 4
-0.014080816 -5.3786082 -1.8503296 5
-0.010307427 -3.9372439 -1.835304 8
-0.031816084 -3.3143163 0.87491602 7
-0.071779229 -7.4773211 1.44498 22
-0.057723884 -6.0131602 0.84128094 11
-0.095516987 -9.9501095 0.86391234 1
-0.094560958 -9.8505192 0.50678581 2
-0.11435674 -11.912667 0.4020713 2
-1.432873 -17.354214 0.48426753 21
1.5498167 -24.565245 0.53966004 13
-0.17579547 -18.312807 0.29344863 1
-2.0461905 -24.782396 0.2517322 12
2.1793125 -34.543015 0.14619017 2
-0.34176764 -35.60231 -0.05903364 39
-2.4767468 -29.99707 -0.22694652 26
2.6593859 -42.152382 -0.56764776 36
-0.33959278 -35.375755 -0.68422192 42
-2.4293046 -29.422476 -0.7452336 22
2.6525486 -42.044003 -1.3114012 32
-0.075973079 -7.9141989 -0.29339528 1
-0.64650297 -7.8301086 -0.33753788 13
0.4538123 -7.1931148 -0.35187098 36
-0.069240481 -7.2128568 -0.39507172 0
-0.59663171 -7.2260933 -0.43966022 8
0.44882676 -7.1140919 -0.47433156 0
-0.06828206 -7.1130171 -0.5155068 0
-0.59097922 -7.1576333 -0.56271237 0
0.44547123 -7.060905 -0.59596491 0
-0.068146303 -7.0988755 -0.64008182 0
-0.58745408 -7.1149383 -0.68566138 2
0.4449943 -7.0533457 -0.72049433 0
-0.067493729 -7.0308962 -0.75837207 40
-0.066860847 -6.9649677 -0.87473369 23
-0.067008853 -6.9803853 -1.0002151 29
-0.06671717 -6.9500008 -1.1201051 37
-0.066711456 -6.9494057 -1.2429413 49
-0.06687279 -6.9662123 -1.370189 5
-0.06675218 -6.9536476 -1.4909286 2
-0.077571884 -8.0807486 -1.8759272 3
-0.071859099 -7.4856415 -1.8699358 4
-0.051557623 -5.3708143 -1.8477272 5
-0.037933525 -3.9515769 -1.8420639 8
-0.055915445 -3.3720186 0.89022958 5
-0.12417437 -7.4884186 1.4472568 22
-0.099767923 -6.0165715 0.84183514 10
-0.098710209 -5.9527855 0.51689428 2
-0.14233267 -8.5834675 0.44163939 3
-0.18552303 -11.18809 0.37765017 3
-1.5514957 -17.315912 0.48348913 25
1.1832445 -21.097769 0.46329224 1
-0.34110445 -20.570532 0.32965708 24
-2.0774455 -23.185925 0.23565729 31
1.9927633 -35.531845 0.15031248 0
-0.58599955 -35.339096 -0.058602542 41
-2.5272593 -28.206202 -0.21352576 18
2.3460152 -41.830482 -0.56307864 39
-0.58821148 -35.472488 -0.68615562 30
-2.4804921 -27.684242 -0.70162791 12
2.3397181 -41.718201 -1.3006979 34
-0.13281333 -8.0093966 -0.29695159 1
-0.70150834 -7.8293848 -0.33770958 21
0.40380925 -7.2000966 -0.35206604 35
-0.1198589 -7.2281713 -0.39594671 0
-0.64777744 -7.2297053 -0.44014445 20
0.40138668 -7.1569009 -0.47698739 0
-0.11853392 -7.1482677 -0.5181089 0
-0.64200217 -7.1652489 -0.56364971 1
0.39639086 -7.0678229 -0.59630066 0
-0.11796834 -7.1141601 -0.64151859 0
-0.63711137 -7.1106639 -0.68566138 2
0.39485219 -7.0403881 -0.71887159 0
-0.11664292 -7.0342298 -0.75880104 41
-0.11561546 -6.9722676 -0.87573051 26
-0.11567384 -6.9757886 -0.99964774 30
-0.1154976 -6.9651599 -1.1226507 42
-0.11529112 -6.9527082 -1.2436454 46
-0.1156997 -6.9773483 -1.3725047 6
-0.11529616 -6.9530125 -1.4909286 2
-0.13424265 -8.0955935 -1.8795452 3
-0.12405264 -7.4810772 -1.8689665 4
-0.089365274 -5.3892326 -1.8542333 5
-0.065399587 -3.9439659 -1.838684 8
-0.080821991 -3.4295428 0.90554315 6
-0.17608026 -7.471664 1.4442211 25
-0.14195576 -6.0236497 0.84294355 16
-0.13219187 -5.6093354 0.48714 3
-0.19293573 -8.1868973 0.42129397 2
-0.51585573 -21.889456 0.73897463 0
-1.8331186 -18.968262 0.52996993 30
1.0353373 -21.093531 0.46302921 5
-0.53766131 -22.814737 0.36567324 3
-2.1153724 -21.888895 0.22261921 24
1.8107398 -36.891258 0.15600601 8
-0.82742125 -35.110203 -0.058231138 38
-2.6290779 -27.204479 -0.20607649 57
2.0388284 -41.538239 -0.55893952 39
-0.84300268 -35.771374 -0.69203413 9
-2.6294692 -27.208529 -0.69001991 55
2.032733 -41.414055 -1.2907414 29
-0.18787865 -7.9723091 -0.295618 1
-0.75807273 -7.8441854 -0.338568 28
0.35333744 -7.19875 -0.35187098 37
-0.17012994 -7.2191725 -0.39550921 0
-0.69861859 -7.2289815 -0.44038653 20
0.35102102 -7.151556 -0.47645622 0
-0.16881134 -7.1632199 -0.51926541 0
-0.69507813 -7.1923466 -0.56614929 0
0.34684309 -7.0664368 -0.59596491 0
-0.1678194 -7.1211286 -0.64223695 0
-0.6878866 -7.1179323 -0.68680859 2
0.34569141 -7.042973 -0.71887159 3
-0.16574827 -7.0332441 -0.75880104 46
-0.16438176 -6.9752579 -0.87622899 29
-0.16455778 -6.982728 -1.0007824 33
-0.16412076 -6.9641838 -1.1226507 42
-0.16345629 -6.9359875 -1.2408286 44
-0.16422303 -6.9685225 -1.3709608 8
-0.16374239 -6.9481277 -1.49009 2
-0.19121628 -8.1139355 -1.8840677 3
-0.1763688 -7.4839082 -1.8699358 4
-0.1267197 -5.3771334 -1.8503296 5
-0.092932068 -3.9434133 -1.838684 9
-0.11150468 -3.6918032 0.97496474 4
-0.22598444 -7.4821086 1.4464979 23
-0.16421716 -5.437058 0.47226286 4
-0.24529776 -8.1215525 0.41800582 2
-0.55915427 -18.513012 0.62509942 25
-1.9588811 -18.955687 0.52996993 36
0.89490771 -21.087948 0.46276617 10
-0.57087135 -18.900953 0.30299741 58
-2.2633774 -21.902233 0.22290264 38
1.5743369 -37.098278 0.15683384 11
-0.9832117 -32.553112 -0.053999763 34
-2.8131483 -27.222252 -0.20634791 61
1.7498934 -41.235161 -0.55469292 40
-0.98628914 -32.654999 -0.63185722 15
-2.8139765 -27.230267 -0.69102931 56
0.66449076 -15.658315 -0.48787063 0
-0.24316069 -8.0507956 -0.29858157 0
-2.8089926 -27.182039 -1.174 69
0.30558553 -7.2009349 -0.35187098 34
-0.21824519 -7.2258701 -0.39594671 1
-0.74777907 -7.2361031 -0.44111285 20
0.30172074 -7.1098633 -0.47353482 0
-0.21631439 -7.161943 -0.51926541 0
-0.75793129 -7.3343444 -0.57770973 0
0.30115184 -7.0964575 -0.59831518 1
-0.21432169 -7.0959668 -0.64008182 0
-0.73221463 -7.0854893 -0.68413174 1
0.29846665 -7.0331826 -0.71765459 6
-0.21262951 -7.0399408 -0.75965893 41
-0.21075815 -6.977982 -0.8767274 29
-0.21074437 -6.9775252 -1.0002151 35
-0.21066156 -6.9747839 -1.1245601 42
-0.20992795 -6.9504943 -1.2436454 41
-0.21067192 -6.9751267 -1.3725047 11
-0.20946483 -6.9351616 -1.4875745 2
-0.24514166 -8.1163836 -1.8849722 4
-0.22634999 -7.4942112 -1.872844 4
-0.16283505 -5.3912978 -1.8555346 5
-0.1193018 -3.9499578 -1.8420639 8
-0.27675423 -7.441102 1.4389087 4
-0.13943052 -3.7488739 0.5248307 3
-0.19965309 -5.3680806 0.46638119 4
-0.51519585 -13.852092 0.71311712 5
-0.65034854 -17.485947 0.59055907 10
-2.0854604 -18.889883 0.52852434 19
0.74653101 -21.06171 0.46206474 22
-0.7004326 -18.83256 0.30197203 19
-2.248997 -20.37118 0.2074756 4
1.3511511 -38.11972 0.16110821 10
-1.2024232 -32.329601 -0.053641621 29
-3.0061929 -27.229782 -0.20655903 64
1.4509242 -40.934593 -0.55050009 39
-1.2075511 -32.467476 -0.62837654 32
-3.0061986 -27.229832 -0.69153398 53
0.55374271 -15.622617 -0.48662606 0
-0.29891422 -8.0369186 -0.29813704 0
-3.0026309 -27.197515 -1.1755452 69
0.2554476 -7.2068853 -0.35206604 21
-0.26868597 -7.2241702 -0.39594671 1
-0.80090547 -7.254518 -0.44256547 17
0.25306684 -7.1397171 -0.47539389 0
-0.26660547 -7.1682315 -0.51984364 0
-0.79248583 -7.1782541 -0.56583685 0
0.25103712 -7.0824537 -0.59697217 2
-0.26385567 -7.0942974 -0.64008182 0
-0.78428268 -7.103951 -0.68642622 3
0.25006333 -7.0549798 -0.71968299 4
-0.262068 -7.0462327 -0.76051682 44
-0.25946853 -6.9763403 -0.8767274 28
-0.25974587 -6.9837971 -1.0013498 39
-0.25920281 -6.9691968 -1.1239237 42
-0.25844643 -6.9488592 -1.2436454 36
-0.25979996 -6.9852519 -1.3748206 31
-0.25889382 -6.9608889 -1.4934442 2
-0.30194354 -8.1183681 -1.8858767 3
-0.27938512 -7.5118389 -1.8776908 4
-0.19990709 -5.3749099 -1.8503296 5
-0.1471443 -3.9562747 -1.8454438 8
-0.16764936 -3.7942078 1.0025291 7
-0.12880868 -2.9151733 0.56387615 3
-0.15947884 -3.6092944 0.50543362 4
-0.23958723 -5.4222922 0.4712249 3
-0.61153644 -13.840176 0.71270609 6
-0.73958433 -16.738129 0.56546336 17
-2.2266159 -18.954287 0.53074831 16
0.59970689 -21.074402 0.4622401 51
-0.83224475 -18.835203 0.30210021 14
-2.3906932 -20.351011 0.2074351 8
0.98146218 -34.489731 0.145734 1
-1.4356897 -32.492252 -0.053926807 21
-3.196686 -27.212103 -0.20658919 88
1.1567023 -40.647873 -0.54652226 37
-1.4278321 -32.314423 -0.62559199 43
-3.1985581 -27.228039 -0.69203871 55
0.44500768 -15.638091 -0.48699942 0
-0.696091 -15.753798 -0.5845679 0
-3.1961622 -27.207644 -1.1769187 69
0.2052432 -7.2124867 -0.3522611 15
-0.31946623 -7.2300982 -0.39638424 2
-0.85479283 -7.2765074 -0.44426021 11
0.20310421 -7.13732 -0.47512832 0
-0.315586 -7.1422815 -0.5181089 0
-0.84304547 -7.176507 -0.56614929 0
0.20204137 -7.0999703 -0.59831518 1
-0.31425604 -7.1121826 -0.64187777 0
-0.83478767 -7.1062117 -0.68719101 16
0.20057949 -7.0485983 -0.71887159 4
-0.31125358 -7.0442314 -0.76051682 40
-0.30851662 -6.9822888 -0.87772423 26
-0.30832085 -6.9778585 -1.0007824 38
-0.308025 -6.9711623 -1.1245601 46
-0.30729994 -6.9547529 -1.2450539 32
-0.30752039 -6.9597425 -1.370189 24
-0.30679309 -6.9432821 -1.49009 2
-0.3586131 -8.1160622 -1.8858767 3
-0.33147821 -7.5019512 -1.8757521 5
-0.23809405 -5.3884988 -1.8555346 5
-0.17476071 -3.9551511 -1.8454438 8
-0.19512227 -3.8122573 1.0076337 5
-0.14213105 -2.7769258 0.537314 4
-0.18042025 -3.5250123 0.49379534 4
-0.38193297 -7.4621248 0.64871269 3
-0.68404931 -13.364809 0.688456 18
-0.78775966 -15.391079 0.52012914 4
-2.1859121 -17.549551 0.49182898 21
0.44398087 -20.678263 0.45347229 42
-0.96371895 -18.828934 0.30210021 20
-2.5346892 -20.349699 0.20759708 12
0.7755149 -36.119354 0.15259327 54
-1.6749656 -32.725121 -0.054331373 20
-3.3935058 -27.24469 -0.20701142 60
0.79039073 -36.812191 -0.49486414 46
-1.6660688 -32.551292 -0.6303876 34
-3.3920274 -27.232821 -0.69274527 49
0.33659479 -15.676791 -0.48811954 0
-0.69020486 -13.485074 -0.50055015 0
-3.388499 -27.204494 -1.1777772 68
0.15479979 -7.2097492 -0.35206604 14
-0.36972991 -7.2237034 -0.39616549 10
-0.91248053 -7.3258309 -0.44764966 0
0.15292868 -7.1226029 -0.47406599 0
-0.3664605 -7.1598268 -0.5195545 0
-0.89509797 -7.1862755 -0.56739908 0
0.15238374 -7.0972228 -0.59797943 1
-0.36206806 -7.074008 -0.63864505 0
-0.88634652 -7.1160145 -0.68872064 37
0.15179321 -7.0697188 -0.72090006 1
-0.36062729 -7.0458589 -0.76094574 40
-0.35745752 -6.9839282 -0.87822264 27
-0.35642079 -6.9636726 -0.99908042 37
-0.35688725 -6.9727864 -1.1251965 41
-0.35483941 -6.9327765 -1.2415328 29
-0.35590044 -6.9535065 -1.369417 26
-0.35585862 -6.9526896 -1.4926057 2
-0.41506594 -8.1094694 -1.8849722 3
-0.38463709 -7.5149574 -1.8796296 5
-0.27493367 -5.3715949 -1.8503296 5
-0.20273925 -3.961076 -1.8488238 8
-0.15763536 -2.7092135 0.52441239 6
-0.20180276 -3.4683003 0.48603648 4
-0.43494323 -7.4751892 0.6500966 35
-0.65667272 -11.285961 0.58159119 3
-0.90540421 -15.560806 0.52606577 42
-2.1298873 -16.178091 0.45379925 2
0.41569817 -28.694094 0.62917966 22
-1.0958387 -18.833725 0.30229247 22
-3.2358413 -24.57864 0.25096288 4
0.53086787 -36.643826 0.15478958 36
-1.9728531 -33.906609 -0.056314416 39
-3.5841491 -27.2243 -0.20704158 57
0.52937627 -36.540867 -0.49115509 38
-1.9736483 -33.920277 -0.65715009 35
-3.5867631 -27.244156 -0.6936537 55
0.22731568 -15.690753 -0.48849291 0
-1.9712694 -33.879391 -1.2580434 35
-3.5830345 -27.215834 -1.1793224 71
0.10452035 -7.2146497 -0.3522611 15
-0.42131013 -7.2408824 -0.39725927 19
-0.99695575 -7.5726266 -0.46314427 1
0.10343106 -7.1394601 -0.47512832 0
-0.41875225 -7.1969213 -0.52244574 0
-0.94888943 -7.2075267 -0.56958616 3
0.10300529 -7.1100707 -0.59898669 0
-0.4137575 -7.1110787 -0.64223695 0
-0.94120127 -7.1491294 -0.69254476 24
0.1020877 -7.0467329 -0.71846592 0
-0.41049922 -7.0550799 -0.7622326 43
-0.40643468 -6.9852242 -0.87872106 27
-0.40594602 -6.9768257 -1.0013498 41
-0.40532672 -6.9661822 -1.1245601 39
-0.40505877 -6.9615769 -1.2471665 28
-0.40534663 -6.9665246 -1.3725047 25
-0.40506878 -6.9617496 -1.4951214 2
-0.47257403 -8.1219339 -1.8885902 3
-0.43731564 -7.5159626 -1.880599 4
-0.31374478 -5.3922014 -1.858137 4
-0.2301763 -3.9559448 -1.8471339 8
-0.13861555 -2.114866 0.55945623 8
-0.17363769 -2.6492012 0.51302862 6
-0.22644392 -3.4548693 0.48437387 4
-0.47982329 -7.3206944 0.63694936 0
-0.75323224 -11.492112 0.59248322 40
-1.0186616 -15.541785 0.52566099 52
-2.2599909 -16.245211 0.45613441 48
0.12373605 -17.291401 0.37912107 2
-1.233867 -18.825188 0.30229247 26
-3.4214354 -24.593876 0.25136778 6
0.26040959 -36.390739 0.15370832 39
-2.2056506 -33.651749 -0.055916481 38
-3.7852697 -27.209181 -0.20713206 84
0.25237471 -35.26791 -0.4740074 35
-2.2104723 -33.725319 -0.65366942 41
-3.7874777 -27.225054 -0.69385558 55
0.12513633 -17.487082 -0.54437399 5
-2.1894994 -33.405331 -1.2410028 35
-3.786294 -27.216545 -1.1805241 68
0.051574443 -7.2072315 -0.35187098 16
-0.47489941 -7.2455707 -0.39769676 20
-3.7861395 -27.215435 -1.6661574 55
0.051293448 -7.167964 -0.47698739 0
-0.55395019 -8.4516535 -0.61380869 0
-1.0016975 -7.2003775 -0.56958616 23
0.050911725 -7.1146202 -0.59932244 0
-0.46613365 -7.1118302 -0.64259619 0
-0.99413013 -7.1459818 -0.69292718 24
0.05054383 -7.0632086 -0.72008866 0
-0.4622044 -7.0518813 -0.7622326 53
-0.45814708 -6.9899788 -0.87971795 28
-0.45733666 -6.9776139 -1.0019171 42
-0.45689696 -6.9709058 -1.1258329 53
-0.45633617 -6.9623499 -1.2478708 28
-0.4558894 -6.9555335 -1.3709608 11
-0.45788056 -6.9859123 -1.5009911 2
-0.53260756 -8.1260271 -1.8903992 3
-0.49315998 -7.5241728 -1.8835071 4
-0.3537578 -5.397305 -1.8607394 4
-0.25869432 -3.9469159 -1.8437539 7
-0.15057787 -2.0752728 0.54924715 7
-0.18729676 -2.5813346 0.50012702 6
-0.25141799 -3.4650571 0.48603648 3
-0.69818395 -9.6224108 0.83761781 0
-0.81841141 -11.279392 0.58179671 6
-1.1175919 -15.402715 0.52120852 10
-2.3692946 -16.201342 0.45535603 16
0.0050050807 -28.693104 0.62909198 14
-1.3652617 -18.816114 0.30229247 24
-3.5994103 -24.612928 0.25181317 9
0.0063005351 -36.119678 0.15255947 39
-2.383215 -32.845604 -0.054603297 10
-3.9820726 -27.229589 -0.20749396 70
0.0061646728 -35.340809 -0.47497496 33
-2.4322631 -33.521591 -0.65003407 56
-3.9826531 -27.233561 -0.69476402 61
0.0030518314 -17.495525 -0.5446229 5
-2.4304695 -33.496872 -1.2450037 43
-3.9785156 -27.205267 -1.1812109 65
0.0012565284 -7.2034206 -0.35167593 31
-0.52576053 -7.2460618 -0.39791551 20
-3.9795065 -27.212044 -1.6676099 70
0.0012455021 -7.1402092 -0.47512832 0
-0.52112925 -7.1822333 -0.52186751 0
-1.0548247 -7.2129383 -0.5711484 19
0.0012327271 -7.0669718 -0.5952934 0
-0.51606053 -7.1123757 -0.64295536 0
-1.0451449 -7.1467476 -0.69369197 21
0.001231408 -7.0594101 -0.71968299 0
-0.5120002 -7.056416 -0.76309043 51
-0.50779682 -6.9984851 -0.88121319 22
-0.50632501 -6.9782004 -1.0024844 46
-0.50469458 -6.9557295 -1.1239237 44
-0.50464654 -6.9550672 -1.2471665 39
-0.50727743 -6.9913263 -1.3786802 2
-0.52362263 -7.2165971 -1.5513036 12
