# .PCD v0.7 - Point Cloud Data file format
VERSION 0.7
FIELDS x y z intensity
SIZE 4 4 4 4
TYPE F F F F
COUNT 1 1 1 1
WIDTH 1330
HEIGHT 1
VIEWPOINT 0 0 0 1 0 0 0
POINTS 1330
DATA ascii
-14.789323 -12.622344 -0.14660293 37
-13.567704 -15.503726 -0.27688956 40
-14.083344 -13.912325 -0.38287345 48
-14.769826 -12.605704 -0.49016044 35
-13.538665 -15.470542 -0.63995683 37
-14.062092 -13.89133 -0.73274732 52
-14.782193 -12.61626 -0.83491695 57
-13.558051 -15.492695 -1.0050949 51
-14.053534 -13.882875 -1.0819627 49
-14.783887 -12.617704 -1.1785606 13
-13.541618 -15.473917 -1.3682846 57
-14.020753 -13.850493 -1.4282689 44
-6.4365249 -5.4934249 -0.66300708 8
-13.510545 -15.438409 -1.7281303 46
-14.03474 -13.86431 -1.7787235 76
-6.326735 -5.3997216 -0.79885477 0
-13.477999 -15.401219 -2.0864315 41
-14.01607 -13.845867 -2.1249859 55
-13.829377 -13.661441 -2.4412796 3
-6.1295395 -6.0551057 -1.2345252 4
-6.1610212 -6.0862055 -1.3956764 255
-6.0842166 -6.0103335 -1.5295571 3
-6.0589852 -5.9854088 -1.6751043 0
-6.4774756 -6.3988171 -1.952127 1
-6.3449831 -6.2679334 -2.070394 2
-5.8419032 -5.7709622 -2.0512099 5
-4.0847497 -4.0351467 -1.9752464 5
-2.9299767 -2.8943968 -1.9198024 8
-2.2134826 -2.1562788 0.81570351 3
-2.3855643 -2.3239133 0.64356256 14
-4.1428585 -4.0357928 0.80913711 22
-8.532012 -8.3115158 1.0341345 24
-8.5041533 -8.2843771 0.6107735 20
-7.6171169 -7.4202647 0.35889584 11
-8.795783 -7.4014874 0.3196944 11
-6.6230888 -7.4623885 0.21875741 2
-7.6806374 -7.4821439 0.17181388 1
-12.128479 -10.205889 0.16046561 30
-13.642207 -15.370992 0.086805157 57
-14.09394 -13.729706 -0.032624029 67
-14.825054 -12.475006 -0.14609022 33
-13.617202 -15.342818 -0.27570695 37
-14.122835 -13.757854 -0.3813265 45
-14.823815 -12.473964 -0.48905009 21
-13.593261 -15.315844 -0.63746768 43
-14.112917 -13.748192 -0.73037648 52
-14.817929 -12.469011 -0.83199829 76
-13.618143 -15.34388 -1.0015839 51
-14.090032 -13.725898 -1.0773689 46
-7.0294957 -5.9151893 -0.55708051 0
-13.585732 -15.30736 -1.3619106 54
-14.068524 -13.704947 -1.4233538 44
-6.4564123 -5.4329505 -0.6611324 9
-13.554496 -15.272166 -1.7200722 48
-14.071263 -13.707615 -1.7711804 97
-5.2797003 -4.4427691 -0.66271675 3
-13.537644 -15.253179 -2.0791292 40
-14.061115 -13.697728 -2.117265 48
-6.200316 -6.0400791 -1.0870622 4
-6.0894117 -5.9320407 -1.2180725 4
-6.1637588 -6.0044665 -1.3867664 1
-6.0329533 -5.8770413 -1.506318 3
-6.0190949 -5.8635411 -1.6527181 2
-6.3538976 -6.1896915 -1.9018145 2
-6.4025426 -6.2370791 -2.0749166 3
-5.8959484 -5.743577 -2.056057 5
-4.1236577 -4.0170889 -1.9804513 5
-2.9319334 -2.8561625 -1.9079727 7
-2.2424273 -2.1541703 0.82080799 4
-2.4357164 -2.3398521 0.65266955 17
-4.185215 -4.0204945 0.81190813 22
-8.693284 -8.3511362 1.0465899 24
-8.6424417 -8.3022947 0.6165278 22
-7.7379241 -7.4333768 0.36213401 11
-5.3144965 -4.409049 0.19203904 2
-6.7044539 -7.4486637 0.21972187 4
-7.7932525 -7.4865274 0.17315967 2
-5.3224359 -4.4156356 0.070008844 30
-13.692988 -15.212942 0.086450368 50
-14.140405 -13.583871 -0.032511279 48
-5.3102431 -4.4055204 -0.052024286 34
-13.667792 -15.184949 -0.27457809 40
-14.178159 -13.620138 -0.38024363 47
-5.2933159 -4.3914766 -0.17361531 33
-13.638337 -15.152224 -0.63460517 41
-14.156662 -13.599487 -0.72770923 52
-5.2931981 -4.3913789 -0.29547441 27
-13.658113 -15.174194 -0.99670774 47
-14.136544 -13.580161 -1.07365 48
-5.2975855 -4.3950191 -0.41738668 26
-13.633524 -15.146876 -1.3560678 52
-14.112068 -13.556649 -1.4181496 44
-5.2818933 -4.382 -0.53771687 63
-13.620788 -15.132727 -1.7150359 43
-14.120646 -13.564889 -1.7654333 51
-5.2646198 -4.3676701 -0.65698063 31
-13.598544 -15.108014 -2.0722327 42
-6.255085 -6.0088992 -0.93552572 3
-6.1593285 -5.9169111 -1.0726079 3
-6.0649991 -5.8262944 -1.2050238 5
-6.0973063 -5.8573298 -1.3625824 5
-6.0170426 -5.7802253 -1.4922338 3
-6.008935 -5.7724366 -1.6388232 4
-6.3631063 -6.1126685 -1.8917519 2
-6.4459276 -6.1922302 -2.0749166 3
-5.9386992 -5.7049651 -2.0570264 4
-4.1297789 -3.9672401 -1.9700416 5
-2.9674878 -2.8506942 -1.9181124 7
-2.2630272 -2.1437824 0.82284981 6
-2.4605458 -2.3308933 0.65494633 18
-4.2131815 -3.9911783 0.81190813 20
-8.8410578 -8.3751993 1.0573152 25
-8.7987947 -8.3351631 0.62351507 24
-7.8650889 -7.4506569 0.36564201 12
-5.3296723 -4.3591819 0.19148305 31
-6.7940369 -7.443027 0.22094937 6
-7.9063025 -7.4896994 0.17450549 3
-5.3190756 -4.3505144 0.069563441 40
-13.747623 -15.060844 0.086129367 55
-14.231991 -13.48207 -0.032504648 22
-5.3099084 -4.3430166 -0.051722694 34
-13.711452 -15.021217 -0.27334175 37
-14.209025 -13.460316 -0.37854195 47
-5.292892 -4.3290987 -0.17260592 34
-13.676401 -14.982819 -0.63149375 40
-14.201928 -13.453591 -0.72519016 52
-5.3113527 -4.3441982 -0.29478768 46
-13.704457 -15.013556 -0.99241662 48
-14.190414 -13.442684 -1.0705874 32
-5.3034148 -4.3377056 -0.41544986 38
-13.677049 -14.983529 -1.3499594 56
-14.238229 -13.48798 -1.42133 23
-5.2907486 -4.3273458 -0.53552973 37
-13.658922 -14.96367 -1.706642 41
-14.168729 -13.422141 -1.7596862 53
-5.2764907 -4.3156843 -0.65468615 40
-13.65003 -14.953929 -2.0641189 41
-6.227592 -5.8994441 -0.9252311 2
-6.1370993 -5.8137197 -1.0616426 4
-6.0509105 -5.7320724 -1.1942444 7
-6.0778451 -5.7575874 -1.3492175 6
-6.0200887 -5.7028747 -1.483079 4
-6.0177455 -5.700655 -1.6303319 3
-6.4425383 -6.1030641 -1.902653 2
-6.5059729 -6.1631565 -2.0803435 3
-5.9924698 -5.6767111 -2.0618732 5
-4.1683593 -3.9487174 -1.9752464 5
-2.9899495 -2.8324013 -1.9198024 7
-2.2835908 -2.1332114 0.82489163 6
-2.4824984 -2.3190205 0.65646416 20
-4.2438378 -3.9643719 0.81246233 19
-8.9837627 -8.3921623 1.0673486 28
-8.9355879 -8.3471613 0.62906384 22
-7.9753399 -7.4501467 0.36834046 8
-5.3226237 -4.2917504 0.19014867 33
-6.8811483 -7.4335647 0.22208919 10
-8.0110064 -7.4834642 0.17565903 5
-5.3181815 -4.288168 0.069158532 39
-13.781785 -14.888182 0.085690111 58
-14.480687 -13.527103 -0.032856155 36
-5.3089614 -4.2807341 -0.051421106 36
-13.756211 -14.860555 -0.27215916 39
-14.364022 -13.418121 -0.38016626 29
-5.29497 -4.2694526 -0.17169747 34
-13.737212 -14.840031 -0.62950248 42
-14.447399 -13.496007 -0.73289549 35
-5.3135529 -4.2844362 -0.29324248 40
-13.754658 -14.858876 -0.98851562 47
-14.476547 -13.523236 -1.0850253 43
-5.3024869 -4.2755136 -0.41302884 37
-13.732518 -14.83496 -1.3451788 60
-14.454492 -13.502633 -1.4334731 42
-5.292891 -4.267776 -0.5327177 35
-13.719732 -14.821147 -1.70127 44
-14.358157 -13.412642 -1.7715396 7
-5.2754955 -4.2537498 -0.65086204 37
-13.697328 -14.796944 -2.0555997 41
-6.213408 -5.8042421 -0.91708118 1
-6.1398339 -5.7355127 -1.0551631 5
-6.0386982 -5.641037 -1.1840323 8
-6.0774913 -5.6772757 -1.3403076 9
-6.0252271 -5.6284528 -1.4746283 5
-6.002903 -5.6075993 -1.6156651 3
-6.7250671 -6.282207 -1.9730905 3
-6.5402994 -6.1096067 -2.07763 3
-6.023447 -5.62679 -2.058965 4
-4.1985888 -3.9221027 -1.9765476 6
-3.0070009 -2.8089836 -1.9181124 8
-2.3183398 -2.1355591 0.83203799 6
-2.5304019 -2.3309021 0.66481227 28
-4.2859788 -3.9480672 0.81523335 19
-9.1476479 -8.4264364 1.0798039 25
-9.0935411 -8.3765955 0.63605118 25
-8.1094866 -7.4701257 0.37211832 6
-5.324286 -4.2320948 0.18914789 35
-6.9794044 -7.4349117 0.22357972 13
-8.1130629 -7.4734197 0.17674848 7
-5.3229399 -4.2310252 0.068834603 38
-13.84432 -14.747863 0.085436687 56
-14.539466 -13.393158 -0.032776568 32
-5.3167987 -4.2261434 -0.051209994 37
-13.815819 -14.717502 -0.27129909 39
-14.557359 -13.409639 -0.38279611 45
-5.2964754 -4.2099891 -0.17078902 37
-13.783013 -14.682555 -0.62688887 41
-14.538325 -13.392107 -0.73274732 45
-5.3183074 -4.2273426 -0.29186898 41
-13.817037 -14.718799 -0.98558986 50
-14.523602 -13.378545 -1.0815252 41
-5.2978253 -4.2110624 -0.4103657 39
-13.783847 -14.683442 -1.3401327 56
-14.516127 -13.371658 -1.4302928 30
-5.2913399 -4.2059073 -0.52959329 39
-13.754666 -14.652358 -1.6928761 45
-6.4580259 -5.9488678 -0.79166126 1
-5.2832456 -4.1994729 -0.64818519 37
-13.734927 -14.63133 -2.0458632 44
-6.2099023 -5.7203064 -0.91064703 0
-6.1213436 -5.6387296 -1.0451946 6
-6.042985 -5.5665493 -1.1772243 8
-6.090837 -5.6106281 -1.3345797 26
-6.0180373 -5.5435681 -1.4633609 6
-5.9986038 -5.5256672 -1.6040859 3
-6.7083516 -6.1794572 -1.9554812 1
-6.599987 -6.0796361 -2.0830572 3
-6.0540195 -5.5767136 -2.056057 4
-4.2286496 -3.8952579 -1.9778489 5
-3.0132055 -2.7756407 -1.9096626 7
-2.3074265 -2.0959191 0.82284981 7
-2.5611482 -2.3263836 0.66860688 48
-4.333962 -3.9366949 0.81911278 21
-9.300643 -8.4481106 1.0908753 25
-9.2405062 -8.393486 0.64221644 25
-8.2176628 -7.4644008 0.37468186 5
-5.3253746 -4.1726255 0.1881471 35
-7.0752568 -7.4323492 0.22498257 15
-8.2301683 -7.47576 0.17815837 9
-5.3208637 -4.1690912 0.068429694 37
-13.880752 -14.581321 0.085031211 57
-14.585237 -13.248299 -0.032670453 30
-5.3178368 -4.1667194 -0.050938562 34
-13.852044 -14.551165 -0.27000898 39
-14.58845 -13.251218 -0.38117179 42
-5.294261 -4.1482472 -0.16977961 36
-13.832806 -14.530955 -0.62452418 41
-14.584122 -13.247286 -0.73037648 45
-5.313087 -4.1629977 -0.28998041 44
-13.856099 -14.555424 -0.98110366 49
-14.572299 -13.236547 -1.0782439 39
-5.2925239 -4.1468859 -0.40770254 38
-13.839238 -14.537712 -1.3356179 59
-14.520528 -13.189521 -1.4216191 3
-5.2829061 -4.1393499 -0.52584398 36
-13.809903 -14.506897 -1.6871682 46
-6.4315734 -5.842031 -0.78339982 0
-5.2716899 -4.1305618 -0.64321387 37
-13.792837 -14.488969 -2.0393722 41
-6.2084713 -5.6393795 -0.90464181 0
-6.1311808 -5.5691738 -1.0402104 9
-6.0523887 -5.4976039 -1.1715509 9
-6.0889325 -5.530798 -1.3256699 29
-6.0420175 -5.488183 -1.4598398 7
-6.0196018 -5.4678226 -1.5994544 3
-6.5718327 -5.9694333 -1.9034915 2
-6.645153 -6.0360332 -2.0839615 2
-5.8486314 -5.3125238 -1.9736595 5
-4.2641392 -3.8732719 -1.9817525 6
-3.0405598 -2.7618504 -1.9147326 8
-2.2384565 -2.0049291 0.79324359 9
-2.597805 -2.3267884 0.67391926 19
-4.3908482 -3.9327722 0.82465482 20
-9.4336052 -8.4494429 1.0995247 25
-9.4060011 -8.4247179 0.64961475 26
-8.3380651 -7.468195 0.37778509 3
-5.3290591 -4.1157937 0.18725753 33
-7.1741886 -7.431685 0.22647311 16
-8.3298254 -7.460815 0.17918374 8
-5.3213496 -4.1098394 0.068065278 36
-13.946095 -14.446649 0.084811583 56
-14.626719 -13.100783 -0.032557704 32
-5.3119745 -4.1025987 -0.050606813 35
-13.903292 -14.402309 -0.26904139 38
-14.63592 -13.109025 -0.38001156 41
-5.3009396 -4.0940762 -0.16907305 38
-13.895039 -14.39376 -0.62278181 42
-14.631587 -13.105144 -0.72815377 42
-5.3103929 -4.101377 -0.28826353 42
-13.899105 -14.397973 -0.97700763 50
-14.61675 -13.091854 -1.0747437 38
-5.3023858 -4.0951929 -0.40624994 38
-13.862776 -14.36034 -1.3281815 54
-6.4755144 -5.7999549 -0.62999958 0
-5.2864265 -4.0828671 -0.5233444 37
-13.852709 -14.349911 -1.6801174 44
-6.4662666 -5.7916718 -0.78268141 1
-5.2720375 -4.071754 -0.63977218 39
-13.827322 -14.323612 -2.0296359 41
-6.2180667 -5.5693655 -0.90035236 0
-6.1166968 -5.4785709 -1.0312388 9
-6.0375319 -5.4076653 -1.1613388 9
-6.0950384 -5.4591722 -1.3186692 18
-6.0567203 -5.4248514 -1.454206 6
-6.0108504 -5.3837671 -1.5871034 4
-6.2287822 -5.5789633 -1.7928039 1
-6.6842279 -5.9868946 -2.0830572 2
-5.8393254 -5.2301364 -1.9581494 7
-4.2910757 -3.8434083 -1.9817525 5
-3.0678689 -2.747813 -1.9198024 7
-2.2350061 -1.973892 0.78711814 10
-2.6345916 -2.3267941 0.6792317 7
-4.4419513 -3.9230013 0.82908845 22
-9.5043116 -8.3939295 1.1009088 18
-9.5633965 -8.4461117 0.65639657 22
-8.461915 -7.4733148 0.38102326 1
-5.3417559 -4.06638 0.18670154 35
-7.2706571 -7.4271417 0.22787596 16
-8.4386673 -7.4527831 0.18040137 12
-5.3149037 -4.045939 0.067619875 37
-13.313501 -13.600045 0.080385163 3
-14.67585 -12.961281 -0.032464854 30
-5.3054771 -4.038763 -0.050275061 34
-13.95034 -14.25059 -0.26802006 37
-14.676123 -12.961522 -0.37869665 44
-5.3007565 -4.0351696 -0.1681646 37
-13.925267 -14.224977 -0.61967039 43
-14.671788 -12.957693 -0.72563475 44
-5.3134575 -4.0448384 -0.28689003 41
-13.943388 -14.243488 -0.97310662 47
-14.6569 -12.944545 -1.0710249 41
-5.3054314 -4.0387287 -0.40431309 37
-13.926398 -14.226133 -1.324729 54
-6.4709935 -5.714992 -0.62566274 0
-5.2894173 -4.0265379 -0.52084482 35
-13.913516 -14.212974 -1.6754168 42
-6.5244584 -5.7622104 -0.78483659 0
-5.2749896 -4.0155549 -0.63671291 37
-13.885227 -14.184075 -2.0235505 42
-6.2240071 -5.4968605 -0.895634 0
-6.1280231 -5.4120903 -1.0267529 4
-6.0632663 -5.3548989 -1.1590694 8
-6.0945234 -5.3825045 -1.3103957 28
-6.0619817 -5.3537645 -1.4464597 7
-6.0306392 -5.3260837 -1.5824717 4
-6.1268663 -5.4110689 -1.7525538 4
-6.7258615 -5.940084 -2.0830572 3
-5.8495173 -5.1661224 -1.949425 5
-4.3206387 -3.8158615 -1.9830537 5
-3.0815425 -2.7215281 -1.9164225 8
-2.2253988 -1.9379215 0.77895087 12
-2.6359627 -2.2954488 0.67543709 14
-4.4901428 -3.9101057 0.83296788 25
-6.0946307 -5.3073258 0.70164764 3
-9.7456427 -8.4867001 0.66482246 23
-8.6314602 -7.5164475 0.38628528 1
-5.3284359 -3.9977932 0.18525596 35
-7.3645892 -7.4187751 0.22919112 15
-8.5477972 -7.4435925 0.181619 11
-5.3238239 -3.9943328 0.067376934 39
-14.019629 -14.12278 0.084051318 41
-14.71168 -12.811224 -0.032345474 31
-5.3111472 -3.984822 -0.050063949 34
-13.993128 -14.096084 -0.26694497 50
-14.73911 -12.835112 -0.37800053 44
-5.3000112 -3.9764669 -0.16725615 35
-13.9679 -14.070671 -0.61718124 40
-14.719689 -12.818199 -0.72356021 45
-5.31919 -3.9908564 -0.28568822 41
-13.991817 -14.094764 -0.96959573 55
-14.704744 -12.805184 -1.0679624 42
-5.3015604 -3.9776294 -0.40189207 38
-13.963511 -14.06625 -1.3188862 52
-6.4716206 -5.6356163 -0.62190413 0
-5.288691 -3.9679737 -0.51803285 36
-13.945004 -14.047606 -1.6673586 45
-6.612597 -5.7583814 -0.79058367 2
-5.2774158 -3.9595139 -0.63365358 40
-13.933445 -14.035962 -2.0162482 42
-6.172256 -5.3749237 -0.88276571 0
-6.108789 -5.3196549 -1.0172828 9
-6.0557117 -5.2734346 -1.1505594 7
-6.10217 -5.3138914 -1.3040315 27
-6.0695152 -5.2854552 -1.4394175 7
-6.0321574 -5.252923 -1.5732085 4
-6.0583105 -5.2756972 -1.7223663 4
-6.7759824 -5.9006605 -2.0857706 3
-5.8473949 -5.0920281 -1.936823 6
-4.3528776 -3.7905729 -1.9856561 5
-3.0922651 -2.692806 -1.9113526 7
-2.2300706 -1.9147803 0.7758882 6
-2.6578827 -2.2821076 0.67695493 11
-4.5413742 -3.8993089 0.83740151 18
-9.5782537 -8.2240677 1.0960649 25
-9.9137602 -8.5121403 0.67222077 24
-10.618832 -9.117527 0.4723663 12
-5.3272786 -3.9391034 0.18425517 36
-7.4587603 -7.4094553 0.2305063 16
-8.6693459 -7.4436626 0.18309297 18
-5.3290653 -3.9404244 0.067093492 37
-14.066805 -13.973818 0.083747216 46
-14.752202 -12.666516 -0.032239359 31
-5.3195381 -3.9333801 -0.049882997 37
-14.040122 -13.947311 -0.26597738 34
-14.779806 -12.690218 -0.37676296 45
-5.2954888 -3.9155974 -0.16624676 37
-14.009064 -13.916459 -0.61469209 39
-14.760293 -12.673464 -0.72118932 45
-5.3083611 -3.9251153 -0.28362796 43
-14.041693 -13.948873 -0.96627986 49
-14.742267 -12.657986 -1.0642436 40
-5.3003054 -3.9191589 -0.39971313 40
-14.0189 -13.92623 -1.3149023 56
-6.4926448 -5.5747061 -0.6201694 0
-5.2874041 -3.9096193 -0.51522082 39
-13.994665 -13.902155 -1.6616509 44
-6.4591928 -5.5459833 -0.76759529 0
-5.269711 -3.8965368 -0.6294471 41
-13.985926 -13.893475 -2.0097573 40
-6.1794558 -5.3057961 -0.87847626 0
-6.1578221 -5.2872214 -1.0192766 10
-6.0773578 -5.218133 -1.1477227 4
-6.115149 -5.2505813 -1.2989401 29
-6.0793796 -5.2198687 -1.4330796 8
-6.0269928 -5.1748886 -1.5624014 3
-6.0267434 -5.1746745 -1.7030798 5
-6.8258791 -5.8608274 -2.088484 3
-5.8651347 -5.0359144 -1.9310068 7
-4.3677549 -3.750236 -1.9804513 5
-3.1109886 -2.6711528 -1.9113526 7
-2.2197692 -1.8791735 0.76772094 11
-2.6977296 -2.283797 0.68302631 7
-4.6047678 -3.8982241 0.84405196 18
-7.2448244 -6.1331973 0.82412463 2
-10.088803 -8.540803 0.68003017 25
-10.749351 -9.0999975 0.47533461 4
-5.3320284 -3.8853328 0.18347679 35
-7.5645833 -7.4103737 0.23217219 16
-8.7821512 -7.4346409 0.18437469 17
-5.330584 -3.8842804 0.06676957 42
-14.129728 -13.841683 0.083544478 55
-14.79753 -12.527036 -0.032146506 29
-5.3307052 -3.8843689 -0.049732201 42
-14.094294 -13.806972 -0.26517105 37
-14.819201 -12.545382 -0.37552539 45
-5.3194637 -3.8761773 -0.16614582 44
-14.065893 -13.77915 -0.61294973 39
-14.811799 -12.539115 -0.71941119 45
-5.313025 -3.8714855 -0.28242615 45
-14.084506 -13.797383 -0.96257389 46
-14.784549 -12.516047 -1.0609622 41
-5.3146296 -3.8726549 -0.3987447 48
-14.058761 -13.772162 -1.3095907 57
-6.4918208 -5.4957328 -0.61641079 0
-5.3113465 -3.8702626 -0.51490837 45
-14.042974 -13.756698 -1.655943 44
-6.446063 -5.456996 -0.76148903 0
-5.2935677 -3.8573074 -0.62906468 46
-14.031412 -13.745372 -2.002455 42
-6.1890283 -5.2393999 -0.87461579 0
-6.140059 -5.1979446 -1.0103049 10
-6.0773745 -5.1448779 -1.1409147 2
-6.1275434 -5.1873488 -1.2938486 11
-6.100646 -5.1645784 -1.4295585 7
-6.0360136 -5.1098633 -1.5554539 1
-5.2925682 -4.4804902 -1.4867359 0
-6.8755503 -5.8205833 -2.0911975 3
-5.8912625 -4.9873228 -1.9280987 7
-4.3967166 -3.722096 -1.9817525 5
-3.1406288 -2.6587389 -1.9181124 8
-2.2209575 -1.853718 0.7636373 10
-2.7256684 -2.2749739 0.68606198 6
-4.6622834 -3.891366 0.849594 23
-5.3141599 -4.4354534 0.60096747 19
-10.26779 -8.5699911 0.68804502 23
-11.005976 -9.1861162 0.48383477 5
-5.3557754 -3.8456817 0.18336558 41
-7.6650286 -7.4046168 0.23366272 17
-5.2935495 -4.418251 0.11048383 8
-5.3608203 -3.8493042 0.066810057 33
-14.159849 -13.678782 0.0831559 48
-5.3065057 -4.4290648 -0.011460524 27
-5.3771877 -3.861057 -0.049913153 29
-14.132808 -13.652659 -0.26409596 31
-14.8573 -12.400617 -0.37428781 66
-5.3788762 -3.8622692 -0.16715521 24
-14.11574 -13.636171 -0.6109584 39
-14.852946 -12.396983 -0.71718848 12
-5.3431697 -3.8366303 -0.28259784 43
-14.137385 -13.657082 -0.95964813 46
-5.2863059 -4.4122052 -0.37713379 20
-5.3447795 -3.8377864 -0.39898682 30
-14.111507 -13.632083 -1.305607 63
-5.2834439 -4.4098163 -0.49873763 25
-5.3641505 -3.8516955 -0.51740795 28
-14.08707 -13.608476 -1.6498995 44
-5.29425 -4.4188356 -0.62176299 0
-5.37535 -3.8597374 -0.63556564 27
-14.072651 -13.594546 -1.994747 33
-5.2820196 -4.4086275 -0.74207222 11
-5.2773433 -4.4047246 -0.86326993 48
-5.2559061 -4.3868318 -0.98092562 38
-5.2813606 -4.4080777 -1.1086495 11
-5.250834 -4.3825984 -1.2232232 38
-5.2730498 -4.4011412 -1.3508905 40
-5.2426476 -4.3757658 -1.4640952 27
-5.246841 -4.3792658 -1.5864881 25
-5.2526031 -4.3840752 -1.7090186 42
-4.422595 -3.6913104 -1.9817525 4
-3.167464 -2.643718 -1.9231824 8
-2.2189126 -1.8258804 0.75853276 12
-2.7081256 -2.2284398 0.67771387 7
-4.7260437 -3.8889275 0.85624444 7
-5.3203788 -4.3779888 0.59819961 29
-5.3333402 -4.3886547 0.35532552 26
-5.3219194 -4.3792567 0.23260768 31
-5.415133 -3.8312914 0.18447757 26
-7.7773395 -7.4088511 0.23550397 19
-5.321178 -4.3786464 0.11041974 21
-5.4332752 -3.8441272 0.067376934 29
-14.21445 -13.540973 0.082919374 57
-5.3125873 -4.3715777 -0.011407467 28
-5.4595213 -3.8626969 -0.050425857 25
-14.18723 -13.515042 -0.26334342 36
-5.2992487 -4.3606014 -0.13272947 64
-5.4546738 -3.859267 -0.16866928 25
-14.158484 -13.487658 -0.60871816 42
-5.305861 -4.3660431 -0.25472045 32
-5.4252839 -3.8384733 -0.28551653 29
-14.174526 -13.50294 -0.95574713 50
-5.2984757 -4.3599658 -0.37582126 43
-5.4301109 -3.8418884 -0.40334469 26
-14.145644 -13.475427 -1.3000298 54
-5.2925372 -4.3550787 -0.49671379 41
-5.4429955 -3.8510044 -0.52240705 29
-14.132668 -13.463065 -1.6441916 42
-5.2911315 -4.3539224 -0.61781186 20
-5.4476705 -3.8543122 -0.64091939 30
-6.1774464 -5.8847604 -0.86978596 0
-5.2850308 -4.3489022 -0.73821175 81
-5.2803836 -4.3450785 -0.85878414 40
-5.2497139 -4.3198409 -0.97411758 37
-5.2784634 -4.3434978 -1.1016488 60
-5.2660999 -4.3333244 -1.2197021 35
-5.2521257 -4.3218255 -1.3377676 36
-5.2489076 -4.3191776 -1.4573869 31
-5.2532167 -4.3227229 -1.5792521 34
-5.2381325 -4.3103108 -1.6944778 35
-4.4511786 -3.6627486 -1.9830537 5
-3.1746454 -2.6123259 -1.9164225 8
-2.2135844 -1.7957257 0.75240737 12
-2.7236171 -2.2094793 0.67771387 5
-4.107029 -3.3317442 0.73986167 5
-5.3229604 -4.3181438 0.5950858 30
-5.335928 -4.3286638 0.35347593 25
-5.3213158 -4.3168101 0.23125845 31
-5.5073519 -3.8391244 0.18670154 25
-7.8813381 -7.4036589 0.23708218 19
-5.3143444 -4.3111548 0.10965071 21
-5.5288858 -3.8541358 0.068227239 26
-14.308638 -13.441407 0.082919374 32
-5.311913 -4.3091822 -0.011341144 32
-5.5421376 -3.8633733 -0.050938562 26
-14.348286 -13.478652 -0.26457977 21
-5.3078218 -4.3058629 -0.13218802 40
-5.5438104 -3.8645394 -0.17058714 27
-14.400913 -13.52809 -0.61506546 24
-5.3051701 -4.3037119 -0.25323868 41
-5.5011253 -3.8347838 -0.28809184 31
-14.253889 -13.389977 -0.95477188 27
-5.2977672 -4.2977066 -0.37363371 41
-5.5124817 -3.8427005 -0.40746045 29
-14.315007 -13.447391 -1.3069348 29
-5.2918296 -4.2928901 -0.49382254 39
-5.52209 -3.8493984 -0.52740616 28
-14.374474 -13.503253 -1.6613151 26
-5.2873664 -4.289269 -0.61386073 41
-5.5463061 -3.8662791 -0.6493324 27
-6.2502832 -5.8714609 -0.8742485 0
-5.293644 -4.2943616 -0.73520911 45
-5.2890143 -4.290606 -0.85529518 40
-5.2582188 -4.265624 -0.97014624 37
-5.2718558 -4.2766867 -1.0940118 37
-5.2564712 -4.2642064 -1.2105473 36
-5.2608342 -4.2677455 -1.332364 37
-5.2455225 -4.2553244 -1.4481629 32
-5.2560334 -4.2638507 -1.5711117 30
-5.2439861 -4.2540779 -1.6867228 36
-4.4707656 -3.6268182 -1.9804513 4
-3.1928055 -2.5900989 -1.9164225 8
-2.2109647 -1.7681507 0.74730283 14
-2.726707 -2.1805995 0.67467821 6
-4.1765952 -3.3401027 0.74817473 6
-5.3218551 -4.2559891 0.59162599 31
-5.3379397 -4.2688522 0.35162634 27
-5.3232241 -4.2570839 0.23004414 30
-5.5900521 -3.8390636 0.1885919 24
-7.991508 -7.4028087 0.23883575 19
-5.3162012 -4.2514672 0.10907394 21
-5.5952239 -3.8426151 0.068713129 28
-14.548849 -13.477099 0.083764106 51
-5.3137522 -4.2495089 -0.011281454 33
-5.6250262 -3.8630826 -0.051451266 27
-14.518323 -13.448822 -0.26597738 35
-5.3096423 -4.2462225 -0.1314919 40
-5.6299872 -3.8664899 -0.17240404 25
-14.495007 -13.427223 -0.61506546 34
-5.3132339 -4.2490945 -0.25220141 44
-5.5969424 -3.8437958 -0.29169729 30
-14.511155 -13.442182 -0.96569467 57
-5.2964497 -4.2356715 -0.37144616 41
-5.6082907 -3.851589 -0.41254461 26
-14.490523 -13.42307 -1.3143712 43
-5.2873974 -4.2284327 -0.49064219 43
-5.6112866 -3.8536465 -0.5333426 26
-6.4417686 -5.9672318 -0.73966795 1
-5.3047371 -4.2422991 -0.61242396 41
-5.6256781 -3.8635302 -0.655451 26
-6.3261533 -5.8601336 -0.87911671 1
-5.2955418 -4.2349458 -0.73134863 46
-5.2847438 -4.2263107 -0.84981251 38
-5.2662244 -4.2114997 -0.9661749 38
-5.2799954 -4.2225132 -1.0895568 38
-5.2584372 -4.2052722 -1.2042093 37
-5.2537179 -4.2014985 -1.3231008 36
-5.2415028 -4.19173 -1.438939 33
-5.2613287 -4.2075849 -1.5638757 31
-5.2493105 -4.1979737 -1.6789677 36
-4.5048385 -3.6026051 -1.984355 5
-3.2108099 -2.5677459 -1.9164225 7
-2.2141433 -1.7454891 0.74424011 13
-2.7326114 -2.1542161 0.67240143 6
-4.9091134 -3.8700314 0.87453312 17
-5.3201427 -4.1940603 0.58816618 34
-5.3268294 -4.1993318 0.34895474 26
-5.3276987 -4.200017 0.22896476 29
-5.6829524 -3.8447547 0.19081587 26
-8.0990953 -7.3980813 0.24050163 22
-5.3143439 -4.1894889 0.10843308 21
-5.7047358 -3.8594918 0.069725409 28
-14.604189 -13.34013 0.083544478 48
-5.3118773 -4.1875448 -0.011215132 31
-5.7114916 -3.8640625 -0.051994126 28
-14.567564 -13.306675 -0.26517105 31
-5.317173 -4.1917191 -0.13095045 42
-5.7197704 -3.8696637 -0.17432187 27
-14.538211 -13.279862 -0.61294973 34
-5.3113775 -4.1871505 -0.25071961 40
-5.6766005 -3.8404574 -0.29444429 29
-14.554499 -13.294741 -0.96237886 51
-5.3007984 -4.1788106 -0.36969611 41
-5.6879544 -3.8481388 -0.41641828 30
-14.536732 -13.278511 -1.3101219 46
-5.2885909 -4.1691871 -0.48804006 42
-5.7041116 -3.8590696 -0.53959149 27
-6.503871 -5.9409313 -0.74201828 1
-5.3029389 -4.1804981 -0.608832 43
-5.7151728 -3.8665531 -0.66271675 27
-6.3610349 -5.8104582 -0.87830532 0
-5.2906237 -4.1707897 -0.72663027 47
-5.2767191 -4.1598282 -0.84383142 40
-5.2675118 -4.1525698 -0.96106881 37
-5.2690291 -4.1537657 -1.0812832 36
-5.2443767 -4.1343312 -1.1943504 35
-5.2675109 -4.1525688 -1.319241 37
-5.2429957 -4.1332426 -1.4313921 34
-5.2660956 -4.151453 -1.5566397 32
-5.2388711 -4.1299911 -1.6663657 38
-4.5120573 -3.5570176 -1.9765476 5
-3.2315049 -2.5475121 -1.9181124 7
-2.2201667 -1.7252437 0.74219829 14
-2.7568865 -2.1423171 0.67467821 7
-4.9891858 -3.8769891 0.88395458 21
-5.3241181 -4.1372576 0.58539832 30
-5.3276258 -4.1399832 0.34710515 25
-5.3284788 -4.140646 0.22775045 26
-5.7628922 -3.8404644 0.19259503 25
-8.2040291 -7.3895359 0.24207984 19
-5.3213544 -4.1351099 0.10798448 20
-5.7847953 -3.8550608 0.070373259 28
-14.631575 -13.178958 0.083172791 51
-5.3093958 -4.1258173 -0.011148809 29
-5.7915845 -3.8595853 -0.052476671 27
-14.606609 -13.15647 -0.26420349 33
-5.3210421 -4.1348672 -0.13033167 41
-5.8065419 -3.8695533 -0.17613879 26
-14.583033 -13.135235 -0.6109584 33
-5.3152275 -4.1303487 -0.24953417 42
-5.7664585 -3.8428411 -0.29770637 29
-14.605395 -13.155376 -0.95964813 44
-5.3014574 -4.1196485 -0.36772731 39
-5.7811308 -3.8526187 -0.42126036 27
-14.587557 -13.139309 -1.3064038 45
-5.2955155 -4.1150312 -0.48601621 44
-5.7939639 -3.861171 -0.54552794 27
-6.5007625 -5.8553691 -0.73698193 0
-5.3068275 -4.1238213 -0.60595846 42
-5.8049803 -3.8685124 -0.66998255 28
-6.620245 -5.9629893 -0.90832591 0
-5.2913485 -4.1117926 -0.7227698 46
-5.2805591 -4.1034088 -0.83984405 39
-5.2713599 -4.0962601 -0.95653015 36
-5.2791886 -4.1023436 -1.0774647 38
-5.2575641 -4.0855398 -1.1908293 36
-5.2498841 -4.0795722 -1.307662 36
-5.2501035 -4.0797424 -1.4255223 33
-5.258028 -4.0859003 -1.5457858 32
-5.2369313 -4.0695066 -1.656672 36
-4.5487251 -3.5347161 -1.9817525 5
-3.2492101 -2.5248911 -1.9181124 7
-2.2198756 -1.7002952 0.73811466 15
-2.7842469 -2.1325707 0.67771387 6
-5.050725 -3.8685608 0.89005083 21
-5.3307261 -4.0830255 0.58297646 29
-5.3373704 -4.0881143 0.34587207 27
-5.3159976 -4.071744 0.22599645 30
-5.8564172 -3.8440197 0.19481899 23
-8.3122282 -7.3825374 0.24374573 20
-5.3246918 -4.0784035 0.10747179 22
-5.8817878 -3.8606722 0.071223572 25
-12.124305 -10.768249 0.068491265 4
-5.3094902 -4.0667596 -0.011089118 30
-5.8986416 -3.8717349 -0.053200487 26
-14.665209 -13.024961 -0.26361218 31
-5.3148546 -4.0708685 -0.12948084 42
-5.8935881 -3.8684175 -0.17795569 25
-14.629539 -12.993282 -0.60909152 34
-5.3122001 -4.0688353 -0.24805239 44
-5.8499417 -3.8397691 -0.30062506 30
-14.628177 -12.992071 -0.95516199 58
-5.2983809 -4.0582504 -0.36553976 40
-5.8612919 -3.847219 -0.425134 28
-14.628201 -12.992093 -1.3018888 41
-5.3019443 -4.0609798 -0.48399234 42
-5.8841205 -3.8622034 -0.55146438 29
-6.5057201 -5.7780805 -0.73295289 1
-5.3101864 -4.0672932 -0.60308492 42
-5.8917627 -3.8672194 -0.67686594 28
-6.2838492 -5.5810246 -0.85680407 0
-5.2978244 -4.0578246 -0.71976715 45
-5.2870221 -4.0495505 -0.83635509 39
-5.2652512 -4.0328751 -0.95028943 41
-5.2763486 -4.0413752 -1.0711005 39
-5.2578254 -4.0271873 -1.1844913 38
-5.2533107 -4.0237293 -1.3014865 36
-5.2474079 -4.0192084 -1.4171369 35
-5.2616787 -4.030139 -1.5385498 32
-5.2498097 -4.0210481 -1.6518251 38
-4.5702887 -3.5005744 -1.9804513 5
-3.26388 -2.4999416 -1.9164225 7
-2.2131715 -1.6707748 0.73198926 14
-2.7896636 -2.1059821 0.67543709 8
-5.1187105 -3.8642342 0.89725548 23
-5.3241162 -4.0192995 0.5791707 31
-5.3338981 -4.0266843 0.343817 25
-5.318769 -4.0152626 0.22491705 31
-5.943552 -3.8421156 0.19682056 26
-8.4207258 -7.3743849 0.24541162 21
-5.3243065 -4.019443 0.10689502 22
-5.9656992 -3.8564324 0.071911916 28
-12.190159 -10.675436 0.068440579 4
-5.30902 -4.0079031 -0.011029428 30
-5.9826312 -3.8673778 -0.053713191 9
-14.707639 -12.880099 -0.26275212 35
-5.3144183 -4.0119786 -0.1287847 42
-15.323318 -9.9055176 -0.46058527 43
-14.6838 -12.859222 -0.60759807 36
-5.3149538 -4.0123825 -0.24686696 42
-5.947083 -3.844398 -0.30423048 30
-14.685458 -12.860675 -0.9530164 61
-5.2915192 -3.9946914 -0.36313346 40
-5.9550672 -3.8495595 -0.42997608 20
-14.676511 -12.852839 -1.2981706 7
-5.2951407 -3.9974253 -0.48081198 41
-6.5968757 -5.7771621 -0.73866069 0
-5.3098354 -4.0085187 -0.5998522 41
-6.2478166 -5.4714766 -0.84666198 0
-5.2974577 -3.9991744 -0.71590668 45
-5.2866559 -3.99102 -0.83186924 40
-5.2585154 -3.9697759 -0.9440487 41
-5.2823715 -3.9877856 -1.0666455 39
-5.2575288 -3.9690311 -1.1781534 37
-5.2718759 -3.9798622 -1.2991707 38
-5.2410026 -3.9565551 -1.4079129 34
-5.2648082 -3.9745264 -1.5313138 32
-5.2560725 -3.967932 -1.6450394 37
-4.5885777 -3.4640243 -1.9778489 5
-3.2812531 -2.4770944 -1.9164225 8
-2.218576 -1.6506659 0.72994745 13
-2.8042982 -2.0864553 0.67543709 11
-5.1868806 -3.8591452 0.90446013 19
-5.3296657 -3.9653804 0.57674885 30
-5.333035 -3.9678874 0.3419674 27
-5.3274269 -3.9637146 0.22410752 30
-14.810894 -9.4283161 0.48827064 28
-8.5476742 -7.3807573 0.24760358 22
-5.3233585 -3.9606876 0.10631825 21
-11.644166 -7.4124413 0.13973425 19
-12.255308 -10.58223 0.0683899 13
-5.3144069 -3.9540277 -0.010983002 31
-15.383067 -9.7925501 -0.13749491 46
-14.73363 -12.722214 -0.26162326 35
-5.3198376 -3.9580679 -0.12824327 40
-15.371859 -9.7854156 -0.45997962 45
-14.7248 -12.71459 -0.60560673 34
-5.3171802 -3.9560909 -0.24568151 43
-15.376071 -9.7880964 -0.78306729 55
-14.729527 -12.718671 -0.95009065 65
-5.3064609 -3.9481153 -0.36225843 42
-6.7334609 -5.8142176 -0.59198493 1
-5.2909107 -3.9365461 -0.47792077 43
-7.693481 -4.8975148 -0.71456039 0
-5.299336 -3.9428146 -0.59554189 42
-7.5473576 -4.8044958 -0.85927558 0
-6.3039341 -5.4433293 -0.84909612 0
-5.2869596 -3.9336064 -0.71075934 48
-5.2793636 -3.9279547 -0.82638657 39
-5.2638645 -3.9164228 -0.94007736 40
-5.2815681 -3.9295948 -1.0609177 36
-5.2661552 -3.9181273 -1.173928 37
-5.2680435 -3.9195323 -1.2914513 37
-5.2465315 -3.9035268 -1.4020431 33
-5.2674184 -3.9190671 -1.5240778 32
-5.246284 -3.9033427 -1.6334069 38
-4.6187186 -3.4364212 -1.9804513 5
-3.3042841 -2.4584551 -1.9198024 7
-2.2144511 -1.6237025 0.72484291 14
-2.8219635 -2.069149 0.67619604 9
-5.2520323 -3.850949 0.91111058 20
-5.3282971 -3.9068685 0.57363504 31
-5.3316131 -3.9092999 0.34011781 27
-5.3324018 -3.909878 0.22316305 28
-15.123672 -9.4797077 0.49638811 31
-8.6629372 -7.3753438 0.24944483 17
-5.3250771 -3.9045076 0.10580556 22
-11.821026 -7.4095674 0.14123242 22
-12.170512 -10.361579 0.067511372 2
-5.3225274 -3.902638 -0.010943209 35
-15.505283 -9.7189074 -0.13797745 24
-14.788589 -12.590525 -0.26103196 36
-5.3247647 -3.9042785 -0.12770183 42
-15.622759 -9.7925415 -0.46543035 21
-14.779718 -12.582973 -0.60423774 35
-5.3221045 -3.902328 -0.24464425 44
-15.413555 -9.6614103 -0.7815221 52
-14.775372 -12.579271 -0.94735998 54
-5.3049064 -3.8897178 -0.36028963 42
-7.9094901 -4.957768 -0.56603831 0
-6.7131076 -5.715322 -0.58667326 0
-5.3021779 -3.8877172 -0.47647515 49
-7.7139692 -4.8352132 -0.7133106 0
-6.4644489 -5.5036216 -0.71515787 0
-5.304244 -3.8892324 -0.59302753 43
-7.688674 -4.8193574 -0.87151271 0
-6.4569221 -5.4972138 -0.86451209 0
-5.2918425 -3.8801391 -0.70775676 47
-5.2874541 -3.8769212 -0.82339603 47
-5.2814984 -3.8725545 -0.93837535 50
-5.2833958 -3.8739457 -1.0558263 38
-5.271153 -3.864969 -1.1689986 42
-5.2731233 -3.8664134 -1.2860478 45
-5.2673478 -3.8621786 -1.4003661 40
-5.2600861 -3.8568542 -1.5141283 34
-5.2577586 -3.8551478 -1.6285599 45
-4.6364965 -3.3996193 -1.9778489 4
-3.3155193 -2.4310391 -1.9164225 8
-2.2163281 -1.6014079 0.72178018 14
-3.0782723 -2.2242057 0.73387378 2
-5.2884216 -3.8211493 0.91277319 18
-5.3489819 -3.8649073 0.57294303 25
-5.3555369 -3.8696434 0.33991233 31
-5.3530869 -3.8678732 0.22289321 34
-15.444684 -9.5313854 0.50472796 25
-8.7907906 -7.3789611 0.25163677 20
-5.3489637 -3.8648942 0.10574148 24
-12.005215 -7.4087839 0.14281157 21
-12.162896 -10.209496 0.067072108 2
-5.3561273 -3.87007 -0.010956474 24
-15.6987 -9.6881456 -0.13909334 38
-14.824047 -12.443258 -0.26011813 25
-5.3227172 -3.8459296 -0.1270057 47
-15.677132 -9.6748352 -0.46502659 35
-5.3038101 -4.4520011 -0.21555917 1
-5.3330183 -3.8533726 -0.24390335 50
-15.681278 -9.6773949 -0.79165167 42
-14.81693 -12.437284 -0.94443423 60
-5.3351693 -3.8549271 -0.36050841 42
-8.0322504 -4.9569464 -0.57233304 0
-6.7039328 -5.6272597 -0.58242393 0
-5.3291898 -3.8506064 -0.47647515 31
-7.8629193 -4.852447 -0.7239337 0
-5.2845998 -4.4358759 -0.58119166 1
-5.3248086 -3.8474407 -0.59230918 50
-7.7594042 -4.7885647 -0.87571919 0
-5.2546339 -4.4107232 -0.69939882 17
-5.3220258 -3.8454299 -0.70818567 50
-5.3176079 -3.8422377 -0.82389444 31
-5.3340807 -3.8541403 -0.94291407 30
-5.3071113 -3.8346536 -1.05519 45
-5.3075819 -3.8349936 -1.1711112 27
-5.3190746 -3.8432975 -1.2906793 28
-5.3290539 -3.8505082 -1.40959 24
-5.2932 -3.8246019 -1.5159373 31
-5.3097086 -3.8365302 -1.636315 27
-4.6723809 -3.376029 -1.9830537 5
-3.3353488 -2.4099565 -1.9181124 7
-2.2148519 -1.5769236 0.71769655 15
-3.1929035 -2.2732739 0.75740027 7
-5.2891531 -3.7657554 0.90833956 17
-5.4407592 -3.8736956 0.57986265 21
-5.3954387 -3.8414283 0.34073436 19
-5.4222956 -3.8605497 0.22464721 22
-15.531352 -9.4357853 0.50539517 40
-5.32374 -4.4057441 0.15150814 15
-5.4149122 -3.855293 0.10651051 17
-12.200217 -7.4120159 0.14451218 20
-5.3157272 -4.3991127 0.029143421 36
-5.4384093 -3.8720226 -0.011069221 22
-15.731768 -9.5575438 -0.13879174 38
-5.3029695 -4.388555 -0.092511535 30
-5.3820157 -3.8318715 -0.12777919 30
-15.73404 -9.5589247 -0.46472377 39
-5.2916403 -4.3791795 -0.21381678 33
-5.4021211 -3.8461862 -0.24582969 33
-15.727963 -9.555233 -0.79062158 39
-5.2971396 -4.3837304 -0.3356818 53
-5.4107561 -3.852334 -0.36378974 30
-15.713609 -9.5465117 -1.1148874 41
-5.2917457 -4.3792667 -0.45706865 31
-5.4176917 -3.8572719 -0.48196849 30
-8.0806417 -4.9092441 -0.74080575 0
-5.2816615 -4.3709211 -0.57749838 33
-5.3807468 -3.8309681 -0.59554189 32
-7.8709121 -4.7818265 -0.88451463 0
-5.2638388 -4.3561716 -0.69655901 39
-5.3973374 -3.8427804 -0.71461987 34
-5.4024978 -3.8464541 -0.83286607 28
-5.4253688 -3.8627379 -0.95426077 28
-5.3787909 -3.8295753 -1.0640998 30
-5.38234 -3.8321023 -1.1816745 27
-5.3937349 -3.8402152 -1.3022585 28
-5.4099693 -3.8517737 -1.4238452 25
-5.3769054 -3.8282332 -1.5322182 25
-5.3806224 -3.8308797 -1.6498864 29
-4.6927547 -3.3411334 -1.9817525 4
-3.355046 -2.3887155 -1.9198024 7
-2.2163084 -1.5547594 0.71463382 16
-3.1894054 -2.2373953 0.75284678 8
-5.2861271 -3.7082634 0.90335172 25
-5.5198674 -3.8722346 0.58539832 20
-5.4777203 -3.8426676 0.344228 19
-5.4982061 -3.857039 0.22667105 21
-15.569395 -9.310709 0.50450557 39
-5.3295774 -4.348248 0.15080671 35
-5.5039048 -3.8610365 0.10772814 15
-12.385545 -7.4067235 0.14609133 22
-5.3370094 -4.3543115 0.029092738 39
-5.520977 -3.8730128 -0.01118197 22
-15.770646 -9.4310598 -0.13855048 39
-5.3055844 -4.3286729 -0.092027746 29
-5.4642944 -3.8332493 -0.12909409 31
-15.759209 -9.4242201 -0.46351251 38
-5.2849073 -4.3118033 -0.21232329 32
-5.4779267 -3.8428125 -0.24805239 33
-15.749701 -9.4185343 -0.78838962 76
-5.3028469 -4.3264399 -0.33412141 36
-5.4963737 -3.8557532 -0.36772731 30
-15.759314 -9.424283 -1.1134347 49
-5.2850776 -4.3119421 -0.45388168 39
-5.5032773 -3.8605962 -0.48717269 31
-8.2173929 -4.9141126 -0.75017905 0
-5.2873383 -4.3137865 -0.57481235 35
-5.4660659 -3.8344922 -0.60200739 32
-8.0237083 -4.7982864 -0.89789903 0
-5.269453 -4.2991948 -0.69331354 40
-5.4728699 -3.8392651 -0.72105402 36
-5.4747066 -3.840554 -0.83984405 31
-5.5008259 -3.8588767 -0.96277082 29
-5.4603543 -3.8304856 -1.074919 29
-5.4669838 -3.8351362 -1.1943504 26
-5.484674 -3.8475459 -1.3176972 28
-5.4943614 -3.8543417 -1.438939 24
-5.4545374 -3.8264048 -1.5466902 25
-5.4453597 -3.8199666 -1.6615189 26
-4.7190623 -3.310463 -1.9830537 5
-3.3686724 -2.3631525 -1.9181124 7
-2.2048366 -1.5238571 0.70748752 17
-3.1920233 -2.2061443 0.74981111 11
-5.289073 -3.6555052 0.8994723 21
-5.6156068 -3.8811867 0.59266394 21
-5.5537047 -3.8384035 0.34731066 20
-5.5841937 -3.8594759 0.22909968 20
-13.252905 -7.8003249 0.42766771 6
-5.3379908 -4.2933903 0.15019296 34
-5.5866561 -3.8611777 0.10881759 15
-12.581728 -7.4052868 0.14779195 18
-5.3329921 -4.2893696 0.028906895 37
-5.6005278 -3.870765 -0.011288086 24
-15.81542 -9.3085566 -0.13836952 40
-5.3107419 -4.2714734 -0.091597706 28
-5.5534291 -3.8382132 -0.13056372 30
-15.81428 -9.3078852 -0.46320969 36
-5.2930732 -4.2572622 -0.2114521 34
-5.570385 -3.849932 -0.25101596 31
-15.787519 -9.2921352 -0.78701609 72
-5.298677 -4.2617698 -0.33197585 37
-5.5724406 -3.8513525 -0.37100863 29
-15.800636 -9.2998552 -1.11174 56
-5.2870617 -4.2524271 -0.45149142 40
-5.5858865 -3.8606458 -0.49208781 31
-8.3064871 -4.8889885 -0.75517815 0
-5.2800541 -4.2467914 -0.57078326 36
-5.5451369 -3.8324819 -0.60775447 32
-8.170248 -4.8088017 -0.91051853 0
-5.2745318 -4.2423496 -0.69006807 41
-5.5682406 -3.8484499 -0.73006183 32
-5.5699463 -3.8496289 -0.85031092 29
-5.5895185 -3.8631558 -0.97355026 27
-5.5421882 -3.8304439 -1.0857382 30
-5.5454493 -3.8326979 -1.2056178 29
-5.5598297 -3.8426368 -1.3292762 27
-5.5822649 -3.8581426 -1.4548713 24
-5.5388117 -3.8281102 -1.5629711 22
-5.5421276 -3.8304021 -1.6828452 26
-4.7389455 -3.2752883 -1.9817525 5
-3.3940344 -2.3457627 -1.9231824 8
-2.2186182 -1.5106039 0.70850843 16
-3.2008548 -2.1793852 0.74829328 11
-5.2948174 -3.6051142 0.89614707 20
-5.7018576 -3.8822579 0.59889156 22
-5.6431046 -3.8422544 0.35121533 20
-5.6638737 -3.8563957 0.23125845 21
-15.618298 -9.0463247 0.501948 33
-5.3239641 -4.2212358 0.14896546 37
-5.6762891 -3.8648491 0.11003523 16
-12.792332 -7.4094872 0.14965452 24
-5.3220615 -4.2197275 0.028687265 40
-5.6836224 -3.8698421 -0.011400835 23
-15.866176 -9.1898985 -0.13824888 39
-5.3059583 -4.2069592 -0.091006406 30
-5.6329813 -3.835362 -0.13180129 31
-15.847733 -9.1792164 -0.46230122 38
-5.2944698 -4.1978507 -0.21033198 33
-5.6466885 -3.8446946 -0.25323868 34
-15.838173 -9.1736794 -0.78632933 71
-5.306386 -4.2072988 -0.33061048 39
-5.6652203 -3.8573127 -0.37538373 31
-15.823718 -9.1653061 -1.1088347 49
-5.2884731 -4.1930962 -0.44910118 40
-5.6786571 -3.8664613 -0.49787027 30
-8.423234 -4.8788481 -0.76267684 0
-5.2845874 -4.1900148 -0.56809723 36
-5.6343241 -3.8362763 -0.61457914 32
-8.2932024 -4.8035321 -0.92046118 0
-5.2790751 -4.1856446 -0.68682259 39
-5.6508565 -3.8475325 -0.73735386 36
-5.6524563 -3.8486218 -0.85878414 30
-5.6654463 -3.8574665 -0.98206031 27
-5.630815 -3.8338869 -1.0978303 28
-5.6339111 -3.835995 -1.218998 27
-5.6514053 -3.8479061 -1.344715 27
-5.6640229 -3.8564973 -1.4691265 23
-5.6201544 -3.8266282 -1.5783477 24
-5.6328902 -3.8352997 -1.7022328 26
-4.7585692 -3.2399957 -1.9804513 4
-3.4073315 -2.3199704 -1.9214923 7
-2.2066264 -1.4799982 0.70136207 14
-3.1898985 -2.1394851 0.74222189 11
-5.3034072 -3.5570285 0.89337605 21
-5.795013 -3.8867517 0.60581118 21
-5.7295074 -3.8428168 0.35491449 20
-5.7537403 -3.8590701 0.23382199 21
-15.677593 -8.9350948 0.50183684 38
-5.3312483 -4.1667266 0.14835171 37
-5.7595997 -3.8629997 0.11112468 16
-13.000121 -7.4091291 0.15147662 15
-5.3261786 -4.1627641 0.028552106 40
-5.7835846 -3.8790867 -0.011546744 22
-15.891715 -9.0571289 -0.13791713 42
-5.3068371 -4.1476474 -0.090522617 29
-5.7293692 -3.8427238 -0.13342559 29
-15.880158 -9.0505428 -0.46139276 38
-5.2858462 -4.1312418 -0.20883849 35
-5.7530646 -3.8586168 -0.25679496 33
-15.870579 -9.045083 -0.7847842 84
-5.3072982 -4.1480079 -0.32885504 36
-5.7484012 -3.8554888 -0.37910259 31
-15.859562 -9.0388041 -1.106898 53
-5.2924604 -4.1364112 -0.44697651 41
-5.7717776 -3.8711677 -0.50365275 30
-15.840148 -9.0277395 -1.4284959 44
-5.2728839 -4.1211109 -0.56373245 37
-5.7205238 -3.8367913 -0.62104458 32
-8.5894394 -4.8953595 -0.9495244 0
-5.2705436 -4.1192818 -0.68195438 40
-5.7403336 -3.8500779 -0.74550378 31
-5.7484055 -3.8554916 -0.86925101 28
-5.7580066 -3.8619313 -0.99340707 27
-5.7197576 -3.8362772 -1.1099223 29
-5.716146 -3.8338552 -1.2309695 27
-5.7302837 -3.8433375 -1.357066 28
-5.7590203 -3.8626111 -1.4867359 23
-5.7082152 -3.8285358 -1.595533 24
-5.7175417 -3.8347912 -1.7196817 26
-4.7747903 -3.2024817 -1.9778489 5
-3.411401 -2.2880483 -1.9147326 7
-2.2233589 -1.4688208 0.70340389 9
-3.1916497 -2.1085043 0.73918623 11
-5.3016686 -3.502449 0.88894242 21
-5.8785305 -3.8835421 0.61169285 21
-5.8261905 -3.8489647 0.35923019 20
-5.8505883 -3.8650827 0.23665538 21
-15.711689 -8.809782 0.50094724 36
-5.3348637 -4.1098814 0.14765029 35
-5.853168 -3.866787 0.1124064 15
-13.229457 -7.4179573 0.15354165 25
-5.329761 -4.1059504 0.028416948 38
-5.8705988 -3.8783021 -0.011666124 21
-15.930138 -8.9322701 -0.13770603 38
-5.307148 -4.0885301 -0.090038829 28
-5.8094463 -3.8379028 -0.13466316 29
-15.925518 -8.9296789 -0.46088809 36
-5.2923884 -4.0771594 -0.2079673 35
-5.8432307 -3.8602221 -0.25961038 31
-15.922881 -8.9282007 -0.78426909 60
-5.3108082 -4.0913496 -0.32729462 39
-5.8451591 -3.861496 -0.38369644 28
-15.911831 -8.9220047 -1.1061716 47
-5.2864299 -4.0725689 -0.44405508 42
-5.8519225 -3.8659642 -0.50827873 31
-15.881916 -8.9052315 -1.4266212 44
-5.2731085 -4.0623064 -0.56071061 35
-5.8136497 -3.8406799 -0.62822843 31
-8.6511908 -4.8508534 -0.95258367 0
-5.2708015 -4.0605292 -0.67830324 43
-5.8201637 -3.8449831 -0.7523669 34
-5.8347878 -3.8546443 -0.87822264 31
-5.8509021 -3.8652899 -1.0047538 28
-5.8090043 -3.8376107 -1.1220144 27
-5.8150496 -3.8416047 -1.2464623 25
-5.8290195 -3.8508337 -1.3740486 27
-5.8478484 -3.8632727 -1.5026681 24
-5.7900715 -3.8251035 -1.6109096 22
-5.8089337 -3.8375642 -1.7390693 26
-4.8001871 -3.1711547 -1.9791501 5
-3.4333413 -2.2681732 -1.9181124 8
-2.2238338 -1.4469352 0.70034117 10
-3.1832492 -2.0711777 0.73387378 11
-5.3027482 -3.4502275 0.88506299 17
-5.9723039 -3.8858733 0.61861241 21
-5.9232349 -3.8539467 0.36354589 21
-5.9444466 -3.8677483 0.23935385 22
-15.758806 -8.6921549 0.50050241 40
-5.3443165 -4.0580263 0.14712422 34
-5.9403634 -3.8650916 0.11355994 15
-13.459542 -7.4239397 0.1556067 15
-5.3296247 -4.0468712 0.028264895 37
-5.9712925 -3.8852155 -0.011812033 21
-15.964089 -8.8053837 -0.13746475 36
-5.3068933 -4.0296106 -0.089555033 29
-5.8997893 -3.8386919 -0.13613278 29
-15.973465 -8.8105555 -0.46048433 35
-5.2984343 -4.0231876 -0.2070961 35
-5.9269967 -3.8563943 -0.26212943 31
-15.949831 -8.7975197 -0.78255224 73
-5.3042412 -4.0275965 -0.32514906 38
-5.9322348 -3.8598025 -0.38763404 30
-15.956251 -8.8010607 -1.104961 49
-5.2924824 -4.0186682 -0.44219601 40
-5.9456496 -3.868531 -0.51406115 22
-15.926242 -8.7845078 -1.425059 36
-5.2822938 -4.0109315 -0.55869609 36
-5.9004278 -3.8391073 -0.63469392 32
-8.7476015 -4.8249536 -0.95946705 0
-5.2736669 -4.0043812 -0.67505777 41
-5.9135342 -3.8476348 -0.76094574 34
-5.9280891 -3.8571053 -0.8881911 27
-5.9275279 -3.85674 -1.0132638 6
-5.8886156 -3.8314216 -1.1321971 25
-5.901135 -3.8395677 -1.2591382 26
-5.9083977 -3.8442929 -1.3863996 19
-5.9500775 -3.8714118 -1.5219547 0
-5.875422 -3.8228374 -1.6271905 21
-5.8941345 -3.8350127 -1.7565182 25
-4.8412318 -3.1499426 -1.9869574 5
-3.4460537 -2.2421713 -1.9164225 8
-2.2338812 -1.4313747 0.70034117 8
-3.1678703 -2.0298347 0.72704357 12
-5.3000221 -3.3960257 0.88062936 21
-6.1569862 -3.9451313 0.63487351 14
-5.9836307 -3.8340526 0.36560097 4
-14.716201 -9.4295073 0.58988446 28
-13.278067 -7.203402 0.42010623 9
-5.3340955 -3.9918644 0.14607209 37
-11.607758 -7.4377503 0.22090356 6
-13.693863 -7.4289737 0.15771222 12
-5.3289247 -3.9879949 0.028112844 39
-15.350994 -9.8362551 -0.030229786 38
-16.007595 -8.6841822 -0.13731395 35
-5.3060756 -3.9708953 -0.089071244 29
-5.9702196 -3.8254592 -0.13713831 3
-16.006468 -8.6835699 -0.4596768 37
-5.2975836 -3.96454 -0.20597599 34
-15.364038 -9.8446131 -0.67643917 59
-15.975735 -8.6668978 -0.78083533 81
-5.3002424 -3.9665296 -0.32319856 38
-15.334767 -9.8258581 -0.99752325 56
-15.99274 -8.6761227 -1.1032664 50
-5.2948456 -3.962491 -0.44007134 40
-15.966149 -8.6616974 -1.4231843 39
-5.287828 -3.9572392 -0.55634582 35
-15.941726 -8.648448 -1.7418782 36
-5.2791924 -3.9507766 -0.67221797 40
-7.2347355 -4.6357064 -1.0790874 5
-7.1845098 -4.6035242 -1.2226112 2
-7.1222043 -4.5636015 -1.3632188 1
-7.1478863 -4.5800571 -1.6697006 0
-7.2151628 -4.6231651 -1.8372467 0
-7.6538568 -4.9042616 -2.1101921 2
-7.0284572 -4.5035319 -2.0851383 6
-4.8535504 -3.1099458 -1.9830537 5
-3.4494131 -2.2102351 -1.9096626 8
-2.2503612 -1.419872 0.70238298 9
-3.1819639 -2.0076694 0.72704357 12
-5.2934494 -3.3399172 0.87564152 26
-6.1473055 -3.8786602 0.63106769 14
-9.6758623 -6.1050138 0.58857852 9
-15.04539 -9.4929323 0.60040843 30
-11.571187 -6.1732488 0.36472961 0
-5.3296499 -3.9307914 0.14519531 37
-11.791316 -7.439765 0.2234029 6
-13.950074 -7.442389 0.1600607 12
-5.3244452 -3.9269526 0.027943896 38
-15.412522 -9.724576 -0.030216523 32
-16.050186 -8.5628023 -0.13716316 36
-5.3014798 -3.9100151 -0.0885337 30
-15.406281 -9.7206373 -0.35232094 51
-16.038475 -8.5565548 -0.45886931 35
-5.2929564 -3.9037285 -0.20473142 36
-15.408727 -9.7221813 -0.67540187 58
-16.035852 -8.5551548 -0.78083533 46
-5.3085127 -3.9152019 -0.32202828 38
-15.372589 -9.6993799 -0.99555445 52
-16.024738 -8.5492258 -1.1013296 52
-5.2966833 -3.9064775 -0.43794668 42
-7.7232294 -4.8729939 -0.66180319 0
-15.991048 -8.5312519 -1.4200599 37
-5.2864556 -3.8989341 -0.55332404 36
-7.675139 -4.8426514 -0.81824154 0
-15.970098 -8.5200748 -1.7384365 40
-5.2746196 -3.8902044 -0.66816115 41
-7.4667573 -4.7111726 -0.95225453 0
-7.3609061 -4.6443849 -1.0930433 5
-7.3202834 -4.6187539 -1.2401986 4
-7.2273674 -4.5601282 -1.3772202 3
-7.2495666 -4.5741353 -1.5330782 3
-7.2759476 -4.5907803 -1.6920868 3
-7.3961101 -4.6665974 -1.874981 0
-7.6879082 -4.850708 -2.1101921 2
-7.0662904 -4.4584966 -2.0870771 6
-4.8687458 -3.0719492 -1.9804513 5
-3.4739575 -2.1919036 -1.9147326 7
-2.2635043 -1.4061679 0.70340389 6
-3.1858945 -1.9791888 0.72476679 12
-5.2998123 -3.2924283 0.8728705 19
-6.1505389 -3.8209293 0.62864584 13
-15.082966 -9.3700647 0.91348869 21
-15.362585 -9.5437737 0.61039281 27
-15.845324 -8.3119249 0.49761128 33
-5.3343163 -3.8770323 0.14458156 36
-11.97886 -7.4416852 0.22596633 7
-14.203588 -7.4507256 0.16236869 11
-5.3387861 -3.880281 0.027876316 44
-15.687301 -9.7454977 -0.030621089 30
-16.088322 -8.439394 -0.1369822 39
-5.3318815 -3.8752625 -0.088587455 34
-15.528121 -9.6466103 -0.35355851 24
-16.076572 -8.4332314 -0.45826367 36
-5.3103762 -3.8596323 -0.20435806 41
-15.652786 -9.7240562 -0.6831072 34
-16.070414 -8.4300003 -0.77963352 43
-5.3130922 -3.8616064 -0.32066292 42
-15.657059 -9.7267103 -1.0095547 40
-16.059282 -8.424161 -1.0996348 51
-5.2979965 -3.8506346 -0.43582201 50
-7.8824492 -4.896852 -0.67250073 0
-16.043154 -8.4157 -1.419435 36
-5.3038716 -3.8549049 -0.55231678 40
-7.729064 -4.8015642 -0.82039666 0
-16.022139 -8.4046764 -1.7376716 39
-5.3113046 -3.8603072 -0.66937822 35
-7.7055321 -4.7869453 -0.97842008 0
-7.4673176 -4.638958 -1.1040087 9
-7.4397984 -4.6218624 -1.2549495 3
-7.3630147 -4.5741615 -1.3969493 3
-7.3716292 -4.5795131 -1.5520921 3
-7.4145026 -4.6061478 -1.7167889 1
-8.4883013 -5.2732286 -2.1424761 2
-7.7315145 -4.8030863 -2.1129055 2
-7.0972447 -4.4090557 -2.0870771 7
-4.8868604 -3.0358882 -1.9791501 4
-3.4799366 -2.1618581 -1.9096626 7
-2.2732661 -1.3903311 0.70340389 7
-3.1761813 -1.942555 0.71945435 12
-5.3057714 -3.2450137 0.87009948 18
-6.1498675 -3.7612636 0.62587804 10
-15.117342 -9.2457781 0.91163909 20
-15.493637 -9.4759197 0.61295635 37
-15.899412 -8.1992693 0.49750009 36
-5.3612533 -3.8396974 0.14458156 37
-12.214766 -7.4705596 0.22942697 6
-14.550316 -7.5035453 0.16572943 11
-5.3722501 -3.847573 0.027910106 28
-15.731066 -9.6211319 -0.030574663 30
-16.136181 -8.3213701 -0.13689172 35
-5.3880711 -3.8589039 -0.089071244 20
-15.714499 -9.6110001 -0.35626569 76
-16.110178 -8.3079605 -0.45755708 36
-5.3924499 -3.86204 -0.20647381 25
-15.699829 -9.6020279 -0.68221813 45
-16.118219 -8.3121071 -0.77911848 42
-5.3464179 -3.8290722 -0.321053 28
-15.704138 -9.6046629 -1.0082422 41
-16.099958 -8.3026905 -1.0984243 48
-5.3571982 -3.8367932 -0.43847784 29
-7.998126 -4.8916602 -0.67943966 0
-16.08025 -8.2925262 -1.4175603 39
-5.3792629 -3.8525956 -0.55735308 27
-7.8201728 -4.7828236 -0.82650298 0
-16.055651 -8.2798414 -1.7349948 36
-5.3898892 -3.8602061 -0.67586917 31
-7.7387633 -4.7330332 -0.97842008 1
