# .PCD v0.7 - Point Cloud Data file format
VERSION 0.7
FIELDS x y z intensity
SIZE 4 4 4 4
TYPE F F F F
COUNT 1 1 1 1
WIDTH 1368
HEIGHT 1
VIEWPOINT 0 0 0 1 0 0 0
POINTS 1368
DATA ascii
2.4716165 -3.7986946 -0.0075143371 30
2.0941279 -3.7966378 -0.032692362 35
8.8598232 -11.668156 -0.19690283 26
2.4689765 -3.7946374 -0.087558128 43
2.0935204 -3.7955363 -0.10941802 41
8.8805113 -11.695401 -0.45712981 31
2.4677432 -3.7927418 -0.16773912 46
2.099978 -3.8072438 -0.18679614 45
8.8307543 -11.629872 -0.71290934 15
2.4679208 -3.7930148 -0.24784952 41
2.096133 -3.8002727 -0.26316667 39
8.8531399 -11.659353 -0.97415912 38
2.4629791 -3.7854197 -0.32728752 41
2.0916409 -3.7921288 -0.33931464 37
8.892025 -11.710564 -1.2385998 33
2.4659798 -3.7900317 -0.407684 48
2.0884411 -3.7863276 -0.41529742 39
8.9208202 -11.748487 -1.5038697 32
2.4638741 -3.7867954 -0.4872798 52
2.4588501 -3.779074 -0.56620938 43
2.4574296 -3.7768908 -0.64562947 42
2.4724405 -3.7999613 -0.73061401 41
2.4587831 -3.7789707 -0.80632734 47
2.4572649 -3.7766376 -0.88618416 39
2.4614925 -3.7831352 -0.96767807 34
2.4522254 -3.7688923 -1.0437897 31
2.4572017 -3.7765403 -1.1254512 40
2.4547684 -3.7728004 -1.5484475 30
2.07213 -3.1847131 -1.7710854 6
2.1136777 -3.2987192 1.0341773 22
2.4366498 -3.8027668 0.87275583 35
2.4364192 -3.802407 0.63179201 32
2.4272776 -3.7881398 0.39061153 30
2.4331908 -3.7973683 0.23201996 32
2.4328651 -3.79686 0.15219343 29
2.0687375 -3.8133144 0.12064989 39
8.7864161 -11.740772 0.32151639 26
2.4231493 -3.781697 0.071968287 27
2.0579875 -3.7934988 0.043689728 37
8.824399 -11.791526 0.062206421 34
2.4299312 -3.7922812 -0.0074679111 31
2.0580344 -3.7935855 -0.032541566 43
8.8548346 -11.832196 -0.19862296 27
2.4294798 -3.7915769 -0.087094039 42
2.0574374 -3.792485 -0.10891332 41
8.877697 -11.862746 -0.46123686 32
2.4368927 -3.8031456 -0.16744277 45
2.0638189 -3.8042479 -0.1859377 42
8.8259497 -11.793598 -0.71915096 33
2.4284525 -3.7899737 -0.246537 39
2.0657432 -3.807795 -0.26268247 42
8.8623981 -11.842303 -0.98425132 37
2.4257309 -3.7857261 -0.32584193 41
2.0575094 -3.7926178 -0.33806485 41
8.8960285 -11.88724 -1.2506869 27
2.4265654 -3.7870283 -0.40552881 44
2.0524633 -3.7833159 -0.41338536 38
8.9291859 -11.931546 -1.5192857 28
2.4266503 -3.7871609 -0.48513508 50
2.4238434 -3.7827802 -0.56421572 43
2.4139135 -3.7672832 -0.64109081 39
2.4202859 -3.7772286 -0.72297692 43
2.4259691 -3.7860978 -0.80421466 40
2.4223702 -3.7804813 -0.8830964 39
2.4244719 -3.783761 -0.96348536 34
2.41114 -3.7629547 -1.0374583 32
2.4224024 -3.7805316 -1.1215737 42
2.4202077 -3.7771065 -1.5432426 30
2.034199 -3.1746805 -1.7575656 6
2.0988519 -3.3264785 1.0382609 20
2.3995636 -3.8030777 0.86896122 38
2.3929031 -3.7925215 0.62735838 34
2.3901398 -3.788142 0.38888165 30
2.3980944 -3.8007491 0.23119792 26
2.3998992 -3.8036096 0.15178865 29
2.0288908 -3.8029697 0.1198715 36
8.7968092 -11.927344 0.32493585 29
2.3924208 -3.7917569 0.071840122 25
2.0258057 -3.7971871 0.043568257 41
8.8249617 -11.965515 0.06279774 34
2.3969934 -3.7990041 -0.0074480143 27
2.0296173 -3.8043315 -0.032511409 39
8.8479834 -11.99673 -0.2003431 24
2.3944144 -3.7949166 -0.086784653 42
2.0252643 -3.7961724 -0.1086105 42
8.8824673 -12.043486 -0.46584177 29
2.4017503 -3.8065434 -0.16685005 48
2.0296857 -3.8044598 -0.18525095 50
8.8287706 -11.970679 -0.72617275 30
2.3912783 -3.7899461 -0.24544322 40
2.0297127 -3.8045104 -0.26147196 40
8.8600531 -12.013095 -0.99328113 37
2.3907268 -3.7890723 -0.32468542 42
2.0215967 -3.7892976 -0.33650264 41
8.8861647 -12.048498 -1.2610953 18
2.3979421 -3.8005075 -0.40516964 46
2.0222526 -3.7905269 -0.41262054 46
8.8905478 -12.054442 -1.5269936 4
2.3895411 -3.7871931 -0.48299035 48
2.3889043 -3.7861836 -0.562222 44
2.3833284 -3.7773464 -0.63995612 38
2.3875353 -3.784014 -0.72106767 42
2.3847704 -3.7796316 -0.79928517 45
2.3875413 -3.7840233 -0.8800087 42
2.3854749 -3.7807484 -0.95845407 36
2.3827317 -3.7764006 -1.0365537 35
2.3773131 -3.767813 -1.1128492 40
2.3857062 -3.7811148 -1.5380378 32
2.0216591 -3.2041354 -1.7660154 6
2.0755775 -3.3410504 1.0382609 18
2.3543026 -3.7897129 0.86213094 39
2.3600967 -3.7990398 0.62569577 34
2.353121 -3.7878108 0.38715175 29
2.3588538 -3.797039 0.22996487 27
2.3648479 -3.8066878 0.15124896 29
1.9985776 -3.8099592 0.1196491 36
8.7932653 -12.098453 0.32791692 27
2.3532279 -3.7879829 0.071455605 26
1.9973897 -3.8076947 0.043527763 41
8.8047066 -12.114194 0.063253894 5
2.3493049 -3.7816684 -0.0073816921 28
2.0011516 -3.8148661 -0.032481249 46
2.3615313 -3.8013489 -0.086552605 43
2.0024288 -3.8173008 -0.10881238 43
2.3645704 -3.806241 -0.16610916 47
1.9956514 -3.8043807 -0.1845642 55
8.8131027 -12.125746 -0.73182923 2
2.3563304 -3.7929771 -0.2445682 45
1.9956847 -3.8044446 -0.26050353 49
2.3579001 -3.7955039 -0.32381806 43
2.0043564 -3.8209753 -0.33806485 47
2.362942 -3.8036196 -0.40373287 47
2.006839 -3.8257082 -0.414915 38
9.4565792 -13.01109 -1.6397737 1
2.3567474 -3.7936485 -0.48170352 51
2.3498476 -3.7825418 -0.55923146 43
2.3485415 -3.7804396 -0.63768679 42
2.3568919 -3.7938809 -0.71979481 46
2.350014 -3.7828095 -0.79646832 46
2.3507099 -3.7839298 -0.876149 42
2.3487027 -3.7806988 -0.95426136 36
2.3480849 -3.7797043 -1.0329359 36
2.3489029 -3.7810211 -1.1118799 43
2.3432829 -3.7719746 -1.5276281 32
1.9973277 -3.2150917 -1.7643255 7
2.0614493 -3.3679373 1.0423445 22
2.3209152 -3.7918453 0.85909528 41
2.3265762 -3.8010941 0.62347895 32
2.3217063 -3.7931378 0.38611379 28
2.321106 -3.7921567 0.22873181 28
2.3312008 -3.8086498 0.15070927 28
1.9714309 -3.819577 0.1195379 44
13.856668 -19.333391 0.52151066 54
2.3259652 -3.8000956 0.071391523 28
1.9794301 -3.8350754 0.043689728 38
10.99143 -15.335695 0.079692475 2
2.3199959 -3.7903433 -0.0073684272 31
1.9923171 -3.8600433 -0.032752682 24
10.696958 -14.924834 -0.24678701 0
2.3300042 -3.8066947 -0.086320564 43
1.9880712 -3.8518171 -0.10941802 24
10.639175 -14.844214 -0.56851864 6
2.3309271 -3.8082023 -0.16551644 49
1.9758744 -3.8281863 -0.18507926 40
9.1002235 -12.697004 -0.76264721 0
2.3206971 -3.7914889 -0.24347442 46
1.9905522 -3.8566239 -0.26316667 31
8.984004 -12.534851 -1.0262134 1
2.3160136 -3.7838368 -0.32150507 47
1.9972603 -3.8696208 -0.3411893 24
8.9744186 -12.521478 -1.2976925 2
2.3231049 -3.7954226 -0.4012185 48
1.9960313 -3.8672395 -0.41797429 24
9.3863087 -13.096163 -1.6426135 0
2.3190782 -3.7888439 -0.47912988 51
2.3102055 -3.7743478 -0.5557425 45
2.3027461 -3.762161 -0.63201338 42
2.3172467 -3.7858517 -0.71533984 44
2.3166513 -3.784879 -0.79365146 45
2.3153174 -3.7826998 -0.8722893 39
2.3133674 -3.7795136 -0.95006865 37
2.3168628 -3.7852247 -1.0302223 36
2.3055408 -3.766727 -1.1031555 45
2.3103161 -3.7745287 -1.5224231 34
1.9892091 -3.2499132 -1.7761552 6
2.0207474 -3.356451 1.0341773 23
2.2869806 -3.7986629 0.85681856 41
2.2904778 -3.8044715 0.62126213 32
2.2856174 -3.7963984 0.38472989 28
2.289125 -3.8022246 0.22832079 28
2.2908478 -3.8050864 0.14989974 28
1.961457 -3.8695905 0.12064989 23
13.795278 -19.548805 0.52457941 37
2.2836063 -3.7930584 0.070942916 25
1.9729652 -3.8922939 0.044175621 29
10.91562 -15.468144 0.07996279 1
2.2880228 -3.8003943 -0.0073551629 31
1.9820526 -3.9102216 -0.03305427 24
2.6496992 -3.7547963 -0.061763946 0
2.2875981 -3.7996886 -0.085779123 42
1.9887092 -3.9233539 -0.11103304 23
2.6624866 -3.7729168 -0.1437476 7
2.2947023 -3.8114886 -0.16492371 49
1.9730549 -3.8924708 -0.18748289 26
2.6490898 -3.7539325 -0.224308 0
2.2846017 -3.7947118 -0.2425994 45
1.9838904 -3.9138472 -0.26607192 29
2.6740069 -3.7892418 -0.30860767 0
2.2799833 -3.7870407 -0.32034859 45
1.9994916 -3.9446254 -0.34650087 24
2.6727612 -3.7874763 -0.3904829 17
2.2849464 -3.7952845 -0.39942256 50
1.991032 -3.9279363 -0.42294562 22
2.6500411 -3.7552805 -0.46856475 27
2.2850885 -3.7955203 -0.47784305 52
2.2742879 -3.7775807 -0.55374879 43
2.2771485 -3.7823322 -0.63258076 44
2.2833223 -3.7925866 -0.71343058 44
2.2786899 -3.7848923 -0.79013038 47
2.2733562 -3.7760329 -0.86688572 40
2.2795484 -3.7863181 -0.94755304 35
2.2769954 -3.7820776 -1.0247953 35
2.275866 -3.7802017 -1.1021861 42
2.27088 -3.77192 -1.5146159 33
1.9447629 -3.2302413 -1.7575656 6
2.020926 -3.4104025 1.0464281 22
2.2543995 -3.8043997 0.85454178 38
2.2557845 -3.8067367 0.61904532 30
2.2468696 -3.7916923 0.38265401 30
2.2462339 -3.7906196 0.22667672 34
2.2581146 -3.8106687 0.14949496 29
1.9575715 -3.9297163 0.12209547 22
2.6481395 -3.8087544 0.10170685 5
2.2570713 -3.808908 0.070942916 25
1.9724956 -3.9596758 0.044782985 27
2.6441853 -3.8030674 0.019564105 33
2.2512405 -3.7990685 -0.0073220017 29
1.9921591 -3.9991491 -0.03368761 22
2.630271 -3.7830548 -0.06192521 12
2.2508225 -3.7983632 -0.085392386 41
2.0004961 -4.0158854 -0.11325371 20
2.62467 -3.7749991 -0.14312531 50
2.2578492 -3.8102212 -0.16418283 46
1.968997 -3.9526525 -0.18971483 26
2.6205373 -3.7690549 -0.22411294 27
2.241766 -3.7830796 -0.24084936 42
1.9850026 -3.9847829 -0.26994556 28
2.6155903 -3.76194 -0.3048895 30
2.2473888 -3.7925684 -0.31948122 39
1.9932411 -4.0013208 -0.35025018 24
2.6166747 -3.7634995 -0.38611811 60
2.2482412 -3.7940071 -0.39762658 49
2.0026195 -4.0201478 -0.43135864 23
2.6351175 -3.7900257 -0.47059315 45
2.248399 -3.7942734 -0.47569832 51
2.2357213 -3.7728791 -0.55075824 44
2.2325215 -3.7674794 -0.62747473 42
2.2467244 -3.7914474 -0.71024847 42
2.2261167 -3.7566707 -0.78097552 48
2.234935 -3.7715526 -0.86225408 39
2.2470787 -3.7920451 -0.94503742 34
2.2386189 -3.7777689 -1.0193684 38
2.2395287 -3.7793045 -1.0973392 40
2.232923 -3.768157 -1.5068085 31
1.936951 -3.2686911 -1.7710854 6
1.9912226 -3.4144058 1.0433654 23
2.2159138 -3.79969 0.84998828 39
2.2191749 -3.8052821 0.6162743 36
2.2123134 -3.7935164 0.38127008 27
2.2156906 -3.7993073 0.2262657 31
2.2173581 -3.8021669 0.1485505 30
1.9582154 -4.0007482 0.12387463 22
2.5943658 -3.7875581 0.10065471 38
2.2183359 -3.8038433 0.070558406 27
1.971181 -4.0272374 0.045390349 26
2.5972264 -3.7917345 0.019412054 46
2.2145875 -3.797416 -0.0072888406 28
1.9870521 -4.0596628 -0.034079678 23
2.5902345 -3.7815268 -0.061602686 33
2.2121615 -3.793256 -0.084928297 40
1.9882336 -4.062077 -0.11416216 21
2.5914736 -3.7833357 -0.14275195 40
2.2191114 -3.8051734 -0.16329375 50
1.9747359 -4.0345001 -0.19297689 26
2.5873868 -3.7773695 -0.22352779 40
2.209264 -3.7882876 -0.2401931 44
1.9852206 -4.0559211 -0.27381924 27
2.5892632 -3.7801087 -0.3048895 48
2.2087977 -3.787488 -0.31774646 48
2.0038278 -4.0939369 -0.35712397 22
2.5903366 -3.7816756 -0.38611811 39
2.2116642 -3.7924035 -0.39583063 50
2.0077643 -4.1019793 -0.43862444 24
2.6018476 -3.7984807 -0.46937612 42
2.2078307 -3.7858298 -0.47269571 48
2.2053282 -3.781539 -0.54976141 44
2.2041702 -3.7795529 -0.62690735 41
2.2162216 -3.8002176 -0.70897561 45
2.2038031 -3.7789237 -0.78238398 47
2.2045956 -3.7802825 -0.86071026 40
2.2087283 -3.787369 -0.94000614 35
2.200413 -3.7731104 -1.0139414 36
2.2052696 -3.7814379 -1.0934616 42
2.2008452 -3.7738519 -1.5029049 31
1.9177369 -3.2883976 -1.7744653 7
1.9885118 -3.4651225 1.0545954 23
2.1815138 -3.8014421 0.84695262 39
2.1886117 -3.8138106 0.61516589 34
2.1778421 -3.7950437 0.37988615 31
2.1851358 -3.8077536 0.22585468 34
2.1847906 -3.807152 0.14814574 31
1.9562277 -4.0683742 0.1255426 24
2.5678613 -3.8055775 0.10065471 39
2.1817727 -3.8018932 0.070237979 29
1.9724835 -4.102181 0.046078693 27
2.5617435 -3.7965107 0.019344473 41
2.1820498 -3.802376 -0.0072689438 34
1.9881284 -4.1347179 -0.034592379 23
2.557061 -3.789571 -0.061441422 32
2.1776636 -3.7947326 -0.084618904 45
1.9910173 -4.1407261 -0.11597906 22
2.5515814 -3.7814503 -0.14200521 41
2.1865237 -3.8101718 -0.1628492 51
1.9811574 -4.1202202 -0.19641066 26
2.5609539 -3.7953403 -0.22352779 39
2.1767991 -3.7932265 -0.23953684 45
1.9880003 -4.1344514 -0.27817708 28
2.5494163 -3.7782419 -0.303296 46
2.1763451 -3.7924352 -0.31687909 48
1.9924788 -4.1437659 -0.36024842 21
2.5504966 -3.7798426 -0.38410357 41
2.1791859 -3.7973852 -0.39475304 50
2.001509 -4.1625452 -0.44359577 24
2.5530088 -3.7835658 -0.46531928 49
2.177388 -3.7942524 -0.47183785 53
2.1709728 -3.7830734 -0.5477677 45
2.1659055 -3.7742434 -0.62350333 40
2.1798091 -3.7984715 -0.7057935 46
2.171488 -3.7839713 -0.78027135 45
2.1703365 -3.7819648 -0.8576225 41
2.1763935 -3.7925196 -0.93749052 35
2.1643212 -3.7714827 -1.0094188 37
2.1691585 -3.7799118 -1.0886148 43
2.1650319 -3.7727213 -1.4963988 32
1.8947327 -3.3017058 -1.7744653 7
1.9807081 -3.5051715 1.0627626 23
2.1504574 -3.8055696 0.84467584 38
2.151576 -3.807549 0.61184067 34
2.1428218 -3.792057 0.37815624 31
2.1480422 -3.8012953 0.22462162 29
2.1516254 -3.8076365 0.14760603 30
1.9667951 -4.1607871 0.12798896 23
2.5270619 -3.7992165 0.10004096 38
2.1506066 -3.8058336 0.070045717 30
1.9708734 -4.169415 0.046686057 29
2.5276468 -3.8000956 0.019276895 43
2.1410403 -3.7889047 -0.0072158859 32
1.9897215 -4.2092886 -0.035105083 21
2.5207958 -3.7897956 -0.061172649 32
2.144578 -3.7951648 -0.084309511 46
2.0028157 -4.2369895 -0.11830066 23
2.5153744 -3.7816451 -0.14138292 41
2.1533394 -3.8106697 -0.16225649 50
1.9759895 -4.1802382 -0.1986426 24
2.520237 -3.7889557 -0.22216244 42
2.1496286 -3.8041029 -0.23931807 45
1.9912491 -4.2125201 -0.28253496 28
2.5088294 -3.771805 -0.30143693 46
2.1393685 -3.7859459 -0.31514436 48
1.9888113 -4.2073627 -0.36462262 20
2.5143342 -3.7800813 -0.3824248 44
2.1402333 -3.7874761 -0.39223868 49
2.0095913 -4.2513232 -0.45162636 23
2.5190434 -3.7871611 -0.46369654 48
2.1443496 -3.7947605 -0.47012207 58
2.1419294 -3.790478 -0.54677087 44
2.1349821 -3.7781835 -0.62180132 42
2.1467974 -3.7990925 -0.70324779 44
2.1405325 -3.7880058 -0.77815866 51
2.1394134 -3.786025 -0.85530668 42
2.1377237 -3.7830353 -0.93162072 38
2.1315925 -3.7721851 -1.0058008 35
2.132586 -3.7739434 -1.0827985 41
2.1399627 -3.7869973 -1.4963988 34
1.8603079 -3.2921047 -1.7626355 7
1.9787396 -3.5594773 1.0750135 22
2.1142969 -3.8033261 0.84088129 45
2.1114695 -3.7982397 0.60796124 35
2.1066158 -3.7895088 0.37642637 32
2.1136889 -3.8022325 0.22379959 29
2.1211069 -3.8155761 0.14733618 31
1.9663186 -4.2360721 0.12987933 20
2.4917111 -3.8033857 0.099690251 39
2.1123259 -3.7997806 0.069661207 28
1.9753984 -4.2556324 0.047495876 27
2.4900954 -3.8009198 0.019192422 43
2.1106505 -3.796767 -0.0072026211 34
1.9855481 -4.2774982 -0.035557467 21
2.4811258 -3.7872283 -0.060850121 33
2.1122019 -3.7995577 -0.084077463 46
1.9984411 -4.305274 -0.11981475 20
2.4801486 -3.7857366 -0.14088508 40
2.1169734 -3.8081405 -0.16151559 49
1.9820921 -4.2700529 -0.20224804 23
2.4783981 -3.7830646 -0.22079709 42
2.1094356 -3.7945809 -0.23778678 47
1.9970936 -4.3023705 -0.28761914 27
2.4780614 -3.7825508 -0.30090576 49
2.1090095 -3.7938149 -0.31456611 43
1.9946488 -4.2971039 -0.37118396 21
2.479146 -3.7842062 -0.38108179 41
2.1098692 -3.7953613 -0.39152029 50
2.0117145 -4.333869 -0.45889217 23
2.4794583 -3.7846832 -0.46126243 47
2.1042795 -3.7853062 -0.46711946 51
2.1077023 -3.7914631 -0.54477715 46
2.0970111 -3.7722313 -0.6183973 41
2.1048734 -3.7863743 -0.69815642 47
2.1044703 -3.7856493 -0.77463758 48
2.1033957 -3.7837162 -0.85144699 41
2.1017604 -3.7807746 -0.92742801 37
2.1014204 -3.7801628 -1.0039918 37
2.1043022 -3.785347 -1.0818291 43
2.1006088 -3.778703 -1.4872903 30
1.8478494 -3.324024 -1.7727753 4
1.9668301 -3.5969584 1.0821599 23
2.0801566 -3.8042109 0.83784556 39
2.0753984 -3.7955091 0.60519022 35
2.0762851 -3.7971308 0.37573439 32
2.0755935 -3.795866 0.22256653 35
2.0829096 -3.8092456 0.14652665 31
1.9615706 -4.3042722 0.1315473 20
2.4499211 -3.7971663 0.099076502 35
2.0761528 -3.7968888 0.069340773 27
1.9754978 -4.3348331 0.048224714 26
2.4504879 -3.7980447 0.019091053 41
2.0744975 -3.7938616 -0.0071694599 30
1.9904715 -4.3676896 -0.036190808 17
2.4437833 -3.7876534 -0.060581349 31
2.0702751 -3.7861397 -0.083458677 45
8.825181 -19.365086 -0.53719807 10
2.4428208 -3.7861614 -0.14026281 39
2.0769119 -3.7982771 -0.16047834 50
1.9787503 -4.34197 -0.20499504 21
2.4410965 -3.7834892 -0.21982184 42
2.0733118 -3.7916932 -0.23669301 43
1.9868786 -4.3598061 -0.29052439 15
2.4429386 -3.7863441 -0.29984343 46
2.0690739 -3.7839432 -0.31254226 43
8.9052029 -19.540678 -1.6825132 8
2.4440229 -3.7880247 -0.37973875 38
2.0794983 -3.8030074 -0.39080191 48
2.4443462 -3.7885258 -0.4596397 44
2.0739858 -3.7929261 -0.46626157 49
2.071661 -3.7886741 -0.54228503 42
2.0687251 -3.7833052 -0.61782998 40
2.0727041 -3.7905819 -0.69624716 43
2.0666556 -3.7795205 -0.77041233 45
2.07128 -3.7879775 -0.84913117 41
2.0659323 -3.7781975 -0.9232353 35
2.0656319 -3.7776482 -0.9994694 36
2.0666533 -3.779516 -1.0760128 41
2.0669184 -3.7800007 -1.4820855 24
1.8263377 -3.3400245 -1.7744653 6
1.9495633 -3.6283138 1.0872643 23
2.0429199 -3.8020587 0.83405101 40
2.0418952 -3.8001518 0.60352761 32
2.0370779 -3.7911863 0.37365851 29
2.0344775 -3.7863467 0.22112796 33
2.0492539 -3.8138473 0.14612187 29
1.9609629 -4.3878951 0.13366006 1
2.4091606 -3.7947662 0.098550431 35
2.0369065 -3.7908671 0.068956263 27
8.8729868 -19.854399 0.22014926 22
2.4075742 -3.7922676 0.01897279 42
2.0390582 -3.7948718 -0.0071429312 29
18.993229 -42.49968 -0.3509905 28
2.4073782 -3.7919588 -0.060366329 32
2.0443587 -3.8047366 -0.083536029 48
8.7613039 -19.604492 -0.54204315 14
2.4085727 -3.7938404 -0.13988943 39
2.0433373 -3.8028359 -0.16003379 48
8.6907959 -19.446724 -0.91509509 15
2.4047315 -3.7877898 -0.21904163 40
2.0379 -3.7927163 -0.235818 45
8.7235909 -19.520107 -1.296465 3
2.4044223 -3.7873027 -0.2985155 45
2.0393925 -3.7954938 -0.31225312 43
8.9130392 -19.944021 -1.7115705 1
2.4076445 -3.7923782 -0.37839574 40
2.0421371 -3.800602 -0.38900596 47
7.4632835 -16.700014 -1.7567922 1
2.4058452 -3.7895441 -0.45761126 43
2.042362 -3.8010204 -0.46540368 49
2.0363188 -3.7897739 -0.54029137 42
2.0296917 -3.7774401 -0.61442596 44
2.0373857 -3.7917593 -0.69370145 45
2.0351677 -3.7876313 -0.76900387 48
2.0304534 -3.7788577 -0.84372759 43
2.0400324 -3.7966852 -0.92407387 41
2.0323522 -3.7823915 -0.9967559 33
2.0278716 -3.7740526 -1.0701965 39
2.0463154 -3.8083782 -1.4872903 32
1.8086691 -3.366097 -1.7812251 6
1.9585135 -3.7068076 1.1066616 23
2.0126574 -3.8092837 0.83253318 42
2.0097635 -3.8038068 0.60186499 29
2.0068374 -3.7982686 0.37296656 31
2.0005295 -3.78633 0.22030592 37
2.0151081 -3.8139219 0.14558218 27
14.115788 -32.187183 0.97743088 25
2.3677719 -3.787755 0.097936682 38
2.0141282 -3.8120677 0.069084436 28
18.788807 -42.842724 0.47358209 15
2.37256 -3.7954149 0.018905211 43
2.0069096 -3.7984052 -0.0071230344 33
25.796644 -58.822174 -0.48429331 27
2.3660069 -3.7849317 -0.059990048 34
2.0102737 -3.8047721 -0.083226636 47
9.9957495 -22.792566 -0.62824517 25
2.3714328 -3.7936115 -0.13926715 38
2.0148714 -3.8134742 -0.15988562 54
8.7008791 -19.839968 -0.93071866 2
2.3676412 -3.7875459 -0.21806638 38
2.0076404 -3.7997885 -0.23538049 52
8.7185946 -19.880365 -1.3163176 0
2.3694615 -3.790458 -0.29745317 44
2.0128453 -3.8096392 -0.31225312 52
9.0907049 -20.728861 -1.7734345 3
2.3726594 -3.7955737 -0.37705272 39
2.0081098 -3.8006768 -0.38756919 48
7.35291 -16.766294 -1.7583218 1
2.3687847 -3.7893753 -0.45558286 44
2.0046289 -3.7940886 -0.46283001 56
2.0079577 -3.8003888 -0.53979295 47
2.0069704 -3.7985203 -0.61556059 40
2.007175 -3.7989073 -0.69242859 44
2.0086753 -3.8017471 -0.76900387 51
2.0168571 -3.8172324 -0.84913117 36
2.0280938 -3.8385 -0.9307822 24
2.009537 -3.8033779 -0.9985649 38
2.0123518 -3.8087053 -1.0760128 34
2.028513 -3.839293 -1.4937963 19
1.7817379 -3.3722308 -1.7778451 6
1.9379367 -3.7306859 1.1097243 26
1.9751529 -3.80233 0.82797968 38
1.9813336 -3.8142288 0.60131079 36
1.9839466 -3.8192587 0.37365851 30
1.9722065 -3.7966583 0.22010042 35
1.984748 -3.8208015 0.14531234 32
13.930242 -32.376766 0.98021084 22
2.3328865 -3.79057 0.097585969 39
1.9837794 -3.8189371 0.068956263 30
20.372005 -47.348763 0.52180678 2
2.3355229 -3.7948537 0.018820737 44
1.9858751 -3.8229713 -0.0071429312 29
24.971176 -58.038189 -0.47639164 19
2.33114 -3.7877326 -0.059775028 33
1.9818194 -3.8151639 -0.083149284 46
2.3302219 -3.7862406 -0.13839595 42
1.9900427 -3.8309944 -0.16003379 49
9.7514772 -22.664454 -1.0599995 36
2.3306713 -3.7869706 -0.21709113 38
1.9902705 -3.8314328 -0.23647426 35
9.7473116 -22.654772 -1.4954742 3
2.3324821 -3.7899129 -0.29612526 43
1.9990742 -3.8483808 -0.31427699 27
9.048213 -21.029922 -1.7937434 1
2.3314795 -3.7882841 -0.37470242 42
1.9833642 -3.8181379 -0.38792837 50
7.2529902 -16.857452 -1.7625283 1
2.3381009 -3.7990427 -0.45477149 45
1.9909259 -3.8326945 -0.46583262 35
2.0015028 -3.8530557 -0.54527557 27
2.0059571 -3.8616309 -0.62350333 21
1.9933482 -3.8373578 -0.69688356 25
2.0074973 -3.8645961 -0.77886289 27
2.0118704 -3.8730142 -0.85839444 24
2.0192769 -3.8872724 -0.93916762 24
2.0026939 -3.8553488 -1.0085144 25
2.0089698 -3.8674307 -1.0886148 30
2.0313025 -3.9104226 -1.5159171 17
1.7614951 -3.3910215 -1.7812251 8
1.915362 -3.7510135 1.1117661 27
1.9521316 -3.8230224 0.82949752 44
1.9528557 -3.8244402 0.60075659 29
1.9681083 -3.8543108 0.37573439 19
1.9547362 -3.8281231 0.22112796 29
1.9634794 -3.8452456 0.14571711 22
13.719417 -32.510071 0.98132282 25
2.2960052 -3.7896628 0.097147577 37
1.9770772 -3.8718753 0.069661207 16
19.68483 -46.645947 0.51253438 2
2.2965367 -3.79054 0.01871937 41
1.9918807 -3.9008663 -0.0072623114 17
24.285456 -57.547771 -0.47096303 32
2.2963498 -3.7902312 -0.059560012 34
1.9605926 -3.8395925 -0.083381332 28
2.2933736 -3.7853189 -0.13777366 39
1.981427 -3.880394 -0.16151559 27
9.5603838 -22.654661 -1.056394 40
2.300036 -3.7963157 -0.21670103 39
1.9852698 -3.8879197 -0.23909932 24
9.5532103 -22.637663 -1.4899058 15
2.2914896 -3.7822094 -0.29426616 50
1.9957449 -3.9084339 -0.3180356 24
8.9352865 -21.173407 -1.8006172 1
2.2946484 -3.7874234 -0.37302366 40
1.9802128 -3.8780162 -0.39259788 28
7.1567998 -16.959036 -1.7678821 1
2.2970872 -3.7914486 -0.45193172 45
1.9966748 -3.910255 -0.4735536 32
2.0088475 -3.9340937 -0.55474561 26
2.0113611 -3.9390166 -0.63371539 26
1.9952443 -3.9074535 -0.70706636 26
1.9894218 -3.8960509 -0.78238398 26
2.0008466 -3.9184248 -0.86534184 26
2.0223262 -3.9604905 -0.95342284 24
2.0023091 -3.921289 -1.0220819 23
2.0119236 -3.9401178 -1.1050942 31
2.0280349 -3.9716699 -1.5341341 18
1.7427247 -3.4129231 -1.7862951 6
1.8939139 -3.770546 1.1138079 28
1.9408357 -3.8639615 0.83556885 22
1.9558973 -3.8939474 0.60962385 18
1.9746983 -3.9313776 0.38196203 20
1.9544064 -3.8909791 0.22400509 19
1.9666437 -3.9153421 0.14787588 21
13.54023 -32.688999 0.98399156 29
2.2667217 -3.7979395 0.09697222 40
1.980077 -3.942086 0.070686579 15
19.052069 -45.995754 0.50399077 3
2.267246 -3.7988181 0.018685579 42
1.9893055 -3.9604588 -0.0073485309 17
23.976734 -57.884945 -0.47241068 30
2.2629621 -3.7916403 -0.059344992 31
1.9656004 -3.9132648 -0.084696248 25
9.7690935 -23.584675 -0.64439541 0
2.2579727 -3.7832806 -0.13715139 43
1.9807659 -3.9434576 -0.1635901 26
2.2666168 -3.7977638 -0.21592084 39
1.9917094 -3.9652443 -0.24303691 23
9.3799467 -22.645191 -1.4862744 21
2.2581728 -3.7836154 -0.29320383 47
2.0073841 -3.9964511 -0.32410717 20
8.8160315 -21.283779 -1.8049914 1
2.2572222 -3.782023 -0.37100914 41
1.9884239 -3.9587038 -0.39942256 27
7.0685482 -17.064983 -1.7740006 1
2.2576151 -3.782681 -0.44909191 45
1.9974726 -3.9767184 -0.47998777 31
2.0058696 -3.9934359 -0.56122518 26
2.0047421 -3.9911911 -0.63995612 24
2.0029633 -3.9876499 -0.71915841 24
2.0077224 -3.9971242 -0.7999894 30
2.0135708 -4.0087681 -0.88232446 23
2.0205917 -4.0227461 -0.96516246 22
2.0007427 -3.9832287 -1.0347449 21
2.0118756 -4.005393 -1.119635 31
2.0288131 -4.0391135 -1.5549536 19
1.7135416 -3.4114473 -1.7795352 7
1.8662237 -3.7843277 1.1138079 26
1.9385146 -3.9309192 0.84695262 17
1.9588383 -3.9721317 0.61959952 20
1.9687396 -3.9922097 0.38645977 18
1.9505672 -3.9553597 0.22688222 20
1.9679486 -3.9906056 0.15016958 19
13.324293 -32.846661 0.98577076 31
2.2307248 -3.8006573 0.096621506 40
1.9723543 -3.9995394 0.071455605 15
18.395645 -45.348412 0.49540669 4
2.2292161 -3.7980869 0.018601106 42
2.0009112 -4.057447 -0.0075010723 16
23.741222 -58.526173 -0.47621071 30
2.2249858 -3.7908792 -0.05907622 34
1.9598567 -3.9741969 -0.085701779 25
9.8439636 -24.267052 -0.66105038 6
2.2241094 -3.789386 -0.13677801 41
1.978325 -4.0116467 -0.16581279 27
9.2897148 -22.900736 -1.0617163 6
2.2265844 -3.7936029 -0.21475053 43
1.9908533 -4.0370517 -0.246537 23
9.1926861 -22.661543 -1.4828849 6
2.2182562 -3.7794135 -0.29161033 50
1.9974445 -4.0504174 -0.32728752 22
8.6657734 -21.362614 -1.8062412 1
2.2233865 -3.7881544 -0.37000188 45
1.978734 -4.012476 -0.40337366 26
6.9687114 -17.179064 -1.7805016 1
2.2278128 -3.7956955 -0.44868624 47
1.9893757 -4.0340557 -0.48513508 33
2.0081391 -4.072104 -0.57019675 25
2.0034518 -4.0625992 -0.64903349 24
1.9963846 -4.0482678 -0.72743189 24
2.0097156 -4.0753007 -0.81266528 28
2.015377 -4.086781 -0.89621937 23
2.0273762 -4.1111131 -0.98277181 22
2.0059569 -4.0676789 -1.0528347 22
2.0133562 -4.0826831 -1.1370838 30
2.0326092 -4.1217241 -1.5809779 17
1.686885 -3.420665 -1.7778451 6
1.8532492 -3.8251088 1.1219752 26
1.9332855 -3.990304 0.85681856 20
1.9569687 -4.039186 0.62791258 20
1.9686213 -4.0632372 0.39199546 18
1.9490325 -4.0228057 0.22996487 17
1.9661869 -4.0582123 0.15219343 20
13.125674 -33.016907 0.98810589 27
2.1941359 -3.7988236 0.096183121 35
1.9757732 -4.0779986 0.072609149 14
17.803768 -44.784397 0.48787537 6
2.1946437 -3.7997026 0.018533526 42
1.9899766 -4.1073146 -0.007567395 19
23.398548 -58.857754 -0.47756785 30
2.1924646 -3.7959299 -0.058914959 33
1.9651949 -4.0561652 -0.087171391 25
11.302202 -28.430063 -0.77228528 15
2.191601 -3.7944348 -0.13640465 40
1.9781562 -4.0829172 -0.16818367 24
9.015934 -22.679083 -1.0484964 36
2.1860578 -3.7848375 -0.21338518 41
1.9904841 -4.1083622 -0.25003707 24
9.0106544 -22.665804 -1.4790112 2
2.1878242 -3.7878959 -0.29107916 45
1.9952111 -4.1181188 -0.33162439 19
8.5267353 -21.44853 -1.8084283 1
2.1849246 -3.7828753 -0.36798733 40
1.9819398 -4.0907264 -0.40983915 26
6.8677306 -17.275396 -1.785473 1
2.1893175 -3.7904811 -0.44625214 48
1.9958445 -4.1194258 -0.49371395 30
2.007349 -4.1431713 -0.57817155 25
2.0112958 -4.1513171 -0.66094756 21
1.9973452 -4.1225233 -0.73825109 22
2.0052512 -4.1388412 -0.82252431 27
2.0124662 -4.1537328 -0.90779841 21
2.027616 -4.1850023 -0.99702704 21
2.0012949 -4.1306753 -1.0654978 21
2.0152619 -4.1595035 -1.1545327 26
2.0367687 -4.2038932 -1.6070023 17
1.6629632 -3.4323583 -1.7778451 6
1.8215146 -3.8274763 1.1189125 26
1.9374475 -4.0710816 0.87123799 20
1.9559602 -4.1099815 0.63677984 18
1.9727442 -4.1452489 0.39856908 18
1.9535174 -4.1048484 0.23386954 17
1.9721668 -4.1440358 0.15489189 20
11.384213 -29.229149 0.87234873 9
2.161634 -3.8036184 0.095920086 35
1.9747552 -4.1494746 0.07363452 15
14.575809 -37.423622 0.40656957 3
2.1601579 -3.8010211 0.018465947 45
1.9973514 -4.1969552 -0.007706672 16
14.532593 -37.31266 -0.30192181 19
2.158006 -3.7972345 -0.058699939 35
1.9591721 -4.1167302 -0.088176914 23
11.097643 -28.493372 -0.77188152 12
2.1551805 -3.7922626 -0.13578236 40
1.9805237 -4.1615958 -0.1708509 26
8.8501329 -22.722855 -1.0476379 43
2.1536593 -3.7895861 -0.21280003 40
1.9960814 -4.1942863 -0.25441217 23
8.8290138 -22.668631 -1.4751376 47
2.1534383 -3.7891972 -0.29001683 47
2.0024161 -4.2075973 -0.33769599 22
8.3898144 -21.540979 -1.8112403 1
2.1564925 -3.7945714 -0.36765158 42
1.9858609 -4.1728106 -0.4166638 25
6.7758594 -17.397125 -1.7931211 1
2.1490386 -3.7814553 -0.44341233 46
1.9926726 -4.1871233 -0.50014812 29
2.0005479 -4.2036719 -0.58465105 23
2.0162966 -4.236764 -0.67229432 24
1.997366 -4.1969857 -0.74907029 24
2.0101495 -4.2238474 -0.83660859 28
2.0154645 -4.2350159 -0.92246521 21
2.0319648 -4.2696872 -1.0137979 21
2.0075715 -4.21843 -1.0844922 20
2.0228634 -4.2505627 -1.1758591 26
2.0382538 -4.2829018 -1.6317253 17
1.6342872 -3.434063 -1.7727753 6
1.7898368 -3.8295887 1.1158497 27
1.9389104 -4.148551 0.88489848 20
1.9557335 -4.184546 0.64620131 18
1.9656914 -4.2058525 0.40306681 19
1.9484921 -4.1690521 0.23674667 20
1.9702705 -4.2156496 0.15705067 21
11.137134 -29.195835 0.86901277 11
2.121366 -3.7941833 0.095306337 40
1.9762195 -4.2283788 0.074788064 16
14.144554 -37.079746 0.40175116 35
2.1238089 -3.7985525 0.018381475 50
1.9967941 -4.2724004 -0.0078194207 17
14.156282 -37.110489 -0.29947892 39
2.1216841 -3.7947521 -0.058431167 34
1.9659438 -4.2063923 -0.08980123 25
10.894183 -28.558943 -0.77157873 11
2.1227996 -3.7967474 -0.135409 43
1.9835789 -4.2441249 -0.1736663 24
8.7710495 -22.993181 -1.0572524 69
2.1154521 -3.7836058 -0.21162972 41
1.9921175 -4.2623944 -0.2576935 22
8.7004318 -22.808056 -1.4802217 40
2.1191413 -3.7902043 -0.2889545 49
1.9966415 -4.2720742 -0.34174371 22
8.2648134 -21.66609 -1.8168643 1
2.1241133 -3.7990968 -0.36664432 42
1.9853562 -4.2479277 -0.42277008 26
6.6755304 -17.499807 -1.7988573 1
2.1187024 -3.7894194 -0.44260097 47
2.0004373 -4.2801957 -0.50958484 29
2.0030801 -4.2858505 -0.5941211 22
2.0101404 -4.3009567 -0.68023705 17
1.9981138 -4.2752242 -0.76052588 25
2.0106218 -4.3019867 -0.84928453 25
2.0207474 -4.3236518 -0.93867594 21
2.0319154 -4.3475471 -1.0288917 16
2.0094178 -4.2994103 -1.1016777 20
2.0210731 -4.3243484 -1.1923385 26
2.2020876 -4.7116528 -1.7891725 5
1.6179484 -3.4618111 -1.7812251 6
1.7579415 -3.827317 1.1117661 25
1.9441383 -4.232697 0.90007687 20
1.9626602 -4.2730217 0.6578396 17
1.9793365 -4.309329 0.41171634 18
1.9541461 -4.2544856 0.24085686 17
1.9723029 -4.2940154 0.15947928 21
10.92645 -29.224113 0.8676784 14
2.0922995 -3.8011622 0.09513098 41
1.9831887 -4.3177156 0.076133862 16
13.943143 -37.292625 0.40304685 40
2.0908549 -3.7985375 0.018313896 46
1.9951276 -4.3437085 -0.0079255365 17
13.960271 -37.338436 -0.30056465 39
2.0868273 -3.7912204 -0.058162395 39
1.9680493 -4.2847548 -0.091193497 25
10.69753 -28.611839 -0.77107406 9
2.0879333 -3.7932298 -0.13478671 41
1.9820819 -4.3153062 -0.17603718 27
8.6225586 -23.062077 -1.0577675 9
2.0864596 -3.7905526 -0.21123962 44
1.9904773 -4.3335843 -0.26119357 22
8.5895205 -22.973711 -1.4872427 41
2.0862598 -3.7901895 -0.28789216 49
2.0015681 -4.3577309 -0.34752616 9
8.134902 -21.75778 -1.8199887 1
2.0911827 -3.7991333 -0.36530131 41
1.9920584 -4.3370266 -0.43031314 24
6.5635033 -17.554884 -1.8000045 2
2.0858488 -3.789443 -0.44097823 48
1.9952452 -4.3439646 -0.51559007 27
5.827754 -12.687943 -1.7534548 1
5.1266336 -11.161492 -1.7598794 2
1.996088 -4.3457999 -0.77070868 9
4.1465187 -9.027627 -1.776737 3
3.7629004 -8.1924295 -1.7731403 3
3.4510343 -7.5134478 -1.7726789 3
3.1973467 -6.9611297 -1.7782415 4
2.9723246 -6.471221 -1.778814 5
2.1707902 -4.7261539 -1.7891725 4
1.5934399 -3.4691708 -1.7795352 7
1.7295902 -3.8359704 1.1107452 27
1.9419849 -4.3070302 0.91297847 21
1.9588346 -4.3444004 0.6667068 17
5.2251787 -11.588659 1.1036766 14
1.9506692 -4.3262906 0.24414501 19
1.9702127 -4.3696351 0.16177298 8
10.910413 -29.814108 0.88291252 7
2.0580957 -3.8016093 0.094780266 39
8.9167194 -19.77594 0.34760109 15
13.725064 -37.505505 0.40430206 37
2.0585721 -3.802489 0.018263211 49
8.9605989 -19.873259 -0.03614575 12
10.50744 -28.712929 -0.23053545 5
2.0526919 -3.7916279 -0.057947375 37
1.9611027 -4.3494306 -0.092276372 12
10.487902 -28.65954 -0.77036744 20
2.0518835 -3.7901342 -0.13416442 37
8.7556553 -19.418724 -0.78964823 21
8.5176525 -23.275581 -1.0648067 13
2.0504353 -3.7874594 -0.21026437 41
8.7452736 -19.395699 -1.1653084 9
2.0521476 -3.7906225 -0.28682983 47
8.7928667 -19.501253 -1.5502789 1
8.0280294 -21.937624 -1.8302994 1
2.0551207 -3.796114 -0.36362252 43
6.4517336 -17.630192 -1.8030638 2
2.0536592 -3.7934144 -0.43976119 47
6.6825228 -14.820828 -1.753521 2
5.7422991 -12.735554 -1.7544516 2
5.069747 -11.243935 -1.7672547 3
4.5190024 -10.022467 -1.7718027 2
4.0850129 -9.0599432 -1.7774411 3
3.7072296 -8.2220764 -1.7739122 3
3.3968906 -7.5337915 -1.7718403 4
3.142266 -6.9690728 -1.7746235 5
2.9238858 -6.4847379 -1.7768753 5
2.1408532 -4.7480898 -1.791775 4
1.579614 -3.5033457 -1.7913649 5
1.6980728 -3.8373418 1.1076825 26
2.1963446 -4.9633474 1.0488248 18
3.4080634 -7.7016158 1.1782366 18
4.3797817 -9.8975258 0.93968195 2
7.8158445 -17.662415 0.99363726 5
11.912967 -26.921181 0.9935748 25
11.113102 -31.037701 0.91682792 11
2.0183504 -3.7911751 0.094166517 40
18.835447 -42.564754 0.74582988 10
15.082213 -42.123001 0.4529317 7
2.0206971 -3.7955832 0.018161843 45
26.125 -59.037842 -0.10704448 18
9.7040195 -27.102283 -0.21705437 10
2.0186532 -3.7917438 -0.057732359 35
8.6533117 -19.554941 -0.41358069 9
9.6877251 -27.056776 -0.72544956 40
2.0197368 -3.7937794 -0.13379106 42
8.6991329 -19.658489 -0.79690903 5
8.4505968 -23.601608 -1.0769966 5
2.0220664 -3.7981551 -0.21006931 41
8.7599621 -19.795952 -1.1856526 2
8.5478659 -23.87327 -1.5376003 5
2.018132 -3.7907648 -0.2857675 47
8.7856607 -19.854027 -1.5734088 0
7.8908114 -22.038189 -1.8340487 1
2.0210764 -3.7962956 -0.3622795 47
7.9025741 -17.858408 -1.7607638 1
6.3566804 -17.753525 -1.8110944 1
2.028996 -3.8111715 -0.44016686 49
6.5499229 -14.801659 -1.7458 3
5.6837621 -12.84429 -1.7639216 2
4.9975348 -11.293538 -1.769524 2
4.456912 -10.071827 -1.7749847 2
4.0264435 -9.0990438 -1.7795539 3
3.6465619 -8.2405796 -1.7723683 3
3.3473775 -7.5644765 -1.7735175 4
3.0919595 -6.987277 -1.7737191 4
2.8769722 -6.5014443 -1.7759058 5
2.1015303 -4.749084 -1.7865701 4
1.5492491 -3.5010266 -1.784605 7
1.6637416 -3.8354933 1.1035988 26
2.1880348 -5.044168 1.0624853 25
3.3483634 -7.7191219 1.1771283 20
4.3118691 -9.9403324 0.9407199 2
7.6670861 -17.675255 0.99117118 6
11.67076 -26.905092 0.98979694 36
7.6124396 -21.762072 0.641168 1
1.9867989 -3.7987814 0.09399116 38
19.629084 -45.251747 0.79036951 2
9.490346 -27.130541 0.29096791 34
1.9928199 -3.8102939 0.018161843 47
25.249012 -58.207603 -0.10520072 26
9.4786758 -27.097179 -0.21645118 37
1.9926578 -3.8099837 -0.057786115 35
8.6338711 -19.904024 -0.41961384 3
9.4746065 -27.085545 -0.72433919 33
1.9974315 -3.8191113 -0.13416442 41
9.8512182 -22.710424 -0.91767526 39
9.4926424 -27.137104 -1.2351208 36
1.9904671 -3.8057952 -0.20967922 41
9.8178005 -22.633387 -1.3512502 31
9.4826603 -27.108568 -1.7414516 36
1.9921397 -3.8089933 -0.28603309 49
9.7591677 -22.498219 -1.7772408 1
7.7461696 -22.144373 -1.8381106 1
2.0005829 -3.8251367 -0.36362252 36
7.7825508 -17.941441 -1.7632781 1
6.2552934 -17.882328 -1.8195075 1
2.0120697 -3.8470998 -0.44260097 26
6.4808116 -14.940486 -1.7565236 2
5.6052508 -12.922019 -1.7689059 2
4.9224939 -11.348031 -1.7723607 2
4.3939633 -10.129588 -1.7794397 3
3.9659038 -9.1427641 -1.7823707 3
3.6001143 -8.2994938 -1.7793158 3
3.2933939 -7.5923986 -1.774356 4
3.0406573 -7.0097547 -1.7737191 4
2.8369586 -6.5401592 -1.7807528 5
2.0696721 -4.7713017 -1.7891725 5
1.5293148 -3.5255933 -1.7913649 6
1.6323816 -3.8363388 1.1005361 24
2.1773694 -5.1171412 1.074628 30
3.2773309 -7.7022133 1.1710321 17
4.2111621 -9.8968554 0.93380034 3
7.521606 -17.676889 0.98829401 5
11.459164 -26.930735 0.98777312 19
9.2781887 -27.130264 0.79740125 36
1.9602299 -3.8125591 0.09399116 39
18.982275 -44.611164 0.77684742 3
9.2735338 -27.116655 0.29011762 39
1.9753156 -3.8419001 0.018246315 27
24.450497 -57.462292 -0.10354266 26
9.2711573 -27.109705 -0.21602896 39
1.9842991 -3.8593726 -0.058323659 18
9.2619982 -27.082922 -0.72252232 37
1.9890019 -3.8685193 -0.135409 22
9.664258 -22.712439 -0.91500807 41
9.2758083 -27.123304 -1.2315154 38
1.9675027 -3.8267045 -0.21006931 20
9.6548586 -22.69035 -1.3505939 2
9.2738028 -27.117439 -1.73782 42
1.9837492 -3.8583031 -0.28868893 24
9.6502857 -22.679604 -1.7862035 1
7.6159062 -22.2696 -1.844047 1
1.9938778 -3.8780029 -0.36731583 22
7.6851826 -18.061319 -1.7697436 1
6.136745 -17.944399 -1.8214195 1
2.0051782 -3.8999817 -0.44706351 25
6.387249 -15.010982 -1.7595261 2
5.5257788 -12.9864 -1.7723949 2
4.8586526 -11.418554 -1.7780341 2
4.3262305 -10.167283 -1.7807125 3
3.898895 -9.162981 -1.7809622 3
3.5497689 -8.3424835 -1.7831755 3
3.2494965 -7.6367984 -1.7793872 4
3.0007992 -7.0523233 -1.779146 4
2.7866724 -6.5490928 -1.7778445 5
2.0392735 -4.7925954 -1.791775 5
1.4961472 -3.5161679 -1.7812251 6
1.5996016 -3.8333645 1.0964525 25
2.1748652 -5.2119551 1.0913242 28
3.2128005 -7.6993146 1.1671526 20
4.1082044 -9.8451052 0.92618877 3
7.3795543 -17.684729 0.98582792 4
10.601179 -25.40519 0.9290815 1
9.0695467 -27.137493 0.79573327 27
1.9642293 -3.8868265 0.095481694 24
18.950686 -45.41436 0.78851098 5
9.0662489 -27.127625 0.28955075 39
1.9737045 -3.905576 0.018482843 24
24.111897 -57.78294 -0.10381458 29
9.0689917 -27.135832 -0.21572737 35
1.9789557 -3.9159675 -0.058968712 16
9.8444147 -23.591642 -0.49440953 0
9.065093 -27.124168 -0.72191668 21
1.9926023 -3.9429712 -0.13752475 22
9.4685154 -22.690819 -0.91145176 55
9.0684919 -27.134338 -1.2291118 38
1.9731762 -3.9045308 -0.21358022 20
9.4500723 -22.646622 -1.3440313 59
9.0475597 -27.071705 -1.730799 21
1.9855683 -3.9290524 -0.29293826 25
9.4256535 -22.588102 -1.7737713 3
7.4994345 -22.439474 -1.8537327 1
1.9991164 -3.9558613 -0.37335941 22
7.5788484 -18.162327 -1.7744131 1
6.0378242 -18.066109 -1.8294501 1
2.0012364 -3.9600563 -0.45233738 24
6.2868915 -15.066217 -1.760813 2
5.4472094 -13.053962 -1.7763822 2
4.7803426 -11.455849 -1.7786014 2
4.2612276 -10.211817 -1.7832582 2
3.8439286 -9.2117805 -1.7851876 3
3.5005093 -8.3887939 -1.7878071 3
3.1961024 -7.6592979 -1.7793872 3
2.9559932 -7.0838885 -1.7818595 4
2.7543335 -6.6006212 -1.786569 7
2.0101352 -4.8171873 -1.7956786 4
1.4799403 -3.5466022 -1.7913649 5
1.5712118 -3.8367305 1.0944107 26
2.1715069 -5.3025866 1.1072615 25
3.1556623 -7.7057886 1.1649358 17
4.0579228 -9.9090118 0.92964858 3
7.2439399 -17.688923 0.98336184 4
10.397612 -25.389851 0.92597824 2
7.5713625 -23.164618 0.67775214 1
1.9615475 -3.9463224 0.096621506 26
14.012576 -34.217205 0.59247273 1
8.9395647 -27.350639 0.29129186 14
1.9762446 -3.9758906 0.018753158 21
23.900955 -58.363567 -0.10457065 26
9.010601 -27.567976 -0.21868294 14
1.9814246 -3.9863119 -0.059828784 15
9.9484215 -24.292976 -0.50771338 1
9.4651575 -28.958693 -0.76905525 30
1.9931009 -4.0098028 -0.1393916 23
9.2829781 -22.668036 -0.90804362 59
8.9640656 -27.425598 -1.2395847 16
1.9667981 -3.9568858 -0.21572578 22
9.2890759 -22.682924 -1.3425 3
9.0228672 -27.605501 -1.7610619 11
1.9843367 -3.9921708 -0.29665643 23
9.263545 -22.620583 -1.7714583 2
7.3566394 -22.507671 -1.8552949 1
1.9958999 -4.0154343 -0.37772423 22
7.4854035 -18.278551 -1.7808785 1
5.9413748 -18.177664 -1.8367159 1
2.0103528 -4.0445108 -0.46045107 23
6.2109475 -15.166466 -1.7676761 2
5.3755555 -13.126529 -1.7813665 2
4.7117643 -11.505623 -1.7814381 2
4.2068777 -10.272743 -1.7889861 2
3.7961807 -9.269866 -1.7915255 3
3.438848 -8.3972979 -1.7847193 3
3.1526463 -7.6984239 -1.7835799 4
2.9045177 -7.0925198 -1.779146 4
2.706085 -6.6079688 -1.7836609 8
1.98101 -4.8374138 -1.7982811 5
1.4550124 -3.5529842 -1.789675 7
1.5401664 -3.840966 1.0923688 28
2.1603506 -5.3876209 1.121681 29
3.096143 -7.7213607 1.1638274 18
3.9762785 -9.9162989 0.92757267 3
7.0977244 -17.700762 0.98110121 4
10.197825 -25.431992 0.92476398 3
7.562861 -23.726173 0.69254148 1
1.9641334 -4.0252872 0.098199718 25
13.552982 -33.799297 0.58350068 1
8.7558413 -27.468788 0.29185873 6
1.9751123 -4.0477877 0.019023474 23
23.561811 -58.75996 -0.10496859 25
1.9802134 -4.0582418 -0.060688857 18
11.980402 -29.877497 -0.62257546 0
9.2538404 -29.031109 -0.76915622 29
1.9934595 -4.0853882 -0.14150737 21
9.109127 -22.716925 -0.90730274 55
9.3392839 -29.299162 -1.3211364 5
1.9727803 -4.0430083 -0.21962678 22
9.0779572 -22.639194 -1.3359374 4
9.4156408 -29.538708 -1.8799349 1
1.9847736 -4.0675874 -0.30117133 25
9.2504158 -23.069281 -1.8012379 1
7.252007 -22.750965 -1.8709172 1
2.003118 -4.1051826 -0.38477507 22
7.3749375 -18.392094 -1.7866256 1
5.8236871 -18.270044 -1.8416872 1
2.0103173 -4.1199365 -0.46734768 27
6.0996051 -15.211587 -1.7676761 2
5.2836204 -13.176632 -1.7828618 2
4.6390867 -11.569253 -1.7859768 2
4.1344013 -10.310636 -1.7902589 2
3.7281275 -9.2974443 -1.7915255 3
3.3903472 -8.4550657 -1.7916667 3
3.1034076 -7.7394772 -1.7877727 4
2.8625998 -7.1389356 -1.7854775 5
2.6676841 -6.652842 -1.7904465 8
1.9412737 -4.8412728 -1.7943773 4
1.4356755 -3.5803797 -1.7981248 6
1.5076567 -3.8372264 1.0882852 26
2.1585898 -5.4939551 1.140654 26
2.6177082 -6.6624842 1.0014458 15
3.9142394 -9.9623623 0.92930257 6
6.950604 -17.690393 0.97781307 3
9.9922514 -25.431871 0.92220038 4
7.5550065 -24.286182 0.70733082 1
1.9584547 -4.0857811 0.099339537 25
13.10169 -33.34589 0.57408011 13
12.059273 -38.765511 0.41098309 3
1.9675529 -4.1047621 0.01922621 23
14.683129 -37.370903 -0.066574506 6
9.0844631 -29.202745 -0.23059575 16
1.9846808 -4.1404948 -0.061710194 17
12.376993 -31.501419 -0.65459758 0
9.0473833 -29.083548 -0.76885337 30
1.9908117 -4.153285 -0.14337422 20
8.9503107 -22.779966 -0.90730274 8
9.0526085 -29.100346 -1.3092899 26
1.9704106 -4.110724 -0.22255254 23
8.8963156 -22.642542 -1.3324373 22
9.2210588 -29.641842 -1.8823559 1
1.9873809 -4.1461277 -0.30595183 25
9.1504116 -23.289253 -1.8133811 1
7.1012955 -22.82769 -1.8731043 1
2.0019755 -4.1765757 -0.39014715 22
7.2740369 -18.513582 -1.7934504 1
5.7113757 -18.35968 -1.8466586 1
2.0038662 -4.1805201 -0.47262159 25
6.012166 -15.30192 -1.7732524 3
5.2103691 -13.261219 -1.7893413 2
4.5697889 -11.63084 -1.7905155 2
4.065207 -10.346599 -1.7915317 2
3.6660082 -9.330575 -1.7929339 3
3.3341076 -8.4858351 -1.7932106 3
3.052161 -7.7682357 -1.7894497 4
2.8155408 -7.1659999 -1.7872865 6
2.6126585 -6.649632 -1.7846303 9
1.9101942 -4.8617482 -1.7969798 5
1.4053415 -3.576818 -1.7913649 6
1.4738853 -3.8296108 1.0831808 27
2.1582694 -5.6078529 1.1611447 25
2.55548 -6.6399293 0.99534953 18
3.8188295 -9.9225025 0.9230749 3
6.8039751 -17.678837 0.97452492 3
9.7943573 -25.448776 0.92031151 4
7.5431724 -24.858698 0.72245377 1
1.9639508 -4.1717167 0.10109311 24
14.282135 -37.109413 0.63714045 18
9.9626036 -32.831985 0.34733132 0
1.9729239 -4.1907768 0.019564105 22
14.25665 -37.043194 -0.065811798 33
9.9581842 -32.817425 -0.25858331 18
1.9812814 -4.2085295 -0.06251651 15
8.849926 -29.165134 -0.76935804 30
1.9907185 -4.2285752 -0.14548999 20
8.8441811 -22.979923 -0.91278535 10
8.8503895 -29.16666 -1.3094616 30
1.9705945 -4.1858287 -0.2258684 21
8.7451973 -22.722734 -1.333531 21
9.0243292 -29.739882 -1.8845348 1
1.985588 -4.2176771 -0.31020117 23
9.026289 -23.453096 -1.8211875 1
6.9753351 -22.987375 -1.8821652 1
1.9999337 -4.2481494 -0.39551923 20
7.1517649 -18.582502 -1.7952462 1
5.5946231 -18.437208 -1.8504827 1
2.0119221 -4.2736149 -0.48154661 23
5.9266186 -15.399193 -1.7796866 2
5.1347675 -13.341719 -1.7953224 2
4.4884791 -11.662459 -1.7905155 2
4.0013852 -10.39684 -1.7953503 2
3.6092651 -9.3779898 -1.7971592 3
3.2747841 -8.5089045 -1.7932106 3
2.996449 -7.7857037 -1.7886112 4
2.7640445 -7.1818447 -1.786382 5
2.5731411 -6.6858182 -1.7894771 7
1.8762062 -4.8749657 -1.7969798 4
1.3855453 -3.600076 -1.7981248 5
1.4457506 -3.8361876 1.0821599 20
2.1453831 -5.6926088 1.1755642 27
2.5006814 -6.6353655 0.9920243 16
3.7326024 -9.9041729 0.91892314 4
6.6832094 -17.733381 0.97493595 2
7.5989904 -20.163334 0.72723633 0
7.9774189 -26.965879 0.78205591 3
1.9565933 -4.2325153 0.10223293 22
14.026954 -37.21944 0.63733274 33
9.6435127 -32.597733 0.34413254 24
1.9721518 -4.2661715 0.019851316 22
14.044251 -37.265339 -0.066030659 30
9.6085567 -32.479572 -0.25538647 35
1.9870961 -4.2984991 -0.063645355 15
8.7062216 -29.429432 -0.77470785 5
1.9930238 -4.3113222 -0.14785467 20
8.7920847 -23.329119 -0.92419517 6
8.6488199 -29.235401 -1.3098049 25
1.9698234 -4.2611346 -0.22918426 21
8.6567812 -22.970102 -1.3444688 255
8.8436699 -29.894045 -1.8903453 1
1.9879146 -4.3002696 -0.31524724 24
8.8721895 -23.541672 -1.8232113 1
6.8316522 -23.092871 -1.8868518 1
2.0020051 -4.3307505 -0.40189859 20
7.0471535 -18.69908 -1.8017118 1
5.4770665 -18.513996 -1.8543068 1
2.0104241 -4.3489623 -0.48844326 16
5.8329959 -15.477405 -1.783976 2
5.0527 -13.40695 -1.7993097 2
4.4195204 -11.726856 -1.7956215 2
3.9314921 -10.431911 -1.7966231 2
3.5464857 -9.410326 -1.7985677 3
3.2249916 -8.5572672 -1.7986143 3
2.9502993 -7.8283916 -1.7936424 3
2.7220848 -7.2228422 -1.791809 6
2.5277729 -6.7072501 -1.7904465 5
1.8407941 -4.8844051 -1.7956786 5
1.3578219 -3.6028757 -1.7947448 7
1.2192936 -3.3014903 0.92902398 6
2.1470387 -5.8135524 1.1975728 27
2.4319155 -6.5849156 0.98204863 18
3.6585493 -9.9062815 0.91684729 4
6.5336185 -17.691128 0.97020924 2
7.5938978 -20.562054 0.73978418 10
7.7817655 -26.960571 0.78038794 4
1.9648654 -4.325501 0.10416184 18
13.825521 -37.435467 0.63944757 31
9.4137917 -32.614861 0.34364665 35
1.9785545 -4.3556361 0.020206105 21
13.839747 -37.473988 -0.066236258 20
9.4339724 -32.684776 -0.25650233 40
1.9767394 -4.3516402 -0.064236656 1
11.853115 -32.094769 -0.6617136 0
9.4356718 -32.690666 -0.85889107 30
8.80336 -19.379923 -0.66260797 18
8.8088846 -23.851881 -0.94256943 2
8.4879789 -29.407305 -1.3149556 9
1.9696093 -4.3359437 -0.23250012 18
8.5374556 -23.116932 -1.3497189 30
8.6706753 -30.04027 -1.8959137 1
8.8030453 -19.37923 -1.4163551 9
8.7255344 -23.626196 -1.8252351 1
6.7037778 -23.225794 -1.8940381 1
6.9133201 -18.719248 -1.7991974 1
5.3773437 -18.630253 -1.8623374 1
5.7384839 -15.538136 -1.7865496 2
4.9677954 -13.451336 -1.800805 2
4.3443909 -11.763339 -1.7967561 2
3.8704269 -10.479983 -1.8004416 2
3.4853599 -9.437335 -1.7992719 3
3.1695261 -8.5821495 -1.7993861 3
2.902379 -7.8587933 -1.7961581 4
2.6714213 -7.233427 -1.79 6
2.4859216 -6.7311487 -1.7923853 4
1.8083589 -4.8965068 -1.7956786 5
1.3288727 -3.5981984 -1.787985 8
1.3749902 -3.8045919 1.0678672 18
2.142441 -5.9281249 1.2180636 29
2.3778062 -6.5793796 0.97872341 18
3.5825291 -9.9128418 0.91511738 5
6.390944 -17.683714 0.96733207 1
7.5928345 -21.00934 0.75395113 2
7.5792961 -26.964197 0.77894235 7
8.8360672 -19.818205 0.47574258 27
14.561616 -40.291927 0.68648648 3
9.2215939 -32.806854 0.34498283 44
8.8739462 -19.903162 0.092042528 12
9.2402039 -32.873062 -0.25746742 35
8.708724 -19.532589 -0.28742543 23
10.386368 -28.739035 -0.59101737 17
9.2418518 -32.878925 -0.86212111 22
8.7687883 -19.667307 -0.67032427 2
8.7223101 -24.134594 -0.95131201 1
9.2287073 -32.832161 -1.4651823 36
8.6991491 -19.511114 -1.0429347 68
8.465457 -23.423882 -1.3641567 7
8.4953241 -30.223068 -1.903661 1
8.7309237 -19.58238 -1.4267129 2
8.5969925 -23.78784 -1.8330415 1
6.5684514 -23.368002 -1.9018492 1
8.5213327 -19.112293 -1.7627131 3
6.804131 -18.827 -1.8049445 2
2.1753597 -7.7390866 -0.77208608 0
6.9517741 -15.591969 -1.7403833 2
5.6447358 -15.618959 -1.791268 2
4.8791618 -13.500619 -1.8027987 2
4.2661991 -11.804554 -1.7984582 2
3.8011954 -10.517891 -1.8023509 2
2.637815 -7.2988224 -1.3880098 0
2.5919456 -7.1719022 -1.4998745 0
2.844785 -7.8715076 -1.794481 4
2.6288033 -7.2738872 -1.795427 5
2.444145 -6.7629385 -1.7962629 4
1.7741307 -4.9090118 -1.7956786 5
1.3098814 -3.6244361 -1.7964349 11
1.3561302 -3.8359768 1.0739926 21
2.1507461 -6.083643 1.2469025 29
2.319932 -6.5622053 0.97373557 19
3.4999545 -9.9000406 0.91165757 5
6.275321 -17.750498 0.96856517 1
7.588553 -21.46513 0.76838791 1
6.2830276 -22.966879 0.66218442 2
18.651695 -42.63118 1.0202249 10
9.5808573 -27.100601 0.46058425 28
25.883692 -59.160965 0.27274865 20
9.5767403 -27.088957 -0.047639437 35
15.557514 -56.86869 -0.44454375 29
8.7052164 -19.897045 -0.29188707 2
9.5896263 -27.125406 -0.55644274 20
15.496023 -56.643917 -1.4823921 27
9.942153 -22.724245 -0.77212995 26
9.5888329 -27.123163 -1.0664475 42
9.024579 -32.9883 -1.4693028 4
9.9127159 -22.656961 -1.2073622 10
8.4641342 -23.941818 -1.3908449 0
8.2535667 -30.169956 -1.8966401 0
10.604924 -24.239107 -1.760551 1
8.4453392 -23.888653 -1.8362218 1
6.4083085 -23.424828 -1.9027865 1
8.4388256 -19.28817 -1.7734573 2
6.7229872 -19.016773 -1.8185939 1
2.1097205 -7.7118387 -0.76787955 0
6.8826327 -15.731264 -1.7505254 1
5.5541158 -15.710481 -1.7972732 1
4.7900825 -13.549321 -1.8047924 2
2.5695999 -7.2684212 -1.1046051 3
2.5364504 -7.174654 -1.2263877 6
2.5526724 -7.2205391 -1.3697001 1
2.5025673 -7.0788112 -1.4767163 8
2.793673 -7.9022384 -1.7969966 6
2.5779579 -7.2920628 -1.795427 3
