# .PCD v0.7 - Point Cloud Data file format
VERSION 0.7
FIELDS x y z intensity
SIZE 4 4 4 4
TYPE F F F F
COUNT 1 1 1 1
WIDTH 1354
HEIGHT 1
VIEWPOINT 0 0 0 1 0 0 0
POINTS 1354
DATA ascii
6.3311706 -0.52051681 -0.49772397 2
6.3208623 0.40099746 -0.5335145 16
6.3300509 -0.058555953 -0.57075757 56
6.3333898 -0.52069932 -0.61032659 47
6.3343682 0.40185428 -0.64706558 57
6.3508925 -0.058748752 -0.68502277 10
6.3379426 -0.058628958 -0.79598272 50
10.187516 -0.094239324 -1.459758 2
9.2522192 -0.08558739 -1.4911399 2
8.4849968 -0.07849022 -1.5175855 4
7.8532033 -0.072645836 -1.5446467 5
7.2861013 -0.067399874 -1.5622047 5
6.7794352 -0.062712967 -1.5738251 6
6.3796964 -0.0590152 -1.5936623 6
4.8034906 -0.044434551 -1.6525447 6
1.7002714 -0.015728312 -0.79259449 6
4.2885203 -0.06961558 1.1321841 19
6.1533399 -0.099887207 1.1892247 15
7.4029212 -0.12017167 1.0358064 10
13.74647 -0.22314654 1.1936314 31
13.755995 -0.22330114 0.70777386 28
6.3275633 -0.10271537 0.2135835 39
6.3761816 -0.56905931 0.17802808 1
6.3004589 0.35555974 0.13835639 21
6.3303533 -0.10276067 0.10144773 33
6.3384805 -0.56569457 0.064421095 5
6.3099036 0.35609275 0.026693685 117
6.3151593 -0.10251402 -0.010472319 12
6.3505774 -0.56677419 -0.048073456 55
6.3173766 0.35651448 -0.085039653 45
6.3139873 -0.10249499 -0.12213276 80
6.3447523 -0.56625432 -0.16079603 13
6.3108969 0.35614878 -0.19676618 35
6.3148298 -0.10250868 -0.23412351 63
6.3568468 -0.5673337 -0.27418515 51
6.302454 0.35567233 -0.30817968 62
6.3296781 -0.10274971 -0.34672683 5
6.3669524 -0.56823564 -0.38760793 51
6.3119755 0.35620967 -0.42068377 15
6.3345509 -0.1028288 -0.45912775 74
6.3353262 -0.56541306 -0.49834886 10
6.3314667 0.35730964 -0.53418601 14
6.3334713 -0.10281128 -0.57111675 9
6.3494296 -0.56667179 -0.61223865 61
6.329073 0.35717455 -0.64625424 54
6.3344221 -0.10282671 -0.68330699 9
6.3572206 -0.1031968 -0.79847485 50
10.202447 -0.16561638 -1.4620274 2
9.2395515 -0.1499857 -1.4892306 2
8.4566832 -0.13727739 -1.512656 4
7.8485808 -0.12740606 -1.5438749 5
7.301096 -0.11851874 -1.5655589 5
6.7827282 -0.11010407 -1.5747297 11
6.3636084 -0.1033005 -1.5897847 7
4.7879353 -0.077722587 -1.6473399 6
1.7001201 -0.027598061 -0.79259449 7
4.2724638 -0.099193811 1.1281005 19
6.1642714 -0.14311592 1.1915014 13
7.409822 -0.17203388 1.0369148 9
13.744577 -0.31910792 1.1936314 33
13.762087 -0.31951442 0.7081849 29
6.3266916 -0.14688683 0.2135835 36
6.3521533 -0.61164266 0.17747208 10
6.2987928 0.31136814 0.13826871 22
6.3294816 -0.1469516 0.10144773 34
6.3383579 -0.61031431 0.064461581 10
6.3242211 0.31262511 0.026744369 75
6.3302851 -0.14697026 -0.010498849 4
6.3544288 -0.61186177 -0.048133772 46
6.3197117 0.31240219 -0.085039653 36
6.3211141 -0.14675732 -0.12228746 59
6.3645263 -0.61283404 -0.16140167 1
6.305243 0.31168696 -0.19651727 43
6.3259492 -0.14686958 -0.23456806 62
6.364665 -0.61284739 -0.27470022 65
6.3127642 0.31205875 -0.30856979 60
6.3208203 -0.14675051 -0.34628931 10
6.3707786 -0.6134361 -0.38809216 59
6.3063359 0.31174099 -0.4201526 9
6.32969 -0.14695643 -0.45883861 72
6.3510718 -0.61153847 -0.49991107 2
6.3218637 0.31250858 -0.53317875 11
6.3325992 -0.14702398 -0.57111675 9
6.3453188 -0.61098456 -0.61223865 50
6.3274379 0.31278414 -0.64584851 55
6.3295741 -0.14695375 -0.68287802 9
6.3563452 -0.14757529 -0.79847485 50
10.189166 -0.23656191 -1.4603254 2
9.2422256 -0.2145768 -1.4898671 2
8.48701 -0.19704294 -1.5182897 5
7.8318048 -0.18183105 -1.5407871 4
7.3040004 -0.169577 -1.5663974 5
6.7895846 -0.15763381 -1.5765387 9
6.3821306 -0.14817396 -1.5946316 7
4.7986202 -0.11140958 -1.6512436 6
1.7035104 -0.039550409 -0.79428446 7
4.2600703 -0.12866855 1.1250379 19
6.1631222 -0.18614715 1.1915014 13
7.4203196 -0.22411877 1.0385774 7
13.742015 -0.41505536 1.1936314 35
13.755529 -0.41546354 0.70797938 28
6.3295083 -0.19117257 0.21371843 36
6.3318195 -0.65433013 0.1770273 1
6.2968178 0.26721787 0.13818103 4
6.336297 -0.19137761 0.1015759 35
6.3657718 -0.6578387 0.06478551 20
6.3182569 0.26812768 0.026710579 73
6.3291049 -0.1911604 -0.010498849 42
6.3579593 -0.65703142 -0.048194092 6
6.3177428 0.26810586 -0.084985904 51
6.3199353 -0.19088344 -0.12228746 62
6.3640704 -0.65766293 -0.16150261 32
6.3152542 0.26800025 -0.19676618 41
6.3367558 -0.19139147 -0.23501259 68
6.3602314 -0.6572662 -0.27470022 49
6.3187804 0.26814991 -0.30876485 51
6.3236346 -0.19099517 -0.34650809 47
6.358398 -0.65707672 -0.38760793 12
6.312346 0.26787686 -0.42041817 12
6.3285098 -0.19114242 -0.45883861 27
6.330781 -0.65422279 -0.49866128 43
6.3199091 0.2681978 -0.53284299 12
6.3553104 -0.1919519 -0.57327193 11
6.3567414 -0.65690553 -0.61376828 3
6.3413944 0.26910958 -0.64706558 18
6.3403192 -0.1914991 -0.68416488 14
6.3392925 -0.19146809 -0.79648113 12
10.187266 -0.30768993 -1.4603254 2
9.2562923 -0.27957135 -1.4924128 2
8.4854279 -0.25628865 -1.5182897 4
7.8499599 -0.23709536 -1.5446467 5
7.3104577 -0.22080056 -1.5680745 5
6.7961082 -0.20526548 -1.5783477 7
6.3886986 -0.19296032 -1.5965704 7
4.7977257 -0.14490755 -1.6512436 6
1.6959453 -0.051223285 -0.79090452 7
4.243609 -0.15783082 1.1209543 21
6.1145768 -0.22741698 1.1823944 10
7.4146156 -0.27576879 1.0380232 5
13.742764 -0.51112908 1.1939774 40
13.756285 -0.51163191 0.7081849 28
6.3320146 -0.23550405 0.21385334 20
6.3469691 -0.70071173 0.17758329 32
6.3025265 0.22339295 0.13826871 83
6.3268127 -0.23531058 0.10144773 24
6.3530726 -0.70138556 0.06470453 71
6.3119798 0.22372803 0.026676791 45
6.3316135 -0.23548914 -0.010505481 68
6.3492422 -0.70096266 -0.048163932 1
6.3234572 0.22413485 -0.085039653 60
6.3224449 -0.23514815 -0.12236481 54
6.3712478 -0.70339215 -0.16180544 44
6.3209672 0.22404657 -0.19689065 84
6.3392596 -0.23577352 -0.23516077 16
6.3634324 -0.70252925 -0.27504358 1
6.3125129 0.22374691 -0.30837473 7
6.3301291 -0.23543394 -0.34694558 60
6.3338132 -0.69925928 -0.38639742 2
6.3180509 0.22394322 -0.42068377 68
6.3349943 -0.23561488 -0.45941687 14
6.3419142 -0.70015365 -0.49991107 47
6.3176441 0.22392879 -0.53250724 47
6.3299294 -0.23542649 -0.57111675 68
6.3361697 -0.69951946 -0.61223865 5
6.3272114 0.2242679 -0.64544284 7
6.346776 -0.23605308 -0.68502277 66
6.3536649 -0.23630929 -0.79847485 7
10.18487 -0.37880173 -1.4603254 2
9.2462215 -0.34389099 -1.4911399 2
8.4991713 -0.31610623 -1.5211066 5
7.8716455 -0.29276693 -1.5492784 4
7.3087378 -0.27183092 -1.5680745 5
6.7867217 -0.25241581 -1.5765387 11
6.3794398 -0.23726791 -1.5946316 5
4.7928171 -0.17825732 -1.6499424 6
1.6810545 -0.062522776 -0.78414464 3
4.2462673 -0.18762368 1.1219752 19
6.1010695 -0.26957914 1.1801176 8
7.3966794 -0.32682639 1.0358064 4
13.742842 -0.60723513 1.1943233 35
13.752378 -0.60765642 0.7081849 32
6.338203 -0.28005704 0.2141232 28
6.3816333 -0.74966985 0.17869528 41
6.2919402 0.17904706 0.13800567 79
6.3210206 -0.2792978 0.10138365 2
6.3718562 -0.74852127 0.064947471 48
6.3173862 0.17977116 0.026693685 46
6.3338108 -0.27986297 -0.010512113 37
6.3680286 -0.74807167 -0.048344888 4
6.3168721 0.17975654 -0.084932148 38
6.3046679 -0.27857527 -0.12205542 23
6.3701534 -0.74832124 -0.16190636 60
6.3223772 0.17991318 -0.19689065 62
6.3334656 -0.27984771 -0.23501259 21
6.3385272 -0.74460602 -0.27418515 6
6.3019404 0.17933163 -0.30778959 19
6.3323216 -0.27979714 -0.34716433 57
6.340673 -0.74485809 -0.38712373 9
6.3234506 0.17994373 -0.42094934 70
6.321238 -0.27930743 -0.4585495 3
6.3645954 -0.74766833 -0.5020982 59
6.3270221 0.18004535 -0.53317875 52
6.3281312 -0.279612 -0.57111675 68
6.327177 -0.74327272 -0.61185622 2
6.3286228 0.18009092 -0.64544284 7
6.3529191 -0.28070727 -0.68588066 62
6.3360009 -0.27995971 -0.79648113 5
10.193844 -0.45042068 -1.4620274 2
9.2554321 -0.40895638 -1.4930491 2
8.4849558 -0.37491247 -1.518994 4
7.861568 -0.34736776 -1.5477345 5
7.2871256 -0.32198569 -1.5638818 5
6.800365 -0.30047789 -1.5801566 4
6.3892589 -0.28231296 -1.5975398 5
4.8027921 -0.21221404 -1.653846 6
1.6878208 -0.074577302 -0.78752458 3
4.2409153 -0.21854623 1.1209543 19
6.1185398 -0.31530547 1.1839123 6
7.4099097 -0.38185337 1.0380232 3
13.761901 -0.70918924 1.1963992 39
13.747554 -0.70844984 0.7081849 28
6.3319879 -0.32630503 0.21398827 21
6.3799348 -0.79692417 0.17880647 43
6.3170724 0.1334268 0.13853174 82
6.3227973 -0.32583141 0.10144773 2
6.3781052 -0.79669559 0.065068945 48
6.3225336 0.13354214 0.026710579 52
6.3395791 -0.32669625 -0.010525377 60
6.3742814 -0.79621798 -0.048435364 15
6.3180203 0.13344681 -0.084932148 35
6.3144383 -0.32540068 -0.12228746 5
6.3843369 -0.79747397 -0.16241106 8
6.3155313 0.13339424 -0.19664173 79
6.3352361 -0.32647243 -0.23516077 13
6.3527269 -0.79352558 -0.27504358 5
6.3030858 0.13313137 -0.30778959 22
6.3340888 -0.3264133 -0.34738308 63
6.3627763 -0.79478085 -0.38881847 4
6.3166189 0.1334172 -0.42041817 66
6.3230052 -0.32584214 -0.45883861 10
6.3549871 -0.79380792 -0.50178576 12
6.3241868 0.13357706 -0.53284299 49
6.3298898 -0.32619691 -0.57147598 61
6.3571181 -0.79407412 -0.61529791 43
6.3417087 0.13394715 -0.64665991 5
6.3586345 -0.3276782 -0.68673849 61
6.3496323 -0.3272143 -0.79847485 2
10.202131 -0.52574432 -1.4637294 2
9.2679605 -0.47760391 -1.4955949 2
8.4819794 -0.43710011 -1.518994 4
7.8588104 -0.4049865 -1.5477345 4
7.2884755 -0.37559551 -1.5647204 5
6.8018708 -0.35051942 -1.5810611 5
6.3715148 -0.32834199 -1.5936623 5
4.8086624 -0.24780384 -1.6564485 8
1.6582634 -0.085454956 -0.77400488 3
4.2315645 -0.24769557 1.1189125 19
5.2810946 -0.30913004 1.0222627 6
7.3991537 -0.4331111 1.0369148 2
13.756615 -0.80524647 1.1963992 33
13.742272 -0.804407 0.7081849 29
6.3375373 -0.37096915 0.21425812 31
6.3781796 -0.84196836 0.17891766 1
6.3218489 0.089379348 0.13861942 84
6.3323464 -0.37066531 0.10163999 42
6.3604918 -0.83963346 0.064947471 5
6.3193116 0.089343481 0.026693685 36
6.3411369 -0.37117985 -0.010532009 7
6.3725333 -0.841223 -0.048465524 48
6.3187976 0.089336216 -0.084932148 55
6.3279829 -0.37040991 -0.12259685 27
6.3587918 -0.83940905 -0.16190636 1
6.3123112 0.0892445 -0.19651727 16
6.3367929 -0.37092561 -0.23530896 86
6.34307 -0.83733362 -0.27487189 55
6.2998662 0.089068554 -0.30759454 23
6.3356433 -0.37085828 -0.34760186 40
6.3491559 -0.83813703 -0.38833424 55
6.313405 0.089259975 -0.4201526 18
6.3404899 -0.371142 -0.46028423 67
6.3611507 -0.83972043 -0.5027231 4
6.3289504 0.089479752 -0.53317875 7
6.3274584 -0.37037918 -0.57147598 13
6.3553667 -0.83895689 -0.61568034 53
6.3305521 0.089502394 -0.64544284 56
6.3561921 -0.37206113 -0.68673849 13
6.327383 -0.3703748 -0.79598272 45
10.202165 -0.59718603 -1.4642967 2
9.2407465 -0.54090917 -1.4917763 2
8.4983749 -0.49745429 -1.5225151 4
7.8479557 -0.45938182 -1.5461906 4
7.3012934 -0.42738283 -1.5680745 5
6.8109269 -0.39867914 -1.5837746 5
6.3845644 -0.3737219 -1.5975398 5
4.7841597 -0.28004184 -1.6486411 7
1.6901999 -0.09893623 -0.78921455 3
4.222014 -0.27672556 1.1168706 19
5.2827268 -0.34624839 1.0230216 6
7.2931733 -0.4780201 1.0225055 0
13.766563 -0.9023087 1.1977831 32
13.752267 -0.90137166 0.70900697 30
6.3347931 -0.4152045 0.21425812 28
6.368186 -0.88592494 0.17880647 1
6.314321 0.045185115 0.13844407 45
6.3535504 -0.4164339 0.1020245 34
6.386168 -0.88842654 0.0652714 1
6.3237815 0.045252815 0.026710579 90
6.3423829 -0.41570196 -0.010538642 3
6.3863139 -0.88844687 -0.048616316 42
6.315268 0.045191891 -0.084878393 25
6.3332243 -0.41510165 -0.12275155 57
6.3527765 -0.88378125 -0.16190636 1
6.3167777 0.045202699 -0.19664173 7
6.338038 -0.41541716 -0.23545714 56
6.3647771 -0.88545072 -0.27607372 49
6.3203101 0.045227975 -0.30856979 61
6.3368855 -0.41534162 -0.34782061 2
6.3708315 -0.88629305 -0.39002898 50
6.3058925 0.045124803 -0.41962144 13
6.3616304 -0.41696352 -0.46201897 54
6.3709321 -0.886307 -0.50397283 1
6.3214493 0.045236126 -0.53250724 5
6.3207436 -0.41428363 -0.57111675 12
6.3454113 -0.88275659 -0.61529791 47
6.3310227 0.045304634 -0.64544284 52
6.3216925 -0.41434583 -0.68330699 4
6.3484058 -0.41609672 -0.79897326 49
10.177993 -0.6671012 -1.46146 2
9.264329 -0.60721654 -1.4962313 2
8.4711208 -0.55522686 -1.5182897 4
7.8641391 -0.51544315 -1.5500504 5
7.2942295 -0.4780893 -1.5672359 5
6.8079782 -0.44621867 -1.5837746 4
6.389545 -0.41879311 -1.5994785 7
4.7971854 -0.31442431 -1.653846 6
1.6930858 -0.11097077 -0.79090452 6
4.192977 -0.3042343 1.1097243 20
5.2919316 -0.38397235 1.0252984 8
7.3963361 -0.53666383 1.037469 0
13.724157 -0.99579829 1.1946694 47
13.757592 -0.99822426 0.70962346 27
6.3357272 -0.45970809 0.21439305 29
6.3658023 -0.9309395 0.17891766 2
6.3184814 0.0011024403 0.13853174 49
6.346499 -0.46048969 0.10196042 29
6.3837676 -0.93356675 0.065311894 2
6.3319435 0.0011047892 0.026744369 89
6.3193784 -0.45852187 -0.010505481 12
6.3641248 -0.9306941 -0.04849568 67
6.3274283 0.0011040014 -0.085039653 49
6.3381491 -0.45988384 -0.12290625 60
6.3741488 -0.93216008 -0.16261294 13
6.3249364 0.0011035666 -0.19689065 31
6.3429565 -0.46023265 -0.23575349 61
6.3703036 -0.93159771 -0.27658877 52
6.3204722 0.0011027877 -0.30856979 65
6.3338308 -0.45957053 -0.34782061 20
6.3723907 -0.931903 -0.39051318 50
6.3180275 0.0011023611 -0.42041817 17
6.3466272 -0.46049899 -0.4611516 69
6.368535 -0.93133914 -0.50428528 3
6.3255973 0.0011036819 -0.53284299 8
6.337564 -0.45984137 -0.57291275 6
6.3627329 -0.93049055 -0.61759239 43
6.3351641 0.0011053511 -0.64584851 57
6.3583102 -0.46134669 -0.68759638 7
6.3572206 -0.46126765 -0.80046856 67
6.4727054 -0.46964696 -0.9298653 4
9.2677422 -0.67244941 -1.4975041 2
8.4670382 -0.61435187 -1.5182897 4
7.85252 -0.56976366 -1.5485065 4
6.4793339 -0.47012794 -1.3928192 26
6.7852654 -0.49232575 -1.5792521 8
6.3980765 -0.46423206 -1.6023866 8
4.7948732 -0.34790671 -1.653846 6
1.7175814 -0.12462439 -0.80273432 7
4.1638794 -0.32989842 1.1025779 18
5.2657781 -0.41720033 1.0207448 9
7.3847165 -0.58508086 1.0363606 0
13.753004 -1.0896316 1.1977831 35
13.754651 -1.089762 0.70982897 34
6.3484797 -0.50298131 0.21493274 28
6.355536 -0.97253329 0.17880647 20
6.3023539 -0.040699467 0.13818103 30
6.3512797 -0.50320309 0.10208859 9
6.3655748 -0.97406942 0.06519042 1
6.3238115 -0.040838037 0.026710579 80
6.3560734 -0.50358289 -0.010571803 40
6.3272963 -0.040860537 -0.085039653 45
6.3389468 -0.502226 -0.1229836 53
6.320806 -0.040818628 -0.19676618 63
6.3397646 -0.50229079 -0.23575349 58
6.3679352 -0.97443062 -0.27676046 14
6.3283305 -0.040867217 -0.30895987 68
6.3306437 -0.50156814 -0.34782061 54
9.9299631 -1.5194973 -0.60913277 10
6.3099136 -0.040748283 -0.41988701 17
6.3354797 -0.50195128 -0.46057338 11
9.6103401 -1.4705881 -0.76173949 6
6.3214793 -0.040822975 -0.53250724 38
6.3343749 -0.50186378 -0.57291275 8
9.579895 -1.4659294 -0.93078625 2
6.335032 -0.040910494 -0.64584851 11
6.3392529 -0.50225025 -0.68588066 61
6.3461094 -0.50279349 -0.79947168 7
6.437871 -0.51006359 -0.92532659 30
6.4601407 -0.51182801 -1.0443708 28
6.4569893 -0.51157832 -1.1584353 28
6.4517894 -0.51116633 -1.2729248 33
6.4526801 -0.51123697 -1.3877878 28
6.5021873 -0.51515931 -1.5141283 39
6.3909888 -0.50634921 -1.6014173 8
4.7886901 -0.3794013 -1.6525447 6
1.7058748 -0.13515411 -0.7976644 7
4.1497893 -0.35941058 1.0995152 16
5.2821422 -0.4574829 1.0245395 11
9.1522732 -0.79267246 1.285198 19
13.756557 -1.1914465 1.1988211 35
13.762213 -1.1919364 0.71065104 27
6.3565707 -0.55053848 0.2153375 22
13.766356 -2.2099414 0.38774762 40
6.3258781 -0.087227672 0.1387071 54
6.3434353 -0.54940081 0.1020245 1
13.786769 -2.2132185 0.14135389 42
6.3153434 -0.087082408 0.026676791 18
6.3561959 -0.550506 -0.010578436 43
10.77375 -1.7295325 -0.082273766 4
6.3148293 -0.087075323 -0.084878393 26
6.3231421 -0.54764318 -0.12275155 4
10.312637 -1.655509 -0.26365301 9
6.3283324 -0.087261513 -0.19701511 55
6.3279481 -0.54805946 -0.23545714 2
10.223555 -1.6412083 -0.44484267 1
6.3118815 -0.087034672 -0.30817968 26
6.3387341 -0.54899365 -0.34847686 52
9.7096224 -1.5587058 -0.59630132 8
6.3214178 -0.087166168 -0.42068377 55
6.3356047 -0.54872262 -0.46086249 3
9.3118734 -1.4948543 -0.73893106 14
6.3210106 -0.08716055 -0.53250724 52
6.3464017 -0.5496577 -0.57434952 57
9.2150707 -1.4793143 -0.89636934 5
6.3226247 -0.087182812 -0.64463151 5
6.3631358 -0.55110705 -0.68888324 61
6.3343449 -0.54861349 -0.79847485 2
6.4142346 -0.55553269 -0.92248994 34
6.4247408 -0.55644262 -1.0392793 38
6.4334517 -0.55719703 -1.1549143 33
6.4674201 -0.56013906 -1.2767845 35
6.5033107 -0.5632475 -1.3995274 29
6.4671817 -0.56011838 -1.5068923 37
6.387105 -0.55318302 -1.6014173 8
4.7744751 -0.4135142 -1.6486411 6
1.6903905 -0.14640361 -0.79090452 6
4.1510301 -0.38873342 1.1005361 22
5.2592683 -0.49251711 1.0207448 11
9.138628 -0.85580927 1.2840896 18
13.747906 -1.2874563 1.1988211 34
13.757533 -1.288358 0.71085656 27
6.3605337 -0.59564775 0.21560736 24
13.766364 -2.30864 0.38819242 62
6.3211174 -0.1313047 0.13861942 54
6.3394456 -0.59367293 0.1020245 7
13.782815 -2.3113987 0.14147536 44
6.3185806 -0.13125201 0.026693685 28
6.344233 -0.59412128 -0.010565171 67
10.6194 -1.7808894 -0.081188045 0
6.3220654 -0.1313244 -0.084985904 31
6.3271284 -0.59251946 -0.12290625 12
6.3355637 -0.13160479 -0.19726402 48
6.359786 -0.59557778 -0.23679075 19
10.010841 -1.6788331 -0.4360866 2
6.307126 -0.13101406 -0.30798462 7
6.3387241 -0.59360534 -0.34869564 62
9.5843115 -1.6073034 -0.58928031 9
6.3286362 -0.13146089 -0.42121494 68
6.3355913 -0.59331203 -0.4611516 3
9.1950235 -1.5420192 -0.73049504 15
6.328218 -0.1314522 -0.53317875 46
6.3582759 -0.59543633 -0.57578629 56
9.0474453 -1.5172701 -0.88107294 17
6.3377762 -0.13165075 -0.64625424 7
6.3630929 -0.59588748 -0.68931216 64
6.3659248 -0.59615266 -0.80296069 3
6.4102006 -0.60029894 -0.92248994 36
6.4167681 -0.600914 -1.0386429 34
6.4333258 -0.60246456 -1.1556184 34
6.4555368 -0.60454458 -1.2752407 33
6.5264788 -0.61118811 -1.4053973 19
6.4359574 -0.60271102 -1.5005609 48
6.3946791 -0.59884542 -1.6043254 7
4.7903018 -0.44859955 -1.6551472 6
1.6857175 -0.15786316 -0.78921455 4
4.1674557 -0.41964051 1.1056406 22
5.2752404 -0.53118849 1.0245395 11
9.0969582 -0.91601509 1.2791017 17
13.746511 -1.3842003 1.1995131 33
13.760128 -1.3855714 0.71147305 30
6.3641748 -0.64083844 0.21587721 20
13.765666 -2.407445 0.38863719 37
6.3240433 -0.17554216 0.1387071 53
6.366981 -0.64112103 0.10253719 1
13.793923 -2.4123867 0.1417588 42
6.3295054 -0.17569378 0.026744369 7
6.3757496 -0.64200395 -0.010624861 16
10.65793 -1.8639402 -0.08158011 0
6.32899 -0.17567948 -0.085093409 23
6.3307958 -0.63747734 -0.12306094 3
10.268822 -1.79589 -0.26314831 0
6.3304939 -0.17572121 -0.19713956 75
6.3594503 -0.64036268 -0.23693892 3
6.3100514 -0.17515378 -0.30817968 10
6.3423729 -0.63864309 -0.34913313 59
9.4784651 -1.6576663 -0.58346981 10
6.3195844 -0.17541839 -0.42068377 70
6.3352647 -0.63792729 -0.46144074 48
9.0819025 -1.5883125 -0.72237152 15
6.3351145 -0.17584948 -0.53385025 53
6.3618913 -0.64060849 -0.57650465 60
8.9189672 -1.5598172 -0.86960065 20
6.3406806 -0.17600398 -0.64665991 26
6.3627348 -0.64069337 -0.68974113 62
6.3655567 -0.64097756 -0.80345911 36
6.4452496 -0.64900225 -0.92816329 26
6.4202747 -0.64648741 -1.0399158 34
6.4328809 -0.6477567 -1.1563227 31
6.6854625 -0.67319036 -1.3215569 33
6.6349044 -0.66809946 -1.429715 29
6.5168829 -0.65621531 -1.5204598 51
6.3826203 -0.64269578 -1.6023866 9
4.7795267 -0.48127279 -1.6525447 6
1.7026106 -0.17144379 -0.7976644 3
4.202877 -0.45286795 1.1158497 20
5.2831168 -0.5692659 1.0268162 11
9.0824633 -0.97865266 1.2779933 18
13.7484 -1.4814161 1.200551 29
13.766006 -1.4833133 0.71229511 30
6.3833942 -0.68782282 0.21668674 20
13.760325 -2.5056376 0.38897079 67
6.3306575 -0.21996503 0.13888246 61
6.350421 -0.68426991 0.10234493 29
13.792485 -2.5114937 0.14192076 37
6.3321223 -0.22001591 0.026761264 64
6.4029279 -0.68992758 -0.010677919 1
10.636787 -1.936868 -0.08151979 0
6.3356042 -0.2201369 -0.085200921 51
6.3500481 -0.68422973 -0.12352503 46
10.240298 -1.8646708 -0.26274458 0
6.3251171 -0.21977252 -0.19701511 8
6.358799 -0.68517268 -0.2370871 42
9.9785633 -1.817011 -0.43574321 0
6.3206534 -0.21961741 -0.30876485 67
6.3337889 -0.68247777 -0.34891438 1
9.3409634 -1.7009096 -0.57572246 30
6.3221951 -0.21967098 -0.42094934 35
6.3663554 -0.68598688 -0.46404284 53
8.9842806 -1.6359607 -0.71549773 19
6.3377166 -0.22021028 -0.53418601 10
6.3295374 -0.68201965 -0.57399029 2
8.8255978 -1.6070659 -0.86157006 4
6.3353205 -0.22012703 -0.64625424 60
6.3541527 -0.684672 -0.68931216 3
6.364872 -0.68582708 -0.80395752 52
6.6374002 -0.71519244 -0.95653015 24
6.6197729 -0.71329308 -1.0730097 35
6.6787524 -0.71964824 -1.2013925 32
6.6610885 -0.71774489 -1.3176972 3
7.3066964 -0.78731042 -1.5756214 4
6.6051178 -0.71171397 -1.5421678 65
6.3741193 -0.68682343 -1.6014173 8
4.7798104 -0.51503366 -1.653846 6
1.6869537 -0.18177246 -0.79090452 3
4.3573208 -0.49876508 1.1577069 6
5.2792253 -0.6042918 1.0268162 10
9.0875807 -1.0402191 1.2796559 17
13.762027 -1.5752841 1.2026268 33
13.755866 -1.574579 0.71229511 26
6.3826637 -0.73059803 0.21682166 18
13.76305 -2.6005552 0.38952678 66
6.3290596 -0.26194689 0.13888246 34
6.3775315 -0.73001051 0.10285762 25
13.791245 -2.6058829 0.14208272 38
6.3385167 -0.26233831 0.026795054 79
6.3743672 -0.72964835 -0.010638125 5
10.611917 -2.0051425 -0.081429318 0
6.3380013 -0.26231697 -0.085254677 50
6.3453708 -0.72632921 -0.12352503 51
10.219848 -1.9310601 -0.26254269 0
6.3075418 -0.26105633 -0.19651727 7
6.3501439 -0.72687554 -0.23693892 48
9.9584389 -1.8816664 -0.43539983 0
6.3190579 -0.26153293 -0.30876485 49
6.3648367 -0.72855741 -0.35088319 15
9.2784748 -1.753186 -0.57257515 14
6.3205991 -0.26159674 -0.42094934 21
6.3537393 -0.72728711 -0.46346459 88
8.9340487 -1.6881059 -0.71237326 17
6.3241692 -0.26174447 -0.53317875 4
6.3446655 -0.7262485 -0.57578629 3
8.7638836 -1.6559529 -0.85659873 0
6.3297453 -0.26197526 -0.64584851 50
6.3573747 -0.72770321 -0.69017005 5
6.3562407 -0.72757345 -0.80345911 65
10.212337 -1.1689653 -1.4728068 1
9.298521 -1.0643646 -1.5083233 2
8.4811668 -0.97080523 -1.5267403 4
7.8415828 -0.89759463 -1.5523661 4
7.2818856 -0.83352834 -1.5714287 4
6.6002526 -0.75550449 -1.5421678 37
6.3655686 -0.72864115 -1.6004479 7
4.7650161 -0.54543233 -1.6499424 7
1.6893131 -0.19336891 -0.79259449 3
6.5689917 -0.79842556 1.7467693 19
5.2709794 -0.64065915 1.0260572 14
9.0250425 -1.0969453 1.2718971 17
11.282215 -1.3712925 0.98673528 2
13.756434 -1.6720206 0.71291161 29
6.3972507 -0.77755135 0.21749628 19
13.752406 -2.6981153 0.38974917 92
6.3190875 -0.30573836 0.1387071 4
6.3841906 -0.77596396 0.10304987 24
13.792343 -2.7059507 0.14228518 39
6.3325357 -0.30638903 0.026778158 47
6.3611765 -0.77316678 -0.010624861 2
10.593735 -2.0784085 -0.081399158 0
6.3440056 -0.30694398 -0.085362181 30
6.3520555 -0.77205813 -0.12375708 51
10.217889 -2.0046706 -0.26284549 0
6.3215394 -0.305857 -0.19701511 10
6.3528509 -0.77215481 -0.23723529 56
9.9489813 -1.9519129 -0.43557152 0
6.3210683 -0.3058342 -0.30895987 52
6.3714895 -0.77442026 -0.35153943 1
9.2464199 -1.8140758 -0.57136464 11
6.3066587 -0.30513704 -0.4201526 2
6.3722692 -0.77451497 -0.46519935 49
8.8829136 -1.7427588 -0.70924884 16
6.3341312 -0.30646625 -0.53418601 8
6.3592148 -0.7729283 -0.57758224 4
8.8029032 -1.7270613 -0.86157006 3
6.3396859 -0.30673501 -0.64706558 63
6.3600349 -0.77302796 -0.69102794 3
6.3628259 -0.77336723 -0.80495435 50
10.203927 -1.2402323 -1.4728068 4
9.2830229 -1.1283015 -1.5070505 2
8.501543 -1.0333167 -1.5316699 4
7.8623986 -0.95563221 -1.5577698 4
7.2875366 -0.88576084 -1.5739443 5
6.3641791 -0.77353168 -1.6014173 6
4.7761111 -0.58051056 -1.6551472 6
1.7023178 -0.20690756 -0.79935437 4
6.5862732 -0.84722614 1.7528948 17
5.2741694 -0.67844349 1.0275751 14
8.9935904 -1.1568918 1.2685719 17
13.742643 -1.7677869 1.2029729 28
13.760275 -1.7700549 0.71373367 27
6.3797712 -0.8206628 0.21709152 13
13.772417 -2.8020296 0.39086115 56
6.3088131 -0.34940419 0.13853174 3
6.3627505 -0.81847334 0.10279354 2
13.784875 -2.804564 0.14240664 35
6.3382297 -0.35103339 0.026811948 60
6.3675256 -0.81908751 -0.010644758 36
10.586806 -2.1539097 -0.081459478 0
6.3377142 -0.35100484 -0.085308425 22
6.3623772 -0.81842524 -0.12406647 29
10.231074 -2.0815353 -0.26355207 0
6.3471937 -0.35152984 -0.1978863 70
6.359199 -0.81801641 -0.23767982 8
9.9429445 -2.0229146 -0.4359149 0
6.3267574 -0.35039803 -0.30934998 61
6.3619666 -0.81837243 -0.35132068 31
9.2296171 -1.8777866 -0.57112253 10
6.3163304 -0.34982052 -0.42094934 34
6.354836 -0.81745523 -0.46433195 3
8.8392696 -1.7983694 -0.70674926 15
6.3318372 -0.35067934 -0.53418601 59
6.3497124 -0.81679612 -0.57722306 60
8.8101397 -1.7924429 -0.86348212 169
6.341363 -0.35120693 -0.64747125 9
6.3584275 -0.81791723 -0.69145691 51
6.3572717 -0.81776851 -0.80495435 4
10.2068 -1.3129532 -1.4745088 3
9.2905874 -1.195096 -1.5095962 2
8.513649 -1.0951544 -1.5351909 4
7.8555355 -1.0104979 -1.5577698 4
7.2966919 -0.93861097 -1.5772985 5
6.7861524 -0.87293768 -1.5882971 6
6.358624 -0.81794244 -1.6014173 6
4.7681909 -0.61335689 -1.653846 7
1.7080234 -0.21971184 -0.80273432 6
6.5878625 -0.89422679 1.7549366 18
5.2731957 -0.71577585 1.028334 15
9.0127716 -1.2233804 1.2724513 17
13.749711 -1.8663657 1.2047027 34
13.767375 -1.8687632 0.7147612 36
6.3897319 -0.86733282 0.21763121 12
13.772081 -2.9022334 0.39141715 60
6.3261766 -0.39468378 0.13897014 50
6.3766971 -0.86556351 0.10311396 0
13.792356 -2.9065058 0.14269009 39
6.3436093 -0.39577138 0.026845738 6
6.3735433 -0.86513537 -0.010664655 45
10.59108 -2.2318912 -0.08161027 0
6.3231335 -0.39449394 -0.085147165 9
6.3327308 -0.8595956 -0.12360238 3
10.21238 -2.1520865 -0.26345113 0
6.3445849 -0.39583227 -0.1978863 45
6.3652163 -0.86400509 -0.23812436 2
9.9442205 -2.0955765 -0.43660164 0
6.3161821 -0.39406022 -0.30895987 10
6.3719292 -0.86491627 -0.35219571 56
9.2240963 -1.9438223 -0.5716067 10
6.3256845 -0.39465308 -0.4217461 61
6.3687406 -0.86448348 -0.46577758 1
8.8225965 -1.8592131 -0.70643681 18
6.3292346 -0.3948746 -0.53418601 50
6.3635931 -0.86378479 -0.57901901 61
6.3586154 -0.39670759 -0.64949971 2
6.3683257 -0.86442715 -0.69317269 58
6.3632059 -0.86373222 -0.80644965 1
10.205234 -1.3852434 -1.4756435 1
9.2859306 -1.2604586 -1.5102326 5
8.501895 -1.1540347 -1.5344867 4
7.8327327 -1.0632036 -1.554682 4
7.2822104 -0.98847657 -1.5756214 5
6.7837539 -0.92081684 -1.5892016 9
6.3642945 -0.86388004 -1.6043254 6
4.7637925 -0.64663017 -1.653846 6
1.6813004 -0.22821724 -0.79090452 6
6.5887876 -0.9435907 1.7569784 20
5.267807 -0.75441104 1.028334 17
9.0231695 -1.2922224 1.2752223 20
13.767219 -1.9716253 1.2074705 36
13.761214 -1.9707652 0.71517223 29
6.3832021 -0.91414851 0.21763121 13
13.762156 -3.0056674 0.39175075 79
6.3430605 -0.44243762 0.13940853 49
6.3741398 -0.91285068 0.10317805 1
13.78631 -3.0109427 0.14285205 41
6.3365474 -0.44198331 0.026828842 6
6.374949 -0.91296655 -0.010677919 52
10.586158 -2.3120265 -0.08170075 0
6.3360324 -0.44194737 -0.085362181 17
6.3579302 -0.91052926 -0.12422117 1
10.21977 -2.232007 -0.26405677 0
6.3455009 -0.44260785 -0.19801076 48
6.3587112 -0.91064113 -0.23812436 1
9.9246874 -2.1675608 -0.43642998 0
6.3370376 -0.4420175 -0.31013018 2
6.3772783 -0.91330016 -0.35285196 58
9.2291031 -2.0156446 -0.57281727 12
6.3305845 -0.44156742 -0.42227727 60
6.3740802 -0.91284209 -0.46664494 1
8.7853556 -1.9187295 -0.70456219 19
6.3341227 -0.44181421 -0.53485751 51
6.3610339 -0.91097373 -0.57937819 54
8.6318769 -1.8852096 -0.84856808 1
6.3396578 -0.44220027 -0.64787698 6
6.3696914 -0.91221362 -0.69403058 58
6.3645611 -0.91147894 -0.80744648 1
10.241839 -1.4667501 -1.4824516 2
9.292078 -1.3307333 -1.5127783 5
8.516592 -1.2196747 -1.538712 4
7.8635798 -1.1261557 -1.5624014 4
7.2708969 -1.0412767 -1.5747828 4
6.788393 -0.97217649 -1.5919151 5
6.3539495 -0.9099592 -1.603356 7
4.7701569 -0.68314177 -1.6577497 6
1.708293 -0.24464735 -0.80442423 5
6.5743899 -0.98841524 1.7549366 17
5.2662954 -0.79175204 1.0290929 16
9.0100107 -1.3545943 1.2746681 17
13.76494 -2.0694661 1.2085085 36
13.762921 -2.0691624 0.71599424 28
6.3845716 -0.95987731 0.21790105 3
13.764239 -3.1069546 0.39241794 95
6.3477917 -0.4873212 0.13958389 47
6.3834319 -0.95970595 0.10343439 12
13.788364 -3.1124001 0.143095 44
6.3412838 -0.48682159 0.026862632 12
11.431512 -1.7186508 -0.019167196 1
10.59317 -2.39116 -0.081881702 0
6.3367801 -0.48647583 -0.085415937 8
6.3672385 -0.9572714 -0.12453056 2
10.20784 -2.3041806 -0.26415771 0
6.3462429 -0.48720232 -0.19813521 38
6.36801 -0.95738745 -0.23871708 26
9.9405003 -2.243835 -0.43780348 0
6.317863 -0.48502359 -0.30934998 19
6.3667974 -0.95720506 -0.35263321 23
9.1875439 -2.0738728 -0.57112253 13
6.3353066 -0.48636273 -0.42280844 67
9.7762041 -1.4697864 -0.71644747 6
8.7600756 -1.9773819 -0.70362484 16
6.32691 -0.4857181 -0.53452176 34
6.358459 -0.95595139 -0.57973742 65
8.6029682 -1.9419185 -0.84703845 4
6.3403835 -0.48675251 -0.64828265 61
6.3671007 -0.95725065 -0.6944595 29
6.3698168 -0.95765901 -0.80894178 0
9.6440172 -1.4499129 -1.397351 2
9.278656 -1.3949834 -1.5121418 4
8.5117636 -1.2796863 -1.5394162 4
7.851645 -1.1804419 -1.5616294 4
7.2789207 -1.0943367 -1.578137 4
6.7737341 -1.0183853 -1.5901061 5
6.3512797 -0.95487207 -1.6043254 6
4.7540503 -0.71473944 -1.653846 7
1.6886176 -0.25387228 -0.79597443 5
6.5711503 -1.0348908 1.7559575 17
5.2645197 -0.82910937 1.0298519 16
8.9964218 -1.4168468 1.2741139 18
13.758032 -2.1667531 1.2092005 32
13.771818 -2.1689241 0.71722734 27
13.782183 -2.1705565 0.47088215 31
13.765578 -3.2084153 0.39308512 89
6.3482199 -0.53195924 0.13967156 10
13.804064 -2.1740026 0.22391559 26
13.793567 -3.2149389 0.14337844 35
6.3576608 -0.53275031 0.026947105 48
11.107083 -1.7492549 -0.018643249 2
10.62686 -2.4768579 -0.082273766 0
6.3611288 -0.53304094 -0.085792221 34
13.842759 -2.1800966 -0.27102798 1
10.226555 -2.3835566 -0.26506615 0
6.3466716 -0.53182948 -0.19825967 1
13.926662 -2.1933105 -0.5226289 0
9.9401617 -2.3168054 -0.43849021 0
6.3302479 -0.53045321 -0.31013018 50
9.9778776 -1.5714164 -0.55323166 6
9.1806183 -2.1397748 -0.5716067 11
6.3317566 -0.53057963 -0.42280844 4
9.4701328 -1.4914516 -0.69476318 7
8.7460585 -2.0384896 -0.70362484 14
6.3551402 -0.53253913 -0.53720778 2
9.7556944 -1.5364248 -0.89043927 3
8.5930796 -2.0028341 -0.84742087 4
6.3368311 -0.53100485 -0.64828265 51
9.5816441 -1.5090135 -1.0461931 2
9.4523325 -1.4886483 -1.2016996 3
9.3520422 -1.4728535 -1.3565027 1
9.2920971 -1.4634128 -1.5159605 2
8.5065126 -1.339691 -1.5401204 4
7.8432131 -1.2352279 -1.5616294 4
7.2595139 -1.1433011 -1.5756214 4
6.7626109 -1.0650438 -1.5892016 8
6.3406258 -0.9985854 -1.603356 8
4.7676272 -0.75085378 -1.6603521 6
1.6760602 -0.26396278 -0.79090452 2
6.5561333 -1.0794834 1.7539157 10
5.2586026 -0.86584187 1.0298519 17
8.9824018 -1.4789745 1.2735597 20
13.758298 -2.2653375 1.2105844 33
13.752398 -2.2643661 0.71702182 50
13.790361 -2.2706168 0.47169167 33
13.78172 -3.3137867 0.39419711 59
6.3324037 -0.57517916 0.13940853 1
13.784603 -2.2696688 0.2238515 27
13.79801 -3.3177032 0.14366187 37
6.3657374 -0.57820696 0.02699779 52
11.102494 -1.8280529 -0.018656513 0
10.628755 -2.5556624 -0.082424566 0
6.3692026 -0.57852167 -0.085953481 44
10.425647 -1.7166083 -0.20435387 8
10.221329 -2.4576976 -0.26536897 0
6.3388219 -0.57576221 -0.19813521 19
10.104907 -1.6637979 -0.37963572 11
9.9431725 -2.3908157 -0.43934864 0
6.3303695 -0.57499444 -0.31032524 49
9.7774982 -1.609889 -0.5427314 15
9.1732206 -2.2056823 -0.57209092 9
6.3239236 -0.57440895 -0.42254284 12
9.3217115 -1.5348427 -0.68464392 13
8.7510004 -2.1041603 -0.70518708 14
6.3353896 -0.57545042 -0.53586477 10
9.2533665 -1.5235895 -0.84554017 6
8.5711451 -2.0609145 -0.84665602 11
6.3369327 -0.57559055 -0.64868832 53
9.2059345 -1.5157796 -1.0063014 2
9.1519175 -1.5068858 -1.1648163 2
9.1774397 -1.511088 -1.3326745 1
9.2894478 -1.5295303 -1.5172333 2
8.5008383 -1.3996838 -1.5408247 4
7.8460164 -1.2918658 -1.5639452 4
7.2629323 -1.1958596 -1.578137 4
6.7588549 -1.1128621 -1.5901061 5
6.3143535 -1.0396738 -1.5985091 7
4.7585363 -0.78350466 -1.6590508 6
1.6849084 -0.27742431 -0.79597443 3
6.5564528 -1.124249 1.7559575 20
5.2643571 -0.90269059 1.0321286 17
8.9880133 -1.5411938 1.2757765 17
13.770464 -2.3612509 1.2130063 34
13.772513 -2.3616023 0.71887141 35
13.786819 -2.3640554 0.47209644 31
13.774965 -3.4089587 0.39464188 64
6.3523307 -0.61949372 0.1399346 8
13.785014 -2.3637459 0.22410785 23
13.806763 -3.4168277 0.14398579 40
6.3617625 -0.62041354 0.02699779 68
11.054644 -1.8955634 -0.018596822 0
10.68146 -2.6433938 -0.082967423 0
6.3692064 -0.62113947 -0.086007237 33
10.231975 -2.5321572 -0.26607555 0
6.3269057 -0.61701423 -0.1978863 1
9.9232178 -2.4557476 -0.43917698 0
6.3303928 -0.61735427 -0.31052029 50
9.6327629 -1.6517504 -0.5352937 10
9.15839 -2.2664721 -0.57209092 11
6.3358645 -0.61788785 -0.42360517 2
9.1972942 -1.5770798 -0.67625934 16
8.7445946 -2.164068 -0.70581192 16
6.3354006 -0.61784267 -0.53620052 4
9.0899229 -1.5586686 -0.83153164 22
8.6925659 -2.1511922 -0.86004043 6
6.3369365 -0.61799246 -0.64909399 53
8.9918528 -1.5418522 -0.98399633 22
8.9617825 -1.5366961 -1.1418889 21
8.9955006 -1.5424778 -1.3077117 13
9.3024521 -1.5951114 -1.5210518 2
8.4952478 -1.4566984 -1.5415288 4
7.8140655 -1.3398945 -1.5593137 4
7.2586956 -1.2446641 -1.5789756 5
6.7436447 -1.1563472 -1.5882971 5
6.3379183 -1.0867764 -1.6062642 7
4.7569633 -0.8156867 -1.6603521 6
1.6901779 -0.28981844 -0.79935437 3
6.5827098 -1.1761155 1.7651457 19
5.2656598 -0.94080162 1.0336465 19
8.9497375 -1.5990261 1.2718971 21
13.773259 -2.4608321 1.2147361 32
13.755692 -2.4576933 0.71887141 51
13.785721 -2.4630587 0.47263613 32
13.777953 -3.5119565 0.39542028 69
6.3438735 -0.66340953 0.13984692 5
13.799674 -2.4655516 0.22462054 24
13.801952 -3.5180738 0.14418826 41
6.3612542 -0.66522712 0.027014686 11
10.997828 -1.9649529 -0.018523868 0
10.744141 -2.7386472 -0.083600767 0
6.3567591 -0.66475701 -0.085899726 8
10.369818 -1.8527482 -0.20373508 0
10.27217 -2.6183436 -0.26758963 0
6.3502789 -0.66407937 -0.1987575 31
10.081322 -1.8012034 -0.37963572 0
9.952302 -2.5368102 -0.44123721 0
6.3338761 -0.66236407 -0.3109104 30
9.5266352 -1.7020988 -0.5300436 8
9.1500826 -2.3323269 -0.57257515 11
6.3353658 -0.66251987 -0.42387077 47
9.0918045 -1.6244088 -0.66932034 11
8.7370024 -2.2270341 -0.70643681 15
6.3388615 -0.66288543 -0.53687203 57
8.9690123 -1.6024699 -0.82147425 21
8.6619034 -2.2078915 -0.85851073 4
6.3205943 -0.66097516 -0.64787698 1
8.8908262 -1.5885006 -0.97413063 27
8.8805113 -1.5866578 -1.1329172 7
8.8558855 -1.5822579 -1.2889897 23
9.3066406 -1.662793 -1.5235975 2
8.496501 -1.5180476 -1.5436414 4
7.827703 -1.3985552 -1.5639452 4
7.2536802 -1.2959961 -1.5798141 5
6.7430792 -1.2047683 -1.5901061 9
6.3301773 -1.1309961 -1.6062642 7
4.7437062 -0.84754556 -1.6577497 6
1.7095273 -0.30543676 -0.80949414 3
6.5667343 -1.2206293 1.7631038 17
5.2666855 -0.97897536 1.0351644 18
8.9344616 -1.6607441 1.2713429 19
13.763579 -2.5583842 1.2154281 34
13.761764 -2.5580466 0.72010446 40
13.779981 -2.5614328 0.47304091 32
13.772437 -3.6131306 0.39597628 37
6.3470359 -0.70856935 0.14002228 53
13.797853 -2.564755 0.22487688 26
13.800268 -3.6204319 0.1444312 39
6.3922324 -0.713615 0.027166737 2
10.983841 -2.0416844 -0.018523868 0
10.813745 -2.8369324 -0.084294423 0
6.351963 -0.70911938 -0.085899726 4
10.321242 -1.9185201 -0.20303896 0
10.679103 -2.8016095 -0.27869293 1
6.3534346 -0.70928365 -0.19900641 46
10.044922 -1.8671572 -0.37874666 0
9.9730043 -2.6163681 -0.44295409 0
6.3410096 -0.70789659 -0.31149554 1
9.4988127 -1.7656462 -0.52916861 6
9.1528873 -2.4012144 -0.57378566 11
6.3464522 -0.7085042 -0.42493311 52
9.0527859 -1.6827384 -0.66729653 10
8.7328129 -2.2910101 -0.70737416 16
6.3380404 -0.70756513 -0.53720778 45
8.7040482 -2.283464 -0.8642469 2
6.367238 -0.71082467 -0.65315086 4
8.801321 -1.635996 -0.96555179 39
8.8262959 -1.6406384 -1.1274345 0
8.7823372 -1.6324672 -1.2799122 16
9.3025694 -1.7291683 -1.5248704 2
8.5127935 -1.5823643 -1.548571 4
7.8216076 -1.453886 -1.5647172 4
7.248301 -1.3473195 -1.5806526 5
6.7498269 -1.2546628 -1.5937241 7
6.3221269 -1.1751616 -1.6062642 5
4.7413921 -0.88133341 -1.6590508 6
1.7002245 -0.31603897 -0.8061142 5
6.4213471 -1.2400436 1.7263511 19
5.2674351 -1.0172087 1.0366821 17
8.9109802 -1.7208235 1.2696803 19
13.76886 -2.6589417 1.217504 31
13.755336 -2.6563301 0.72072095 40
13.789239 -2.6628773 0.47398537 29
13.77004 -3.7154419 0.39664346 26
6.3776755 -0.75710481 0.14081138 43
13.791393 -2.6632931 0.22506914 26
13.739902 -3.7073102 0.14406678 41
6.3553185 -0.7544508 0.02703158 4
10.933972 -2.1114891 -0.018464178 0
10.859328 -2.9300716 -0.084807128 5
6.3508296 -0.75391787 -0.085953481 6
10.331158 -1.9950778 -0.20350304 0
10.381317 -2.8010943 -0.27142534 0
6.3562684 -0.75456357 -0.19925533 47
10.008094 -1.93269 -0.37785757 0
9.9737873 -2.6911345 -0.44381252 0
6.347815 -0.75356001 -0.31208068 14
9.4901762 -1.8326737 -0.52938735 4
9.14361 -2.4671354 -0.57426983 10
6.3254981 -0.75091076 -0.42387077 72
8.9977283 -1.7375758 -0.66411614 12
8.732007 -2.3560762 -0.70862395 17
6.344821 -0.75320458 -0.53821504 47
8.9653215 -1.7313175 -0.8232702 11
8.7378702 -2.3576584 -0.86921823 2
6.3660727 -0.75572741 -0.65355653 3
8.7662563 -1.6928754 -0.96297812 54
8.7795563 -1.6954439 -1.1229488 18
8.7279615 -1.6854802 -1.2736715 6
9.2863941 -1.7933208 -1.5242339 2
8.5092716 -1.6432486 -1.5499794 4
7.8035593 -1.5069665 -1.5631733 4
7.2463984 -1.3993716 -1.5823298 5
6.7370777 -1.3010154 -1.5928196 8
6.3290105 -1.2222124 -1.6101418 7
4.7239823 -0.91226101 -1.6551472 7
1.7050961 -0.32927573 -0.80949414 5
6.4011569 -1.2825636 1.7232884 16
5.2640562 -1.054729 1.037441 31
8.906518 -1.7845485 1.2707887 20
13.753868 -2.7557845 1.21785 38
13.759957 -2.7570045 0.72195405 37
13.793832 -2.7637918 0.47479492 31
13.709089 -3.8018658 0.39564267 43
6.3841372 -0.80310827 0.14107442 46
13.795993 -2.7642248 0.22545364 22
13.729103 -3.8074164 0.14422874 43
6.3856149 -0.80329412 0.027183631 7
10.94642 -2.1932719 -0.018510604 0
13.760253 -3.8160548 -0.10766765 46
6.3811269 -0.80272955 -0.08643727 34
10.305214 -2.0647972 -0.203271 0
10.450134 -2.898078 -0.27374694 0
6.3746462 -0.80191433 -0.20000206 4
10.057067 -2.0150774 -0.38022846 0
9.9817133 -2.7681735 -0.44501436 0
6.3384352 -0.79735911 -0.31188565 2
9.4888992 -1.9012369 -0.5300436 5
9.1684856 -2.5426455 -0.57693303 12
6.3597012 -0.80003428 -0.42652661 28
8.9619083 -1.7956467 -0.66238141 21
8.7307167 -2.4212415 -0.70987374 16
6.3473172 -0.7984764 -0.53888655 5
8.5216808 -2.3632705 -0.84933293 0
6.360641 -0.80015254 -0.65355653 55
8.71523 -1.7462212 -0.95868868 43
8.72859 -1.7488981 -1.1179645 33
8.6538639 -1.7339256 -1.2645941 0
9.2968807 -1.8627632 -1.5280524 2
8.4898701 -1.7010672 -1.548571 4
7.8236351 -1.5675774 -1.5693488 4
7.2402878 -1.4506954 -1.5831683 5
6.7240105 -1.3472519 -1.5919151 8
6.3355441 -1.269417 -1.6140193 7
4.7397509 -0.94967693 -1.6629546 6
1.6885364 -0.33832246 -0.80273432 5
6.4109812 -1.3311514 1.728393 19
5.2681003 -1.093848 1.0397178 18
8.8938427 -1.8466831 1.2707887 18
13.76941 -2.8590271 1.2209638 33
13.767754 -2.8586833 0.72339261 42
13.789858 -2.8632729 0.47533461 31
13.720668 -3.9084349 0.39675465 41
6.3585544 -0.84502357 0.14063603 2
13.780275 -2.8612833 0.22551773 27
13.740656 -3.9141288 0.14463365 45
6.3798513 -0.84785384 0.027183631 50
10.950424 -2.2737038 -0.018543765 0
13.76405 -3.9207928 -0.10790892 42
6.3793316 -0.84778482 -0.086491026 36
10.337537 -2.1464462 -0.20419918 0
10.433494 -2.9720588 -0.27384788 0
6.3451133 -0.84323734 -0.19925533 1
10.003615 -2.0771122 -0.37874666 0
10.027483 -2.8564038 -0.44793305 0
6.3683581 -0.84632647 -0.3136411 39
9.4441109 -1.9609386 -0.52829355 10
9.1735506 -2.6131544 -0.57838565 8
6.3381352 -0.84230995 -0.42546427 4
8.9100924 -1.8500571 -0.65949017 16
8.7327766 -2.4875968 -0.71143591 14
6.341588 -0.84276885 -0.53888655 5
8.7179375 -1.810159 -0.80279624 7
8.5624142 -2.4390678 -0.85506904 0
6.3627892 -0.84558642 -0.65436792 55
8.663888 -1.7989362 -0.95439923 66
8.692853 -1.8049505 -1.1149739 37
8.6415482 -1.7942977 -1.2645941 6
9.2952499 -1.9300297 -1.5299617 2
8.4623671 -1.7570933 -1.5457541 3
7.8009729 -1.6197639 -1.5670329 4
7.2414718 -1.5035912 -1.5856839 5
6.6991811 -1.390992 -1.5882971 9
6.307529 -1.309671 -1.6091723 7
4.7293019 -0.98197401 -1.6616533 6
1.6861334 -0.35010222 -0.80273432 4
6.4653258 -1.3919483 1.7457484 18
5.2484226 -1.1299559 1.037441 13
8.8684483 -1.909327 1.2691261 22
13.779249 -2.9665947 1.2237316 37
13.765955 -2.9637327 0.72442013 55
13.784131 -2.9676459 0.4758743 30
13.710835 -4.0145249 0.39731064 77
6.3759508 -0.89494646 0.1411621 1
13.801939 -2.9714799 0.22622268 25
13.734626 -4.0214906 0.1448766 43
6.3853478 -0.89626551 0.027234316 48
10.941284 -2.3555968 -0.018557029 0
13.76565 -4.0305748 -0.10815019 42
6.3729458 -0.89452469 -0.086491026 33
10.298067 -2.2171159 -0.20373508 0
10.399914 -3.0450888 -0.27354506 1
6.3625174 -0.89306092 -0.20000206 1
10.019382 -2.1571169 -0.37993208 0
10.048464 -2.9421847 -0.44982159 0
6.358027 -0.89243066 -0.31344604 50
9.4138641 -2.026752 -0.52741855 8
9.2001305 -2.6937931 -0.58129084 7
6.3476005 -0.89096719 -0.42652661 1
8.8962908 -1.9153215 -0.65949017 12
8.7487507 -2.5616293 -0.71424794 16
6.3668175 -0.89366454 -0.54157263 1
8.6615934 -1.8647923 -0.79884511 35
8.5519466 -2.5040052 -0.85583389 1
6.3682423 -0.89386451 -0.65558493 47
8.6310291 -1.858212 -0.95225453 29
8.6405897 -1.8602704 -1.1099898 35
8.6320333 -1.8584284 -1.2651615 1
9.2692699 -1.9956217 -1.5280524 3
8.4877529 -1.8273655 -1.5527962 2
7.8003998 -1.6793822 -1.5693488 4
7.2264318 -1.5558101 -1.5848454 5
6.7154684 -1.4458026 -1.5946286 8
6.3015532 -1.356689 -1.6101418 5
4.7293725 -1.0182073 -1.6642557 6
1.687066 -0.36321583 -0.80442423 2
6.4630013 -1.438731 1.7477902 19
5.2595739 -1.1708355 1.0412357 18
8.8549032 -1.971193 1.2691261 19
13.762093 -3.0635841 1.2240776 34
13.756627 -3.0623674 0.72503668 46
13.786491 -3.0690155 0.47668386 33
13.71694 -4.1204982 0.39831144 76
6.3695474 -0.93943721 0.1411621 2
13.808186 -3.0738449 0.22667128 28
13.752185 -4.1310859 0.14536248 45
6.3908067 -0.94257277 0.027285 50
11.006565 -2.4501753 -0.018696306 0
13.775483 -4.1380844 -0.10845178 43
6.3823733 -0.94132888 -0.08670605 37
10.30576 -2.2941687 -0.20419918 0
13.782977 -4.1403356 -0.36327994 43
6.3679934 -0.93920803 -0.20037544 38
10.02749 -2.2322228 -0.38082117 0
10.123362 -3.0410058 -0.45411378 0
6.3674512 -0.93912804 -0.31422624 47
9.4150801 -2.0958941 -0.52829355 9
9.2269859 -2.7717392 -0.58419609 7
6.3530707 -0.93700713 -0.42732334 2
8.8865967 -1.9782484 -0.65977931 12
8.7573881 -2.6306746 -0.71643507 16
6.3604236 -0.93809152 -0.54157263 24
8.6444759 -1.9243498 -0.79848588 24
8.7554321 -2.6300869 -0.87801367 4
6.3697205 -0.93946272 -0.65639633 14
8.6178455 -1.9184216 -0.95225453 5
8.6002741 -1.9145099 -1.1065007 40
8.6304436 -1.921226 -1.2668635 7
9.2666769 -2.0628581 -1.5299617 3
8.4901628 -1.889998 -1.5556132 3
7.8038101 -1.7372088 -1.5724366 4
7.2153945 -1.6062214 -1.5848454 5
6.7014079 -1.4918027 -1.5937241 8
6.2881403 -1.3998051 -1.6091723 7
4.7258406 -1.052021 -1.6655569 6
1.6880281 -0.37577251 -0.8061142 3
6.4226465 -1.4768825 1.739623 20
5.2742362 -1.2128065 1.0457891 15
8.8409262 -2.032964 1.2691261 20
13.771439 -3.1667314 1.2268455 36
13.754377 -3.1628084 0.72606421 45
13.788105 -3.1705639 0.47749338 30
13.726051 -4.2279305 0.39942342 52
6.3746901 -0.98571473 0.14142513 9
13.798083 -3.1728585 0.22686353 27
13.757412 -4.2375903 0.1457269 45
13.788013 -2.1320326 0.058928844 40
11.074952 -2.5466766 -0.018842217 0
13.765371 -4.2400417 -0.10860258 43
13.84618 -2.141027 -0.1883021 1
10.277801 -2.3633721 -0.20396712 0
13.772844 -4.2423434 -0.36378464 46
9.9960794 -2.2985907 -0.38022846 0
10.113343 -3.1151357 -0.45462885 0
6.3488951 -0.98172605 -0.3136411 0
9.3885412 -2.1588876 -0.5276373 6
9.2684631 -2.8548937 -0.5880698 5
9.7739697 -1.5113434 -0.65811515 8
8.8881216 -2.0438166 -0.66093576 11
8.7540541 -2.696444 -0.71768481 15
9.6625376 -1.4941128 -0.82360667 4
8.6191835 -1.9819744 -0.79740834 22
8.7482729 -2.6946633 -0.87916088 2
9.5759706 -1.480727 -0.98783994 1
8.5848637 -1.9740826 -0.95010984 13
8.5750942 -1.9718362 -1.1050055 44
8.6013861 -1.9778819 -1.2645941 5
9.2635946 -2.1301563 -1.531871 3
8.4729242 -1.9483422 -1.554909 3
7.7800169 -1.7890087 -1.5701207 3
7.2040048 -1.6565553 -1.5848454 5
6.6984243 -1.5402974 -1.595533 7
6.2857785 -1.4454098 -1.611111 5
4.7110085 -1.0832926 -1.6629546 6
1.6959634 -0.38998544 -0.81118411 2
6.4234686 -1.524364 1.7426857 20
5.2579985 -1.2477844 1.0442713 14
8.8303728 -2.0955503 1.2696803 20
13.783892 -3.2710781 1.2299592 33
13.755282 -3.2642889 0.72729725 48
13.788974 -3.2722843 0.47830293 30
13.74577 -4.3392997 0.40086898 44
13.773553 -2.2283621 0.30590966 40
13.81062 -3.277421 0.22744031 26
13.819035 -4.3624282 0.14669868 39
13.792534 -2.2314332 0.059013318 42
11.103607 -2.6350152 -0.018921804 0
13.842237 -4.3697529 -0.10944703 38
10.545909 -1.7061759 -0.14357834 7
10.3272 -2.4507649 -0.20528205 0
13.845849 -4.370893 -0.36651 37
10.194442 -1.6493137 -0.3214719 7
10.02646 -2.3793957 -0.38200662 0
10.239976 -3.2325819 -0.46132466 31
10.029489 -1.6226265 -0.49601325 5
9.3926706 -2.2289903 -0.52873105 5
9.2863808 -2.9315486 -0.59049082 4
9.5346632 -1.5425709 -0.64271134 12
8.8775196 -2.1067388 -0.6612249 14
8.7806492 -2.771898 -0.72143418 13
9.226922 -1.4927828 -0.78734517 12
8.6090126 -2.0430191 -0.79776752 16
8.6305265 -2.7245066 -0.86921823 0
9.1490011 -1.4801764 -0.94483745 6
8.5631342 -2.0321314 -0.94925195 19
8.5649815 -2.0325699 -1.1055039 40
8.5912209 -2.0387969 -1.2651615 4
9.2677097 -2.1993353 -1.5350531 2
8.4629469 -2.0083559 -1.5556132 2
7.7826128 -1.8469048 -1.5732085 3
7.1998754 -1.7086143 -1.5865225 5
6.6950908 -1.5888231 -1.597342 7
6.2755346 -1.4892576 -1.611111 8
4.703331 -1.1161553 -1.6629546 7
1.6931995 -0.40181598 -0.81118411 3
6.39013 -1.5636548 1.7365602 18
5.272048 -1.2900618 1.0488248 15
8.4653692 -2.0714626 1.2192477 6
13.776202 -3.3710153 1.2313432 36
13.767081 -3.3687832 0.72914684 32
13.789092 -3.3741691 0.47911245 31
13.783622 -4.4573026 0.40287054 35
13.757661 -2.3244638 0.30590966 56
13.795173 -3.3756571 0.22756848 27
13.814884 -4.467412 0.14698213 39
13.792397 -2.3303328 0.059080895 41
13.804695 -3.3779874 -0.023564378 21
13.830422 -4.4724369 -0.10959782 35
10.340917 -2.5304062 -0.20590083 0
13.849239 -4.4785218 -0.36741844 36
10.017369 -2.4512346 -0.38230297 0
10.194344 -3.2966135 -0.46029454 18
9.8445826 -1.6633189 -0.48743102 8
9.4001579 -2.300204 -0.5300436 4
9.3226728 -3.0147355 -0.59412235 4
9.3544397 -1.5805054 -0.63129121 15
8.8703451 -2.1705596 -0.66180319 12
8.7914391 -2.8429468 -0.7239337 12
9.1337423 -1.5432168 -0.7802943 17
8.5790615 -2.099283 -0.79633075 13
8.6075077 -2.7834675 -0.86883581 0
8.9971886 -1.5201451 -0.93023282 21
8.5680542 -2.0965893 -0.95139664 77
8.5621481 -2.0951443 -1.1069992 31
8.7613907 -2.1438985 -1.2923937 3
9.2521296 -2.2639816 -1.5350531 2
8.4601946 -2.0701964 -1.5577258 3
7.7657175 -1.9002589 -1.5724366 3
7.1953702 -1.7606958 -1.5881995 4
6.6800504 -1.6345979 -1.5964376 7
6.2725239 -1.5348768 -1.6130499 6
4.6990986 -1.1498621 -1.6642557 6
1.690353 -0.41362676 -0.81118411 5
6.3640571 -1.6044464 1.7324766 18
5.2705297 -1.3287565 1.0503427 13
8.4737492 -2.136322 1.2225729 12
13.767789 -3.4710057 1.2327272 37
13.774215 -3.4726257 0.73079091 31
13.788458 -3.4762168 0.479922 31
13.786331 -4.5647316 0.40387133 37
13.764728 -2.4246161 0.30643573 36
13.81393 -3.4826384 0.22827342 26
13.817533 -4.5750628 0.14734654 39
13.783669 -2.4279525 0.059114687 41
13.823441 -3.4850361 -0.023637332 28
13.844429 -4.5839682 -0.10995974 37
10.509243 -1.8511721 -0.14341708 0
10.334633 -2.6054707 -0.20613287 0
13.836617 -4.5813818 -0.36792314 35
10.182233 -1.7935702 -0.32184526 0
10.011641 -2.5240409 -0.3827475 0
13.832064 -4.579874 -0.62597311 56
9.7776461 -1.7223033 -0.48470032 2
9.3761244 -2.3638206 -0.5296061 5
9.3430929 -3.0935507 -0.59678549 3
9.2527733 -1.6298486 -0.62518281 11
8.8472385 -2.2304828 -0.6612249 11
8.8092346 -2.9167869 -0.72705817 12
9.0010567 -1.5855095 -0.7698859 14
8.6028261 -2.1688638 -0.79992265 12
8.6407833 -2.861012 -0.87418956 1
8.888381 -1.565662 -0.92009073 25
8.653471 -2.181632 -0.96254921 6
8.5550089 -2.1568089 -1.107996 4
