# .PCD v0.7 - Point Cloud Data file format
VERSION 0.7
FIELDS x y z intensity
SIZE 4 4 4 4
TYPE F F F F
COUNT 1 1 1 1
WIDTH 1389
HEIGHT 1
VIEWPOINT 0 0 0 1 0 0 0
POINTS 1389
DATA ascii
13.811205 -11.324481 0.91883188 26
13.858696 -11.363421 0.6048609 36
13.821514 -13.125296 0.53008109 31
13.824471 -9.7484808 0.37087929 41
13.870992 -11.373504 0.28742456 23
13.866755 -13.168258 0.1935872 40
13.85709 -9.7714825 0.071616791 36
13.906776 -11.402845 -0.029818587 27
13.913478 -13.212627 -0.14467275 32
13.865767 -9.7776012 -0.22802669 25
13.848531 -11.355086 -0.34636512 39
13.92684 -13.225316 -0.48481065 29
13.902782 -9.8037024 -0.52956367 31
13.884888 -11.384897 -0.66562206 39
13.87787 -13.178812 -0.8222121 45
13.857054 -9.7714567 -0.82779402 33
13.929224 -11.42125 -0.9865855 35
13.905736 -13.205275 -1.1628238 16
8.9372454 -6.3021989 -0.72769791 1
13.938292 -11.428686 -1.3062589 36
13.975462 -13.271489 -1.5100439 18
8.8276758 -6.2249351 -0.90989572 0
12.947982 -10.616683 -1.5096879 5
11.820405 -11.224987 -1.5655872 1
8.8652945 -6.2514615 -1.105894 0
11.129556 -9.1256657 -1.5523465 2
9.7841053 -8.0224657 -1.588975 2
8.6987953 -7.1325674 -1.6118044 2
7.8114839 -6.4050169 -1.6279709 2
7.0914211 -5.8146024 -1.6401191 3
6.4949069 -5.3254914 -1.6519461 2
6.003469 -4.9225373 -1.6645069 3
5.5650692 -4.5630717 -1.6706064 4
5.2096353 -4.2716346 -1.6828452 6
3.860882 -3.1657257 -1.7176056 6
2.882026 -2.3631139 -1.737286 9
4.6089482 -3.8332224 1.5824035 20
4.625885 -3.8473084 1.1626625 20
8.820365 -7.3358212 1.6049733 21
13.78116 -11.461671 1.5562185 27
13.80859 -11.484485 0.92396963 30
13.82513 -11.49824 0.60688478 32
13.82747 -13.31577 0.53386188 35
13.811363 -9.8843174 0.37236983 39
13.828151 -11.500753 0.28819358 28
13.866679 -13.353528 0.19488291 44
13.866603 -9.9238501 0.072022267 42
13.860661 -11.527791 -0.029891541 32
13.90157 -13.387128 -0.1455172 33
13.871981 -9.9276991 -0.22926304 24
13.836564 -11.507751 -0.34806678 46
13.932102 -13.41653 -0.4882426 29
13.899028 -9.9470558 -0.53205281 30
13.838872 -11.50967 -0.667252 51
13.859979 -9.9191093 -0.83208513 37
13.861432 -11.528433 -0.98746049 42
12.970552 -12.490563 -1.0918875 0
13.881568 -9.9345598 -1.1358993 34
13.898041 -11.55888 -1.3100175 38
12.87999 -12.403353 -1.4010007 1
13.931237 -9.9701071 -1.4430745 20
12.732654 -10.589637 -1.493165 3
11.753223 -11.318283 -1.5671167 2
12.196623 -8.7287025 -1.5290221 14
11.068633 -9.2056856 -1.5527754 2
9.7400646 -8.1007271 -1.5909686 2
8.6579218 -7.2007184 -1.6135063 3
7.7756872 -6.4669714 -1.6298802 2
7.0506549 -5.8639684 -1.6401191 4
6.4666224 -5.3782334 -1.6542619 3
5.9689569 -4.9643297 -1.6645069 3
5.5240903 -4.5943379 -1.6678928 4
5.1856542 -4.3128633 -1.6847841 6
3.8415952 -3.1950212 -1.7189068 7
2.8654583 -2.3831766 -1.737286 8
4.5538545 -3.8387775 1.5721945 21
4.5612321 -3.8449965 1.1527966 27
8.8290682 -7.442668 1.6155032 23
13.625624 -11.486036 1.5472231 23
13.762665 -11.601559 0.92602473 34
13.803588 -11.636056 0.60931337 32
13.830423 -13.496546 0.53742021 34
13.826418 -10.034423 0.37456179 42
13.824965 -11.654076 0.28973165 27
13.869414 -13.534595 0.19617863 40
13.855515 -10.05554 0.072309479 37
13.866479 -11.689071 -0.030070612 31
13.918396 -13.582394 -0.14663309 32
13.877047 -10.071167 -0.23044564 25
13.796635 -11.630195 -0.34899494 44
13.934392 -13.598003 -0.49147263 19
13.903937 -10.090683 -0.53479081 32
13.838642 -11.665606 -0.67095649 49
12.807673 -12.498486 -0.76881725 0
13.85209 -10.053055 -0.83559608 47
13.873229 -11.694761 -0.9938044 41
12.773125 -12.46477 -1.0822033 2
13.896128 -10.085015 -1.1425389 35
13.897335 -11.715082 -1.3172456 36
12.82313 -12.513569 -1.4038128 3
13.939002 -10.116131 -1.4507968 19
12.713923 -10.717498 -1.4992713 4
11.660801 -11.379299 -1.5648223 2
12.196435 -8.8514748 -1.5363244 2
11.028623 -9.296834 -1.555778 1
9.6921959 -8.1702614 -1.5919654 2
8.6160316 -7.2630844 -1.6146411 2
7.7416854 -6.5260339 -1.6317894 1
7.0025783 -5.9029865 -1.6380064 2
6.4248099 -5.4159427 -1.6527181 4
5.9299212 -4.998765 -1.6628299 3
5.4934988 -4.6308727 -1.6678928 4
5.1569371 -4.3471603 -1.6847841 6
3.8203211 -3.2204287 -1.7189068 6
2.8495898 -2.4021282 -1.737286 8
4.4844508 -3.8368552 1.5579017 20
4.5090508 -3.8579028 1.1467253 28
8.8103943 -7.5380931 1.6221536 23
13.43811 -11.497524 1.5354598 26
13.753136 -11.767057 0.93116248 35
13.806012 -11.812298 0.61322618 32
13.827717 -13.693225 0.54120094 32
13.816874 -10.182957 0.37631536 39
13.830334 -11.833108 0.29165423 25
13.869301 -13.734404 0.1975958 44
13.86837 -10.220909 0.072765633 44
13.841208 -11.842411 -0.030203257 31
13.903723 -13.768492 -0.14753786 34
13.870461 -10.22245 -0.23157449 25
13.793057 -11.801214 -0.35108337 41
13.906837 -10.249259 -0.53777778 30
13.831727 -11.834299 -0.67480916 45
12.602129 -12.479557 -0.76194972 0
13.861645 -10.215953 -0.84066737 36
13.866035 -11.863653 -0.99949205 41
12.584952 -12.462547 -1.0739717 2
13.889297 -10.236333 -1.1481161 37
13.88384 -11.878887 -1.3241845 36
12.561046 -12.438873 -1.3850662 2
13.931853 -10.267695 -1.4578476 17
12.689507 -10.857026 -1.5057368 3
11.594049 -11.481282 -1.5671167 2
12.112001 -8.9264755 -1.5338902 7
10.999461 -9.4110384 -1.5613543 1
9.6260128 -8.2359285 -1.5909686 2
8.5926456 -7.351789 -1.6203144 1
7.7056417 -6.5928769 -1.6343352 2
6.9710865 -5.9643984 -1.6408232 3
6.4028301 -5.4782028 -1.6573497 3
5.9139223 -5.0598979 -1.6686996 4
5.4534841 -4.6659513 -1.6660838 4
5.1190348 -4.3797998 -1.6828452 7
3.8081081 -3.2581825 -1.7241117 6
2.8401692 -2.430023 -1.7423559 9
4.4195814 -3.8351171 1.5446301 21
4.446413 -3.8584006 1.1376182 27
8.7784967 -7.6175919 1.6260331 26
7.5184927 -6.5242152 0.86425829 10
13.752112 -11.933475 0.93671119 37
13.786617 -11.963417 0.61605954 38
13.838996 -13.89709 0.54542643 36
13.822308 -10.336647 0.37841964 41
13.816862 -11.989662 0.29312819 28
13.874682 -13.932926 0.19905348 39
13.860744 -10.36539 0.073103525 44
13.85185 -12.020022 -0.030408857 30
13.914513 -13.972923 -0.14868391 32
13.878834 -10.378918 -0.23291835 27
13.779806 -11.957506 -0.35286236 43
12.573039 -12.625819 -0.44978479 0
13.91499 -10.405956 -0.5408892 32
13.830284 -12.001309 -0.67881 46
12.42446 -12.476617 -0.75645572 0
13.866776 -10.369901 -0.8453486 35
13.876388 -12.041315 -1.0062734 40
12.424389 -12.476545 -1.0676771 6
13.89101 -10.388024 -1.1542245 41
13.906033 -12.06704 -1.3343039 32
12.397924 -12.449968 -1.3766301 1
13.933249 -10.41961 -1.46557 19
12.679596 -11.002793 -1.5136391 4
11.536087 -11.584515 -1.570176 1
11.979278 -8.9583855 -1.5249653 2
10.936495 -9.4902067 -1.5617832 1
9.5982561 -8.3289423 -1.5959529 2
8.5441008 -7.4141932 -1.6208818 3
7.653461 -6.641335 -1.6330624 2
6.9292769 -6.0129204 -1.6408232 3
6.3644285 -5.5227695 -1.6573497 4
5.8607292 -5.0856814 -1.6636684 4
5.4443192 -4.7243395 -1.6733198 4
5.1000576 -4.4256048 -1.6867228 7
3.7824116 -3.2822096 -1.7228105 6
2.8067055 -2.435535 -1.7322161 8
4.3607631 -3.8377719 1.5334001 20
4.3898854 -3.8634019 1.1300291 28
8.6834688 -7.6420517 1.6182742 22
7.5565238 -6.6502619 0.87394577 1
13.743434 -12.09517 0.94184893 24
13.825803 -12.16766 0.62159139 35
13.831292 -14.084654 0.54898477 52
13.823084 -10.488487 0.38043624 36
13.864926 -12.202091 0.29594797 22
13.877967 -14.132184 0.20051116 42
13.861335 -10.51751 0.07349211 39
13.902719 -12.235352 -0.030707307 24
13.906309 -14.161046 -0.14964899 33
13.869764 -10.523907 -0.23399344 24
13.795063 -12.140607 -0.35541487 41
12.38653 -12.613427 -0.4462519 1
13.905707 -10.551179 -0.54337835 34
13.878192 -12.213766 -0.68532991 43
12.247456 -12.471806 -0.75096172 0
13.860882 -10.517167 -0.84944463 36
13.917912 -12.248722 -1.0154612 33
12.323 -12.548734 -1.0664666 1
13.888102 -10.53782 -1.1600673 38
13.950232 -12.277165 -1.3467362 28
12.207328 -12.430943 -1.3650696 1
13.92685 -10.567222 -1.4726208 14
12.671258 -11.151581 -1.5219005 3
11.466094 -11.67613 -1.5717057 2
11.897427 -9.0273638 -1.5225312 4
10.869974 -9.5663261 -1.5617832 1
9.5428543 -8.3983698 -1.5964513 1
8.4921322 -7.4736614 -1.6208818 2
7.6217322 -6.7076497 -1.6362444 2
6.9107766 -6.0819597 -1.646457 2
6.3168783 -5.5592885 -1.6550338 4
5.8426976 -5.1419768 -1.6686996 5
5.3907294 -4.7442136 -1.6669884 4
5.06321 -4.4559741 -1.6847841 7
3.7650843 -3.3135335 -1.7254128 7
2.7950771 -2.4598606 -1.7355961 8
4.2919192 -3.8279946 1.5180864 19
4.3407183 -3.8715186 1.1239578 27
8.5705099 -7.6441016 1.6066359 22
7.5003552 -6.6896224 0.87256181 1
13.79707 -12.305709 0.95109683 26
13.843254 -12.346901 0.62604386 37
13.848878 -14.290934 0.5534327 40
13.841968 -10.648208 0.38289124 38
13.870253 -12.370981 0.29780644 25
13.881356 -14.32445 0.20192833 40
13.864194 -10.665305 0.073880687 42
13.91679 -12.412488 -0.030919541 25
13.912293 -14.356373 -0.15073471 28
13.885256 -10.681508 -0.23544481 28
13.845562 -12.348959 -0.35881817 36
12.188508 -12.577565 -0.4421134 0
13.914645 -10.704116 -0.54648978 30
13.889358 -12.388021 -0.68992347 34
12.092161 -12.478143 -0.74649781 0
13.869991 -10.669765 -0.85432088 34
13.92877 -12.423173 -1.0222425 35
12.092239 -12.478224 -1.0536351 2
13.893829 -10.688103 -1.1664413 38
13.951864 -12.44377 -1.3548316 27
12.102412 -12.488721 -1.3625702 2
13.935441 -10.720114 -1.4810147 13
12.686212 -11.314926 -1.5326762 4
11.432736 -11.797668 -1.5778242 2
11.840447 -9.1084986 -1.5229368 2
10.853776 -9.680563 -1.5686463 1
9.5136013 -8.4852514 -1.6009371 1
8.448288 -7.5350904 -1.6220164 2
7.5888658 -6.7685657 -1.6387901 2
6.8732262 -6.1302814 -1.6471612 3
6.2886558 -5.6088986 -1.6573497 3
5.802628 -5.1754069 -1.6670226 5
5.3620543 -4.7824559 -1.6678928 4
5.0306497 -4.4868736 -1.6838146 6
3.7458477 -3.3409493 -1.7267141 6
2.794935 -2.4928231 -1.7457359 8
4.2306724 -3.8267312 1.5058357 32
4.2873716 -3.8780167 1.1171274 29
8.4611177 -7.6532569 1.5961061 22
7.4918923 -6.7765718 0.87705958 1
13.808591 -12.490157 0.95787865 27
13.848633 -12.526376 0.63022649 30
13.850982 -14.494226 0.55754703 48
13.820886 -10.78641 0.38438177 38
13.863638 -12.539948 0.29953676 21
13.891551 -14.53668 0.20354797 40
13.86823 -10.82336 0.074303053 43
13.909895 -12.581788 -0.03109861 24
13.93332 -14.580388 -0.1520617 32
13.889173 -10.839705 -0.23678868 29
13.845028 -12.523115 -0.36106128 39
12.031338 -12.590077 -0.43958992 0
13.908916 -10.855114 -0.54922783 30
13.897402 -12.570488 -0.69466519 34
11.924685 -12.478471 -0.74151891 0
13.861306 -10.817956 -0.85841697 35
13.921679 -12.592447 -1.028149 32
11.902767 -12.455536 -1.0446773 0
13.89124 -10.841318 -1.1725497 36
13.965251 -12.63186 -1.3646618 22
11.946053 -12.500832 -1.354759 0
13.923105 -10.866187 -1.4877298 12
12.62464 -11.41925 -1.5348314 3
11.344593 -11.87144 -1.5770594 2
11.811077 -9.2178698 -1.5273993 1
10.818374 -9.7854433 -1.5733647 3
9.4659081 -8.5621099 -1.6029308 1
8.4189711 -7.6151342 -1.6265551 1
7.5385003 -6.8187299 -1.6381537 2
6.8273425 -6.1754732 -1.646457 3
6.2639003 -5.6658278 -1.6612093 3
5.7721586 -5.2210374 -1.6686996 4
5.3661027 -4.8537512 -1.6796513 4
5.0020819 -4.524487 -1.6847841 5
3.7196283 -3.364481 -1.7254128 6
2.7640209 -2.5001142 -1.737286 9
4.1896033 -3.8431017 1.5007311 18
4.2399344 -3.8892701 1.111815 26
8.3520155 -7.6612606 1.5855763 23
7.4855132 -6.8664227 0.88190329 2
13.809372 -12.667266 0.96404392 26
13.85217 -12.706524 0.63440913 32
13.839952 -14.686597 0.56121659 60
13.833035 -10.952143 0.38683674 35
13.887752 -12.739163 0.30197203 24
13.882997 -14.732274 0.20492467 45
13.867595 -10.979506 0.074708529 42
13.91015 -12.759708 -0.031297579 23
13.921719 -14.773365 -0.15305695 31
13.879011 -10.988544 -0.23791753 28
13.848625 -12.703273 -0.36345905 34
11.860881 -12.586457 -0.43656173 0
13.923697 -11.023923 -0.55283707 31
13.882946 -12.734756 -0.69836968 35
11.768762 -12.488704 -0.73722672 0
13.873149 -10.983903 -0.86387837 40
13.9335 -12.781128 -1.0355866 31
11.752544 -12.471494 -1.0391089 0
13.893443 -10.99997 -1.1791893 39
13.959044 -12.804559 -1.3727573 18
11.770975 -12.491053 -1.3447608 0
13.89378 -11.000237 -1.4927661 9
12.541676 -11.504415 -1.5344722 2
11.316055 -12.008303 -1.5847076 2
11.783875 -9.3297434 -1.5322676 1
10.76738 -9.8768616 -1.5759383 3
9.4088259 -8.6306677 -1.6034292 1
8.3801918 -7.6871066 -1.6293918 1
7.4936233 -6.8738623 -1.6387901 2
6.8014736 -6.2389565 -1.6506823 3
6.2184076 -5.7041135 -1.6596655 4
5.7384501 -5.2638512 -1.6695381 4
5.314858 -4.8752923 -1.6742244 4
4.9760928 -4.5645447 -1.6867228 7
3.7016239 -3.3954806 -1.7280153 6
2.7652011 -2.5365047 -1.7491157 9
4.1258583 -3.8380125 1.4874593 18
4.1983008 -3.905401 1.1080204 26
8.2345152 -7.6600232 1.5733838 21
7.4869957 -6.9646554 0.88778496 3
13.814196 -12.85043 0.97062021 28
13.859717 -12.892776 0.6388616 32
13.83779 -14.891234 0.56533092 41
13.83107 -11.108544 0.38894102 36
13.892184 -12.922977 0.30402276 22
13.883272 -14.940179 0.20646332 42
13.871694 -11.141172 0.075147793 46
13.91152 -12.940965 -0.031503178 23
13.924431 -14.98447 -0.15423316 23
13.886157 -11.152788 -0.23936889 28
13.847446 -12.88136 -0.36577952 34
11.704672 -12.595725 -0.43403828 0
13.918093 -11.178437 -0.55569959 31
13.881503 -12.913042 -0.70281512 37
11.626881 -12.512012 -0.73379296 0
13.861547 -11.133021 -0.8679744 41
13.928737 -12.95698 -1.0419306 31
11.610833 -12.494743 -1.0342668 0
13.900331 -11.164172 -1.1863601 42
13.968626 -12.994086 -1.3825874 20
11.588475 -12.470683 -1.3338252 0
13.903662 -11.166847 -1.5021673 7
12.472721 -11.602545 -1.5359091 2
11.231946 -12.087012 -1.5847076 2
11.743277 -9.431715 -1.535513 1
10.698163 -9.9517908 -1.5759383 3
9.3744965 -8.7204723 -1.607915 1
8.3263206 -7.7454238 -1.6293918 2
7.4656916 -6.9448376 -1.6432451 2
6.7750492 -6.3023791 -1.6549076 3
6.1813078 -5.7500606 -1.6604375 4
5.7044253 -5.3064485 -1.6703767 4
5.2949567 -4.9255471 -1.6787468 4
4.9497876 -4.6044593 -1.6886616 6
3.6778286 -3.4212401 -1.7280153 6
2.7341528 -2.543401 -1.7406659 12
4.0680175 -3.8375299 1.4762293 21
4.1566501 -3.9211407 1.1042259 26
8.1174421 -7.6575208 1.5611913 24
7.507761 -7.0823827 0.89608848 5
13.808415 -13.026052 0.97658002 30
13.862428 -13.077004 0.64317912 31
13.85235 -15.117188 0.57022363 41
13.82759 -11.265454 0.3910453 33
13.888906 -13.101982 0.30594534 26
13.886721 -15.154696 0.20808296 43
13.864901 -11.295852 0.07553637 40
13.919765 -13.131092 -0.031728674 24
13.894781 -11.320196 -0.24087402 27
13.844454 -13.060048 -0.36809996 35
11.554317 -12.609324 -0.43171668 0
13.926503 -11.34604 -0.55918437 29
13.892783 -13.105639 -0.70800138 33
11.455551 -12.50154 -0.72847062 0
13.86092 -11.292609 -0.87285072 43
13.9251 -13.136127 -1.0484931 31
11.434306 -12.478355 -1.0262774 0
13.899408 -11.323965 -1.1929997 37
13.964631 -13.173417 -1.3912612 20
11.42839 -12.471899 -1.3253893 0
13.806823 -11.248535 -1.5001527 6
12.417498 -11.713942 -1.5391418 2
11.139219 -12.156325 -1.5835603 2
11.689485 -9.5235224 -1.5371357 1
10.651568 -10.048067 -1.5793699 3
9.3307104 -8.8020468 -1.6109055 2
8.2691641 -7.8006463 -1.6288245 2
7.4313889 -7.0103383 -1.6464272 2
6.7280211 -6.3468218 -1.6542034 3
6.158144 -5.8092332 -1.665069 4
5.6843104 -5.3622465 -1.675408 4
5.2661095 -4.9677401 -1.6805558 4
4.9259906 -4.6468916 -1.6915697 6
3.6538544 -3.4468327 -1.7280153 6
2.7163301 -2.562427 -1.7406659 12
4.0062537 -3.8351529 1.4639785 24
4.0370126 -3.8645983 1.0799404 10
8.0038624 -7.6620297 1.5501072 22
7.4873095 -7.1675386 0.89989424 3
13.810673 -13.220841 0.9835673 26
13.849946 -13.258437 0.64709193 32
13.840311 -15.32813 0.57433796 71
13.8186 -11.427677 0.39314958 36
13.873388 -13.280878 0.30773973 24
13.882479 -15.37483 0.2097026 36
13.864952 -11.466009 0.075992525 41
13.927159 -13.332353 -0.031967435 23
11.690071 -12.946741 -0.13152343 0
13.866907 -11.467626 -0.2418416 29
13.843684 -13.252442 -0.37065244 37
11.399939 -12.625421 -0.42939508 0
13.858364 -11.460561 -0.55980664 41
11.30736 -12.522888 -0.7248652 0
13.860898 -11.462657 -0.87811702 42
11.267607 -12.478862 -1.0194985 0
13.874465 -11.473876 -1.1980457 50
13.965678 -13.369226 -1.4010913 21
11.259158 -12.469505 -1.3163283 0
12.777938 -10.567073 -1.3967403 14
12.371587 -11.843217 -1.5441704 2
11.04981 -12.237653 -1.5835603 2
11.650026 -9.6343145 -1.5411925 1
10.603484 -10.150626 -1.5832304 3
9.263072 -8.8674612 -1.6104071 2
8.237505 -7.8856945 -1.6339304 2
7.3940659 -7.0782771 -1.6496093 2
6.6727848 -6.3878007 -1.6520908 3
6.1068907 -5.8460751 -1.6627532 4
5.6505022 -5.4091783 -1.677085 4
5.2295537 -5.0062079 -1.6805558 4
4.8833861 -4.6748247 -1.6886616 5
3.6284904 -3.4735234 -1.7280153 6
2.7105687 -2.5948048 -1.7491157 12
3.9516313 -3.8360894 1.4537694 23
4.0578394 -3.9391918 1.0928421 19
7.9046974 -7.6735716 1.54124 23
7.5028524 -7.2834759 0.90785182 2
13.812626 -13.408757 0.99034911 26
13.848837 -13.44391 0.65140945 34
13.844634 -15.549805 0.57900828 54
13.778315 -11.557282 0.3942894 45
13.88938 -13.483268 0.310175 26
13.881194 -15.590867 0.21132223 40
13.806018 -11.58052 0.076110788 47
13.911235 -13.504483 -0.032146506 24
11.546205 -12.968288 -0.13092025 0
13.826345 -11.59757 -0.2425404 29
13.854132 -13.44905 -0.37343699 39
11.237067 -12.621077 -0.42656878 0
13.857657 -11.623835 -0.56304252 35
12.938022 -12.559726 -0.66843748 0
11.147907 -12.520936 -0.72022963 0
13.808084 -11.582253 -0.8798725 52
12.815766 -12.441046 -0.9782728 0
11.127113 -12.497581 -1.0146564 0
13.849066 -11.616629 -1.2028263 47
13.963605 -13.555323 -1.4103433 10
11.105536 -12.473346 -1.3085172 1
12.789361 -10.727746 -1.4061414 33
12.391511 -12.029195 -1.5571014 2
10.982638 -12.335312 -1.5862373 1
11.600776 -9.7307568 -1.5436267 2
10.5238 -10.216094 -1.5819436 3
9.2351122 -8.965086 -1.6163882 2
8.1907749 -7.9512839 -1.6356325 2
7.3501372 -7.1352258 -1.6508821 2
6.6506286 -6.4561706 -1.6577245 3
6.0743771 -5.8967681 -1.665069 4
5.6182137 -5.4539423 -1.6787621 4
5.1944766 -5.0425949 -1.6805558 4
4.853415 -4.7115059 -1.689631 6
3.6068661 -3.5014048 -1.7293166 6
2.6845834 -2.6060886 -1.7440459 12
3.8971925 -3.8364513 1.4435604 21
4.0078492 -3.9453835 1.0867708 19
7.8029413 -7.6813259 1.5318185 20
7.4745407 -7.3580432 0.91061962 2
13.821162 -13.605747 0.99774748 25
13.851507 -13.635619 0.65599686 34
13.838622 -15.763265 0.583345 73
13.782578 -11.725748 0.3967444 44
13.883266 -13.666883 0.31216165 22
13.888123 -15.819649 0.21310383 37
13.801 -11.741421 0.076533161 40
13.913535 -13.696681 -0.032372002 22
11.384141 -12.96742 -0.13010596 1
13.830338 -11.766382 -0.24404554 31
13.848251 -13.632415 -0.37583476 36
11.043159 -12.579016 -0.42253122 0
13.858388 -11.790246 -0.56640285 36
12.69335 -12.495513 -0.66028762 0
10.991676 -12.520372 -0.71576571 0
13.802962 -11.743091 -0.88474876 47
12.711522 -12.513402 -0.97696024 3
10.963205 -12.487942 -1.0076354 0
13.840585 -11.775099 -1.2092003 47
12.63757 -12.440603 -1.2851529 3
10.955046 -12.478647 -1.3010186 0
12.783979 -10.876175 -1.4138638 48
12.267482 -12.076283 -1.5520726 2
10.943541 -12.465542 -1.5931207 1
11.562868 -9.8372946 -1.5476835 2
10.477729 -10.314425 -1.5858041 2
9.1864414 -9.0432625 -1.6188804 3
8.1266003 -7.9999399 -1.6339304 2
7.3114014 -7.1974468 -1.6534278 2
6.6166182 -6.5134921 -1.6605413 3
6.0442495 -5.9500446 -1.6681567 3
5.5827885 -5.4957762 -1.6796007 3
5.1702528 -5.0896702 -1.6841738 4
4.8093419 -4.7343845 -1.6857535 5
3.5850296 -3.5291538 -1.7306178 7
2.6611567 -2.6196804 -1.7406659 13
3.8402057 -3.8335094 1.4323304 20
3.9607518 -3.9538455 1.0814583 25
7.6818395 -7.6684446 1.5185176 17
7.4991379 -7.4860616 0.91996109 3
13.824791 -13.800685 1.0049403 27
13.849341 -13.825192 0.66044933 29
13.853848 -16.004604 0.58868247 51
13.766993 -11.879155 0.39867333 43
13.892245 -13.868022 0.31453285 25
13.884671 -16.040213 0.21476397 38
13.803491 -11.910647 0.077006213 40
13.92515 -13.900869 -0.032624029 25
11.275008 -13.02541 -0.12989484 0
13.829621 -11.933195 -0.24549691 30
13.851806 -13.827653 -0.37854195 37
10.915815 -12.610454 -0.42101711 0
13.85747 -11.957225 -0.56976318 34
12.51245 -12.490632 -0.65539765 0
10.835997 -12.518243 -0.71130186 0
13.802318 -11.909636 -0.89001513 41
12.476868 -12.455112 -0.96558499 2
10.802589 -12.47965 -1.0008565 0
13.842655 -11.944442 -1.2166365 44
12.46853 -12.446788 -1.2767683 1
10.805024 -12.482462 -1.2935199 0
12.780167 -11.02765 -1.4219218 48
12.163138 -12.14193 -1.5495583 3
10.87449 -12.562713 -1.5957975 1
11.511989 -9.9333744 -1.5501176 2
10.433612 -10.415419 -1.5900935 3
9.1371279 -9.1211958 -1.6213725 2
8.0873661 -8.0732641 -1.6373345 2
7.2609758 -7.2483149 -1.6534278 2
6.5598378 -6.5483994 -1.6577245 3
6.0136743 -6.0031881 -1.6712445 3
5.5387492 -5.5290909 -1.6779236 4
5.1345944 -5.1256413 -1.6841738 4
4.7926517 -4.7842951 -1.6915697 6
3.5629811 -3.5567682 -1.7319189 6
2.6479349 -2.6433177 -1.7440459 12
3.7997589 -3.8464684 1.4272258 19
3.924772 -3.9730182 1.0791816 27
3.9894493 -4.0384908 0.79417366 1
7.4915009 -7.5835919 0.92549682 4
13.806714 -13.976437 1.0106945 23
13.859246 -14.029615 0.6655764 30
13.845607 -16.222586 0.59313041 56
13.770997 -12.051352 0.401216 43
13.870979 -14.041492 0.31626314 19
13.889198 -16.273661 0.21658605 43
13.801274 -12.077848 0.077462368 48
13.917718 -14.088805 -0.032836258 19
11.150043 -13.064255 -0.12950277 0
13.863358 -12.132179 -0.24759333 29
13.842059 -14.012217 -0.38093975 17
10.785978 -12.637689 -0.41940209 0
13.906035 -12.169527 -0.5752393 31
12.323814 -12.475308 -0.65006322 0
10.68348 -12.517594 -0.70700967 0
13.800013 -12.076744 -0.89528149 43
12.305402 -12.45667 -0.95902234 2
10.655587 -12.484912 -0.99528813 0
13.891082 -12.156441 -1.2283223 38
12.302826 -12.454062 -1.2686729 1
10.650309 -12.478727 -1.2853963 0
12.792852 -11.195353 -1.4319946 71
12.092074 -12.24072 -1.5513543 3
10.80203 -12.656496 -1.598092 1
11.454338 -10.023984 -1.5517404 3
10.385798 -10.513468 -1.593954 2
9.0815945 -9.1932316 -1.6228677 2
8.0475016 -8.1464281 -1.6407385 2
7.2157464 -7.3044481 -1.6547008 2
6.5333319 -6.6136446 -1.662654 3
5.9743757 -6.0478172 -1.6720165 3
5.4945164 -5.5620589 -1.6762465 4
5.1041622 -5.1669064 -1.6859828 4
4.7591343 -4.817637 -1.6915697 5
3.5327466 -3.5761738 -1.7293166 7
2.6268687 -2.6591601 -1.7423559 11
3.7458267 -3.8451982 1.4170169 20
3.8859785 -3.989068 1.0761459 24
4.0026226 -4.1088066 0.80248666 2
7.4884291 -7.6870866 0.93172443 3
13.811943 -14.178355 1.0182984 27
13.861391 -14.229115 0.67043364 31
13.853012 -16.462645 0.59835672 30
13.800183 -12.24807 0.40454778 37
13.900994 -14.269769 0.3192111 25
13.896287 -16.514071 0.21848914 43
13.863209 -12.304007 0.078290209 41
13.919506 -14.288772 -0.03307502 26
11.097196 -13.187686 -0.12995516 0
13.88003 -12.318936 -0.24942099 27
10.617676 -12.617834 -0.41627297 0
13.919415 -12.353892 -0.57934636 29
12.155535 -12.478004 -0.64576602 0
10.54437 -12.530719 -0.70357591 0
13.858793 -12.300088 -0.90464389 39
12.179124 -12.502219 -0.9559598 1
10.506469 -12.485678 -0.98947763 0
13.892443 -12.329952 -1.2360241 38
12.11258 -12.43391 -1.2579753 1
10.506444 -12.485648 -1.2785226 0
13.420903 -11.911448 -1.5115684 2
12.031345 -12.35052 -1.554587 2
10.744171 -12.768159 -1.6026809 1
11.419793 -10.135404 -1.5566086 3
10.331574 -10.605657 -1.5969566 2
9.0393496 -9.279151 -1.6268551 2
8.0125389 -8.2251005 -1.6452773 2
7.1590667 -7.3489866 -1.6534278 2
6.4897494 -6.6619134 -1.6633582 3
5.9402256 -6.0978117 -1.6743323 3
5.4719281 -5.6170907 -1.6812778 5
5.0734053 -5.2079954 -1.6877918 4
4.7416339 -4.8674231 -1.697386 6
3.5156131 -3.6088774 -1.7332202 6
2.6107707 -2.6800308 -1.7440459 12
3.6974564 -3.8489425 1.4088496 20
3.8471518 -4.0047712 1.0731102 26
3.97384 -4.1366501 0.80248666 1
7.4980769 -7.8052764 0.93968195 2
13.823319 -14.389667 1.0265187 27
13.864188 -14.432209 0.67542577 29
13.865398 -16.712816 0.60391665 30
13.812427 -12.432402 0.40744117 37
13.895239 -14.464532 0.32139 25
13.900694 -16.75536 0.22039221 43
13.860218 -12.475417 0.078763261 44
13.933026 -14.503869 -0.033346944 23
9.536355 -11.494753 -0.11261373 0
13.894763 -12.506512 -0.25124863 28
12.212686 -12.713045 -0.34095076 0
9.5489073 -11.509884 -0.37751237 21
13.930892 -12.539031 -0.58345342 29
11.996127 -12.487614 -0.64191335 0
10.40305 -12.539435 -0.69997048 0
13.867609 -12.482071 -0.91088551 42
11.955964 -12.445806 -0.9452408 0
9.5599308 -11.52317 -0.90788871 6
13.892054 -12.504073 -1.243726 34
11.964675 -12.454872 -1.2516146 0
9.5354958 -11.493718 -1.1701044 27
13.287055 -11.95952 -1.5058606 7
11.966908 -12.457197 -1.5574605 1
9.5107403 -11.463878 -1.4305964 33
11.348757 -10.214881 -1.5566086 3
10.265547 -10.686131 -1.5982435 2
8.999094 -9.3677912 -1.631341 2
7.9439492 -8.2694159 -1.6430079 2
7.1349444 -7.4272661 -1.6597921 3
6.4539938 -6.7184167 -1.666175 3
5.9029479 -6.1447945 -1.6758761 3
5.4407086 -5.6636167 -1.6837934 4
5.026125 -5.2320476 -1.6841738 4
4.7075372 -4.9004068 -1.697386 6
3.4850919 -3.6278777 -1.7306178 6
2.5970201 -2.7034211 -1.7474258 11
3.6385782 -3.8409691 1.3965987 21
3.8190994 -4.0315313 1.0731102 26
3.953037 -4.1729193 0.80414927 1
9.2357388 -9.749464 1.1659529 5
13.824172 -14.593122 1.0341226 29
13.870317 -14.641834 0.68068779 27
9.4499569 -11.553815 0.41510233 24
13.822765 -12.617494 0.41033453 37
13.901189 -14.674423 0.32388934 19
9.445528 -11.548401 0.15103123 37
13.867323 -12.658166 0.079303898 42
13.938716 -14.714038 -0.033605602 24
9.4254856 -11.523896 -0.11225182 36
13.878012 -12.667922 -0.25253874 28
12.01912 -12.687667 -0.3380115 0
9.4100933 -11.505076 -0.37519076 37
13.910933 -12.697973 -0.58631593 30
11.845427 -12.504313 -0.63850522 0
9.4398375 -11.541444 -0.64056659 29
13.862755 -12.653996 -0.91634691 34
11.783635 -12.439084 -0.93845934 0
9.4185839 -11.515457 -0.90207821 44
13.895803 -12.684163 -1.2519592 34
11.797865 -12.454105 -1.2432301 0
9.4045286 -11.498274 -1.1638554 42
13.291557 -12.132604 -1.5159333 4
11.893348 -12.554899 -1.5592566 1
9.3850994 -11.474519 -1.423713 39
11.309498 -10.32337 -1.561071 3
10.204369 -10.771972 -1.6003882 1
8.9443932 -9.4419127 -1.6333346 3
7.8941936 -8.3332968 -1.6447099 2
7.0802026 -7.4740291 -1.6591557 2
6.4231801 -6.7804608 -1.6704004 4
5.865304 -6.1915531 -1.67742 3
5.3983464 -5.6986222 -1.6829548 4
5.000195 -5.2783237 -1.6877918 4
4.67588 -4.9359694 -1.6983553 6
3.4648821 -3.6576114 -1.7332202 7
2.5855634 -2.7293818 -1.7524956 6
3.5826335 -3.8351891 1.3853687 21
3.7774565 -4.043746 1.0693156 26
3.9400339 -4.2177844 0.80747449 0
7.4917388 -8.0198641 0.95282924 0
13.822853 -14.797287 1.0417265 30
13.876921 -14.855166 0.68608475 26
9.3113403 -11.547915 0.41254479 38
13.834122 -12.806051 0.41331559 35
13.907611 -14.88802 0.32645279 24
9.3069305 -11.542447 0.15009993 41
13.866675 -12.836186 0.079810739 43
13.936683 -14.919141 -0.033850994 25
9.3021212 -11.536483 -0.11173911 41
13.897835 -12.86503 -0.25452766 31
11.87838 -12.715739 -0.33654189 0
9.2818546 -11.511348 -0.37327293 39
13.939303 -12.903418 -0.59129423 29
11.703269 -12.528284 -0.63554162 0
9.3088646 -11.544846 -0.63713282 45
13.870828 -12.84003 -0.92278361 38
11.620168 -12.439324 -0.93233424 0
9.2953558 -11.528092 -0.89796245 47
13.909424 -12.875758 -1.2612545 30
11.626206 -12.445788 -1.2342672 0
9.2814732 -11.510875 -1.1585439 42
13.221157 -12.238639 -1.517612 4
11.832604 -12.666737 -1.5628484 1
9.2647762 -11.490167 -1.4175944 39
11.248833 -10.412887 -1.5626938 2
10.145206 -10.860387 -1.6029618 2
8.9216061 -9.5505304 -1.6413094 2
7.835824 -8.3882065 -1.6447099 2
7.0359392 -7.5319338 -1.661065 2
6.3810635 -6.830893 -1.6718088 3
5.8192563 -6.2294817 -1.6766481 3
5.3824601 -5.7618937 -1.6905017 5
4.9685431 -5.3187976 -1.6896008 5
4.6439557 -4.9713287 -1.6993247 6
3.4418452 -3.6844759 -1.7345214 6
2.559021 -2.7394178 -1.7474258 7
3.5374298 -3.840194 1.3782225 21
3.741152 -4.0613523 1.0670389 27
7.0587482 -7.6628981 1.4575552 21
9.1068163 -9.8862572 1.1669909 17
13.819355 -15.002136 1.0493302 26
13.862258 -15.048712 0.69053721 27
9.1832209 -11.553168 0.41043201 38
13.820189 -12.973483 0.41559523 36
13.903598 -15.093589 0.32882395 26
9.1713676 -11.538256 0.14920913 42
13.867131 -13.01755 0.080334477 40
13.948725 -15.142578 -0.03413618 26
9.1616211 -11.525994 -0.1110153 44
13.889332 -13.03839 -0.25603279 31
11.689067 -12.689519 -0.33368 0
9.1539879 -11.516391 -0.37135506 39
13.9305 -13.077036 -0.59477901 28
11.545109 -12.53324 -0.63168895 0
9.1783056 -11.546984 -0.63369906 47
13.874061 -13.024055 -0.92902523 38
11.487041 -12.470202 -0.92861539 0
9.1649599 -11.530194 -0.89312035 41
13.906493 -13.054501 -1.269222 33
11.466057 -12.447422 -1.2264609 0
9.1462955 -11.506714 -1.1516701 40
13.170266 -12.363379 -1.5216411 4
11.789773 -12.798844 -1.5689547 1
9.1273499 -11.482878 -1.4087989 40
11.155554 -10.472099 -1.559854 3
10.082614 -10.945573 -1.6051065 1
8.8896723 -9.650528 -1.6477889 3
7.7878046 -8.4543533 -1.6469792 2
6.9778352 -7.5750594 -1.6597921 2
6.3358889 -6.8781695 -1.672513 4
5.7782855 -6.2728415 -1.67742 3
5.3341551 -5.790699 -1.6879861 5
4.9418507 -5.3648176 -1.6932188 4
4.6143961 -5.0093365 -1.7012635 6
3.418602 -3.7111959 -1.7358227 6
2.5349219 -2.7518828 -1.7440459 6
3.4871306 -3.8390312 1.3690343 21
3.6995044 -4.0728364 1.0632442 26
6.9731174 -7.6768026 1.4509048 13
9.0295372 -9.9407444 1.1659529 15
13.824408 -15.219483 1.0577562 27
13.877818 -15.278285 0.69660872 28
9.0530186 -11.554049 0.40820804 39
13.824864 -13.160642 0.41848862 30
13.90814 -15.311666 0.33145148 24
9.0486536 -11.548479 0.14852078 41
13.871519 -13.205055 0.080892004 42
13.955627 -15.363946 -0.034414735 23
9.0340586 -11.529852 -0.11044228 38
13.887773 -13.220528 -0.25769919 28
11.535658 -12.699768 -0.33182365 0
9.0166407 -11.507622 -0.36903346 43
13.925738 -13.256669 -0.59851271 9
11.387452 -12.536606 -0.62783629 0
9.0506372 -11.551011 -0.63043702 46
13.858036 -13.19222 -0.93409652 32
11.324512 -12.467313 -0.92249024 0
9.0300646 -11.524755 -0.88779408 45
13.901741 -13.233825 -1.2771895 16
11.317183 -12.459246 -1.2198111 0
9.0190105 -11.510646 -1.1457337 41
12.846902 -12.229667 -1.4941092 2
11.729599 -12.91328 -1.5729059 1
8.9978456 -11.483635 -1.4011507 22
11.119642 -10.585393 -1.565128 2
10.032694 -11.045134 -1.609396 1
8.8194151 -9.7094173 -1.6472905 2
7.7392421 -8.5202398 -1.6492486 2
6.9380574 -7.6382051 -1.6629742 2
6.3062477 -6.9426365 -1.6774426 4
5.750186 -6.3304605 -1.6820517 4
5.3014879 -5.836482 -1.6905017 4
4.8990374 -5.3934188 -1.6914098 4
4.5845304 -5.047174 -1.7032022 6
3.4002395 -3.7433712 -1.7397263 7
2.5034602 -2.7560945 -1.7355961 7
3.4318604 -3.8315928 1.3578043 20
3.66836 -4.0956392 1.0624853 26
4.009419 -4.4764233 0.84072673 1
8.9546003 -9.9976044 1.165261 11
13.811099 -15.419773 1.064949 25
13.874839 -15.490936 0.70187074 29
8.9257021 -11.556842 0.4060953 37
13.833348 -13.354047 0.42155737 32
13.904973 -15.52458 0.33395082 23
8.9164705 -11.54489 0.14767048 43
13.865328 -13.384918 0.081398845 40
13.954776 -15.580184 -0.034680024 25
8.9020052 -11.526159 -0.10980894 40
13.884343 -13.403275 -0.25936559 27
11.38001 -12.705517 -0.32988995 0
8.8969784 -11.519651 -0.36741844 49
11.238313 -12.547316 -0.62442815 0
8.9184818 -11.547493 -0.62683153 29
11.165249 -12.465742 -0.91658384 0
8.8956985 -11.517995 -0.88246781 13
11.142087 -12.439882 -1.21027 9
8.8774958 -11.494426 -1.1379225 25
12.775549 -12.332898 -1.495788 3
11.673713 -13.03343 -1.5775753 2
8.9174595 -11.546169 -1.4011507 5
11.048335 -10.665529 -1.5655336 2
9.9871798 -11.150455 -1.6145433 1
8.7540627 -9.7737083 -1.6477889 2
7.6848545 -8.5799618 -1.6503832 2
6.8977375 -7.7011642 -1.6661563 2
6.2418628 -6.968895 -1.6732172 4
5.7189431 -6.3850675 -1.6859113 3
5.2580028 -5.8704381 -1.6896632 4
4.8716626 -5.4390988 -1.6950277 4
4.5465932 -5.0761662 -1.7022328 6
3.366452 -3.7585659 -1.7358227 6
2.5059276 -2.7978101 -1.7508057 6
3.3896663 -3.8380649 1.3516788 20
3.660476 -4.1446986 1.0685567 24
3.9570911 -4.4805512 0.8362931 2
8.8371029 -10.006111 1.1590334 11
13.819465 -15.64756 1.0739914 25
13.880147 -15.716269 0.70767242 30
8.8060513 -11.567969 0.40431613 49
13.825518 -13.534219 0.42418772 44
13.910095 -15.750179 0.33670649 23
8.8186951 -11.584579 0.14738704 37
13.868733 -13.576524 0.081973262 38
13.943635 -15.788157 -0.034925416 23
8.8528156 -11.6294 -0.11020101 29
13.896185 -13.603397 -0.26135451 26
11.216905 -12.700723 -0.32772422 0
8.8768911 -11.661027 -0.36994192 25
12.799339 -12.529662 -0.5575664 0
11.086937 -12.553562 -0.62087184 0
8.8328056 -11.603115 -0.62648815 8
12.758901 -12.490076 -0.87168038 0
11.011851 -12.468543 -0.91111499 0
8.8634386 -11.643355 -0.88730991 29
12.763022 -12.49411 -1.1884848 2
11.025919 -12.484472 -1.2070897 0
8.8888197 -11.676697 -1.1497954 31
12.763196 -12.49428 -1.5045176 3
11.616721 -13.153428 -1.5822449 2
8.9113979 -11.706356 -1.4130055 31
10.99067 -10.759101 -1.5679678 1
9.9459476 -11.261638 -1.6205485 1
8.6987514 -9.8494577 -1.6502811 2
7.6352515 -8.6452732 -1.6526526 2
6.8621039 -7.7698512 -1.6706113 2
6.2191238 -7.0418143 -1.6802593 3
5.6742277 -6.4248376 -1.6859113 3
5.2324252 -5.9245915 -1.6946944 4
4.8284135 -5.4671359 -1.6932188 4
4.5213199 -5.1194186 -1.7061104 6
3.3401303 -3.7819762 -1.7358227 6
2.4935338 -2.8233888 -1.7558756 7
3.3323116 -3.8266354 1.3394281 17
3.6082397 -4.1434956 1.0617265 24
3.9569342 -4.5439162 0.84294355 2
8.6257153 -9.9052763 1.1403505 9
13.830568 -15.882232 1.0834448 28
13.872481 -15.930362 0.71293443 27
8.7994661 -11.728314 0.40776327 28
13.82435 -13.723381 0.42708111 52
13.899611 -15.961516 0.33914176 23
8.8264208 -11.764241 0.14888521 34
13.864453 -13.763191 0.082513899 40
13.951287 -16.020857 -0.035223868 22
8.8554287 -11.802904 -0.11125657 30
13.897387 -13.795884 -0.26318213 25
11.062307 -12.70332 -0.32579049 0
8.8816576 -11.837862 -0.37357572 29
12.612245 -12.520128 -0.55321044 0
10.936028 -12.558308 -0.61731553 0
8.8283329 -11.766788 -0.63198215 34
12.623192 -12.530995 -0.86836451 1
10.848475 -12.457766 -0.90477109 0
8.8610096 -11.810342 -0.89529932 37
12.559353 -12.467623 -1.1775959 2
10.859896 -12.470881 -1.198416 0
8.8956337 -11.856491 -1.1613559 28
12.551193 -12.459523 -1.4897443 2
11.535079 -13.246222 -1.5836817 2
8.9130898 -11.879757 -1.4263898 26
10.960476 -10.880424 -1.5744586 1
9.8958158 -11.363788 -1.6252669 3
8.6506319 -9.9338894 -1.6542684 2
7.5773129 -8.7013512 -1.6532199 2
6.820662 -7.8324571 -1.6737934 3
6.1749849 -7.0909982 -1.6816678 4
5.6421247 -6.4790921 -1.6897711 3
5.1780953 -5.9462276 -1.6905017 4
4.8029237 -5.5154018 -1.6977413 4
4.4829226 -5.1479311 -1.7051411 6
3.3210986 -3.8137593 -1.7397263 6
2.473763 -2.8407276 -1.7558756 6
2.562278 -2.9841866 1.0382609 10
3.5817831 -4.1715651 1.0624853 27
3.958663 -4.6105027 0.8501482 2
8.4603014 -9.8533878 1.1275492 9
13.823443 -16.099634 1.0916651 26
13.872912 -16.157248 0.71873617 27
8.7934446 -11.892341 0.41132161 29
13.824029 -13.916021 0.43006217 52
13.907689 -16.19775 0.34208971 25
8.8225517 -11.931705 0.15022141 30
13.872333 -13.964646 0.083139002 40
13.958963 -16.257467 -0.03552895 24
8.8608027 -11.983437 -0.11237246 29
13.910667 -14.003236 -0.26527858 25
10.897799 -12.692247 -0.32354739 0
8.8843842 -12.015328 -0.37720954 28
12.434365 -12.517109 -0.54922783 0
10.798613 -12.576729 -0.61450016 0
8.8291292 -11.9406 -0.63799125 32
12.591714 -12.675506 -0.87226552 3
10.703998 -12.466535 -0.89995849 0
8.8638 -11.98749 -0.904015 31
12.398872 -12.48138 -1.1706907 1
10.71799 -12.48283 -1.1923443 0
8.8932543 -12.027324 -1.1719791 25
12.35154 -12.433733 -1.4763142 1
11.43194 -13.314341 -1.5822449 3
8.9080572 -12.047343 -1.4390093 8
10.906685 -10.979263 -1.5777041 2
9.8240118 -11.441648 -1.6265537 5
8.5991659 -10.015119 -1.6577574 2
7.5215397 -8.7600479 -1.6543546 2
6.7709599 -7.8858762 -1.6750662 3
6.1407199 -7.1518602 -1.6858931 3
5.5993114 -6.5213022 -1.6905429 3
5.1542916 -6.003005 -1.6963716 4
4.7693782 -5.5547113 -1.6995503 4
4.4367614 -5.1673255 -1.7012635 6
3.2919285 -3.8339825 -1.738425 6
2.4538705 -2.8579285 -1.7558756 7
2.5574293 -3.0188203 1.0443863 17
3.5413442 -4.1802454 1.0586908 30
3.9587252 -4.6729269 0.85679865 3
8.350975 -9.8575916 1.1216675 10
13.822231 -16.315928 1.1000911 27
13.881732 -16.386164 0.72480768 24
8.7968359 -12.063472 0.41521353 29
13.829416 -14.107347 0.43313089 68
13.929216 -16.442215 0.345294 25
8.8186398 -12.093372 0.15151711 20
13.877418 -14.156313 0.083730318 41
13.962011 -16.480927 -0.03581414 28
13.915487 -14.195148 -0.26715997 29
10.782359 -12.727627 -0.32261923 0
12.269913 -12.516502 -0.54561859 0
10.655535 -12.577922 -0.61109203 0
8.8180285 -12.092533 -0.6429702 16
12.426265 -12.675997 -0.8666091 2
10.559119 -12.464112 -0.89470834 0
12.27112 -12.517734 -1.1664413 1
10.583387 -12.492759 -1.1865619 0
12.19905 -12.444216 -1.4679203 2
11.36141 -13.411145 -1.5847592 3
9.1470165 -12.54369 -1.4910171 0
10.819702 -11.037147 -1.5756757 1
9.7581949 -11.518691 -1.6282694 5
8.5428162 -10.084044 -1.6597511 2
7.4811912 -8.8308878 -1.658326 2
6.7261677 -7.9396491 -1.6769755 3
6.1033325 -7.2044473 -1.68871 3
5.5736957 -6.5792575 -1.6959466 3
5.1168928 -6.0400419 -1.6972101 4
4.7374701 -5.5921669 -1.7013593 4
4.429986 -5.2292089 -1.7119267 6
3.2713177 -3.8615029 -1.7410275 7
2.4301751 -2.868608 -1.7524956 7
2.5189369 -3.0158226 1.03724 19
3.5070393 -4.1988382 1.0571729 26
3.9640977 -4.7460561 0.86511171 3
8.2283058 -9.8514223 1.1144019 10
13.810419 -16.534664 1.1083114 27
13.884882 -16.623816 0.73101419 32
13.871247 -19.303883 0.66107243 44
13.838991 -14.315685 0.43655035 64
13.924335 -16.671051 0.34804967 24
13.87123 -19.30386 0.24063767 55
13.886675 -14.365012 0.08438921 37
13.910564 -14.389724 -0.26898763 2
10.641967 -12.741202 -0.32107225 0
10.537731 -14.664804 -0.45584112 10
12.109983 -12.527121 -0.54238272 0
10.523904 -12.599851 -0.60857296 0
12.048677 -12.463703 -0.84632385 17
10.420639 -12.476216 -0.89033324 0
9.0213165 -12.55449 -0.93742532 1
12.050279 -12.46536 -1.1536933 2
9.6033516 -11.49771 -1.0856578 6
8.9939833 -12.516453 -1.2075977 2
11.295597 -13.523768 -1.5887103 3
9.0754871 -12.629876 -1.4936939 0
10.803232 -11.175357 -1.5846008 1
9.6826401 -11.592639 -1.6291274 4
8.5001945 -10.176944 -1.6652337 2
7.4244342 -8.888979 -1.6594607 2
6.6756372 -7.9924741 -1.6782484 3
6.0604591 -7.2559462 -1.6908226 3
5.5225959 -6.6119838 -1.6944027 2
5.0796146 -6.0816202 -1.6988871 4
4.6908207 -5.6161327 -1.6986457 4
4.3834205 -5.2480946 -1.7080492 6
3.2467046 -3.88715 -1.7423288 6
2.4147375 -2.8910687 -1.7558756 6
2.4953632 -3.0303485 1.0362191 20
3.4601657 -4.2019968 1.0518605 23
3.9636047 -4.8133688 0.8723163 2
8.123868 -9.8655577 1.1095582 9
13.788609 -16.744772 1.1159153 19
9.489027 -11.523396 0.50380343 8
13.80777 -19.501413 0.66451955 47
13.838046 -14.516153 0.43970677 56
9.4906693 -11.52539 0.23923208 26
13.849381 -19.560184 0.24262173 44
13.888169 -14.568731 0.085014321 39
9.4689894 -11.499063 -0.024698492 34
2.6650035 -3.7639196 -0.034773335 0
12.123561 -12.717653 -0.23614362 0
9.5307875 -11.57411 -0.2899783 6
10.425853 -14.72496 -0.45543736 2
11.969818 -12.556376 -0.54001802 0
9.4879122 -11.522042 -0.55330205 20
9.246438 -13.059214 -0.6874373 0
9.4700651 -11.500369 -0.81595653 26
8.9472933 -12.636716 -0.93887794 0
11.891358 -12.474072 -1.1467882 0
9.4594507 -11.487478 -1.0784298 43
2.6845889 -3.7915812 -0.36399776 0
12.631918 -13.25092 -1.5421221 5
9.4839287 -11.517204 -1.3451775 39
2.6643765 -3.7630339 -0.44283095 16
10.760645 -11.28795 -1.5898746 4
9.4776011 -11.509521 -1.6081091 27
8.4264183 -10.232973 -1.6647353 2
7.3722668 -8.9528198 -1.6617301 2
6.6246991 -8.04498 -1.6795212 3
6.0171666 -7.3071971 -1.6929352 3
5.4887767 -6.6655254 -1.6982623 2
5.0420074 -6.122972 -1.7005643 4
4.6638837 -5.6637816 -1.7031683 4
4.3516102 -5.2845592 -1.7099879 6
3.2194891 -3.9097209 -1.7423288 5
2.4014096 -2.9162519 -1.7609456 7
2.4668338 -3.0386877 1.0331564 21
3.4307458 -4.2260509 1.0518605 17
6.2369127 -7.6827345 1.3844004 18
7.9945164 -9.8477802 1.1012547 11
9.3760939 -11.549631 0.76531649 41
9.3655128 -11.536596 0.50150973 36
13.837712 -14.720216 0.44295087 56
9.3444357 -11.510633 0.23756586 28
2.6477549 -3.7954686 0.046848021 15
13.895708 -14.781911 0.085690111 36
9.3431005 -11.508989 -0.024579111 28
2.6363728 -3.7791529 -0.034743175 26
11.946816 -12.708728 -0.23442347 1
9.374135 -11.547217 -0.28765786 34
2.6378961 -3.7813361 -0.11638282 33
11.791499 -12.543505 -0.53591096 0
9.359375 -11.529036 -0.55048662 41
2.6454504 -3.792165 -0.1986426 20
11.733921 -12.482255 -0.83637625 0
9.3442345 -11.510386 -0.81201893 45
2.6498892 -3.798528 -0.28084025 32
11.727441 -12.475362 -1.1393518 0
9.3312473 -11.494389 -1.0729364 42
2.6283925 -3.7677133 -0.35993597 35
12.637383 -13.443335 -1.5542094 3
9.3555851 -11.524368 -1.3383529 39
2.6220934 -3.7586837 -0.44015408 48
10.687029 -11.368597 -1.590686 2
9.3368626 -11.501305 -1.5978144 31
8.3647795 -10.303877 -1.6667291 2
7.3270535 -9.025588 -1.6657014 2
6.5808182 -8.1063633 -1.6827034 3
5.9660063 -7.3490272 -1.6929352 3
5.4495306 -6.7128234 -1.7005782 3
5.0040679 -6.1640954 -1.7022413 4
4.6291413 -5.7022543 -1.7049773 4
4.3170567 -5.3178229 -1.7109573 6
3.1921155 -3.932102 -1.7423288 6
2.3672817 -2.9160576 -1.7508057 3
2.4383101 -3.0467765 1.0300937 19
3.3888893 -4.2345672 1.0480659 8
6.1583734 -7.6951604 1.3788583 23
7.8882217 -9.8566818 1.0960649 9
9.2528019 -11.561786 0.76182282 32
9.2247944 -11.526789 0.49827155 34
2.6112564 -3.7994008 0.12821135 43
13.846074 -14.936707 0.44654569 56
9.2263632 -11.528749 0.23660457 31
2.6053355 -3.790786 0.046564586 50
13.895505 -14.990032 0.086332105 34
9.2200365 -11.520844 -0.024466362 29
2.6008637 -3.7842796 -0.034622539 35
11.800702 -12.730225 -0.23329464 0
9.2433147 -11.549931 -0.28611088 43
2.6001093 -3.7831819 -0.11587813 39
11.641128 -12.558081 -0.53304845 0
9.223712 -11.525436 -0.54722667 47
2.607595 -3.7940736 -0.19778416 41
11.575874 -12.487688 -0.83130497 0
9.218729 -11.519211 -0.80808133 44
2.6119995 -3.8004823 -0.27962971 43
11.572227 -12.483753 -1.1327122 0
9.1984262 -11.49384 -1.0668648 48
2.602026 -3.7859704 -0.35993597 36
12.594707 -13.586773 -1.5605886 3
9.2276068 -11.530303 -1.3315282 48
2.5980453 -3.7801788 -0.44053647 37
10.610106 -11.445847 -1.5910916 2
9.2190666 -11.519632 -1.5913804 33
8.3050404 -10.377516 -1.6692212 2
7.2836576 -9.1012526 -1.67024 2
6.5166626 -8.1428585 -1.6807941 3
5.9219356 -7.3997207 -1.695048 3
5.4074383 -6.7568336 -1.7021221 4
4.9658008 -6.2049875 -1.7039185 4
4.6062613 -5.7557273 -1.7113087 4
4.2968001 -5.3690419 -1.717743 6
3.1716769 -3.9631507 -1.7462324 6
2.3446009 -2.9296827 -1.7491157 7
2.4097936 -3.0546155 1.0270309 19
3.330054 -4.2211227 1.0389589 3
6.0701504 -7.6944246 1.3710995 21
5.8668809 -7.4367633 0.82239473 12
9.1199007 -11.560239 0.75750715 30
9.1143837 -11.553246 0.49665248 33
2.5734594 -3.8009834 0.12765537 36
13.84399 -15.145169 0.44987747 52
9.0886784 -11.520661 0.23513059 28
2.5720799 -3.7989459 0.046443112 41
13.89577 -15.201816 0.086991005 38
9.0799217 -11.509562 -0.02430719 29
2.5609262 -3.7824721 -0.034441587 38
11.633286 -12.726685 -0.23173575 0
9.1129141 -11.551383 -0.28456393 49
2.564667 -3.7879972 -0.11547437 40
11.501925 -12.582975 -0.53068376 0
9.1034107 -11.539337 -0.54485583 55
2.5653605 -3.7890215 -0.19658233 45
11.407548 -12.479729 -0.82545346 0
9.0811882 -11.511168 -0.80304998 48
2.5652575 -3.7888694 -0.27745077 40
11.422861 -12.496481 -1.1266038 0
9.0759516 -11.50453 -1.0619497 46
2.5621173 -3.7842312 -0.35806131 42
12.486104 -13.659657 -1.5589099 4
9.095068 -11.528761 -1.3239852 50
2.5581975 -3.7784419 -0.43824202 42
10.546052 -11.537262 -1.5935258 2
9.0842285 -11.515022 -1.5819436 35
8.2471371 -10.453938 -1.6722116 2
7.232203 -9.1674242 -1.6730767 2
6.4816685 -8.2160587 -1.6865219 3
5.8701315 -7.4408836 -1.695048 3
5.362565 -6.7975011 -1.702894 4
4.9199376 -6.2364335 -1.7030798 4
4.5732059 -5.7969222 -1.7140222 4
4.264019 -5.4050021 -1.7196817 6
3.1486166 -3.9911356 -1.7488348 7
2.3420546 -2.9687505 -1.7626355 6
2.3897107 -3.0752523 1.0280519 18
3.2990224 -4.24542 1.0389589 0
4.6499543 -5.9838967 1.0601913 2
5.8708935 -7.5550895 0.83069825 7
8.9760885 -11.551078 0.75257492 29
8.9852962 -11.562927 0.49422386 32
2.5322237 -3.799782 0.12698817 37
13.839654 -15.365098 0.45338461 31
8.9647179 -11.536446 0.23410523 30
2.5352907 -3.8043845 0.046281148 39
13.891043 -15.422151 0.087666795 35
8.9511299 -11.51896 -0.024187809 30
2.5264761 -3.7911575 -0.034351107 37
11.456702 -12.71949 -0.23006935 0
8.981369 -11.557874 -0.28309432 48
2.5213084 -3.7834029 -0.11476779 41
11.334456 -12.583771 -0.52719897 0
8.9744301 -11.548944 -0.54218858 49
2.528652 -3.7944224 -0.19589558 46
11.264958 -12.506612 -0.82174748 0
8.9573526 -11.526967 -0.79954988 24
2.5263443 -3.7909596 -0.27624026 46
11.248145 -12.487947 -1.1183708 0
8.9301767 -11.491996 -1.0547217 7
2.52104 -3.7830002 -0.35618663 40
12.390973 -13.756739 -1.5595814 3
8.9638691 -11.535353 -1.3171605 46
2.5193915 -3.7805264 -0.43632996 42
10.490492 -11.646783 -1.5979884 2
8.9507713 -11.518498 -1.5733647 22
8.1751556 -10.52038 -1.6732086 2
7.1745262 -9.2326984 -1.6753461 2
6.4358068 -8.2820597 -1.6903404 2
5.8371739 -7.5116963 -1.7013859 2
5.3270426 -6.8552227 -1.7075256 4
4.8836899 -6.2846842 -1.706434 4
4.5281992 -5.8272133 -1.7131177 4
4.2290463 -5.4422421 -1.7216206 6
3.114634 -4.0081358 -1.7462324 7
2.3246789 -2.9915643 -1.7660154 6
2.3564255 -3.076508 1.0229473 19
5.098587 -6.6566262 1.6202902 20
4.5839791 -5.9847636 1.0546492 2
5.8543553 -7.6433439 0.83588797 6
8.8587952 -11.565888 0.74949229 30
8.8484459 -11.552377 0.49112064 37
2.494664 -3.8006539 0.12643218 37
13.832961 -15.574964 0.45671636 31
8.8450518 -11.547945 0.23307985 27
2.4976954 -3.8052726 0.046078693 38
13.889286 -15.638382 0.088342585 36
8.8680649 -11.577991 -0.024181176 22
2.4911678 -3.7953274 -0.034230471 39
11.293257 -12.71543 -0.22856423 0
8.8518286 -11.556793 -0.28154734 51
2.4860568 -3.7875409 -0.11436404 39
11.158716 -12.563947 -0.52309191 0
8.85956 -11.566887 -0.54011405 56
2.4911358 -3.7952788 -0.19503716 43
11.08982 -12.486375 -0.81531084 1
8.8766642 -11.589217 -0.79954988 6
2.4910531 -3.7951529 -0.27527186 41
11.097081 -12.494551 -1.1119968 0
8.8982515 -11.617402 -1.0605042 25
2.4880035 -3.7905068 -0.35524932 39
12.262869 -13.807147 -1.5555524 2
8.8540525 -11.559696 -1.3128502 23
2.4798276 -3.7780507 -0.43403551 40
10.419497 -11.731637 -1.599611 2
8.8798151 -11.593331 -1.5750805 22
8.1015139 -10.577195 -1.6732086 2
7.1195288 -9.2951326 -1.6776154 2
6.3802338 -8.3299217 -1.6909769 3
5.770226 -7.5335069 -1.6971606 3
5.2790565 -6.8922439 -1.7075256 3
4.8468318 -6.327939 -1.7089497 3
4.4945168 -5.8679628 -1.7158312 4
4.179152 -5.4562283 -1.7167736 6
3.0865772 -4.0297813 -1.7462324 7
2.2883062 -2.9875727 -1.7541857 7
2.3302295 -3.0867107 1.0209055 20
5.0590892 -6.7014623 1.6225669 30
4.5229917 -5.9913263 1.0502156 4
7.4503493 -9.8690157 1.0735763 7
8.7850542 -11.637017 0.75010878 27
8.810935 -11.6713 0.49354926 24
2.4550464 -3.7978292 0.125765 34
13.837181 -15.800521 0.46048653 32
8.8413286 -11.711559 0.23513059 21
2.4558697 -3.7991025 0.045795258 37
13.887817 -15.858341 0.089035265 37
8.8713713 -11.751356 -0.024413304 23
2.4537544 -3.7958305 -0.034079678 37
11.162051 -12.74582 -0.22770417 0
8.8094845 -11.669378 -0.28278491 38
2.4465299 -3.7846549 -0.1137584 35
10.991712 -12.551311 -0.51935822 0
8.8460264 -11.717784 -0.54426306 37
2.4559016 -3.7991524 -0.19435041 43
10.965528 -12.521414 -0.81258011 0
8.8701391 -11.749723 -0.80633128 32
2.4536605 -3.7956853 -0.27406132 38
10.941216 -12.493651 -1.1050917 0
8.9010611 -11.790684 -1.0706235 33
2.4484916 -3.7876894 -0.35337463 40
10.979235 -12.537064 -1.4037911 0
8.8499451 -11.722974 -1.3243444 41
2.4469078 -3.785239 -0.43288827 39
10.360937 -11.831037 -1.6032622 2
8.8873196 -11.772482 -1.5909514 30
8.0442123 -10.655669 -1.6766975 2
7.0663915 -9.3604116 -1.6804521 2
6.3385797 -8.3963242 -1.6954318 3
5.7388434 -7.6018901 -1.7034985 2
5.2426343 -6.944593 -1.7113853 3
4.7978234 -6.3553796 -1.7072725 3
4.4557886 -5.902307 -1.7167357 4
4.1526499 -5.5007577 -1.7216206 6
3.0606477 -4.0542502 -1.7475336 7
2.2673934 -3.0034754 -1.7541857 6
2.3132405 -3.1091092 1.0229473 21
5.0051479 -6.7271652 1.6202902 26
4.4503131 -5.9814401 1.043011 6
7.333694 -9.8568459 1.0666567 7
8.7822886 -11.803828 0.75689059 26
8.8199205 -11.854407 0.49867633 25
2.4241784 -3.80813 0.1255426 35
13.841537 -16.029913 0.46434438 28
8.8405218 -11.882096 0.23730952 22
2.4078083 -3.7824142 0.045390349 34
13.894408 -16.091145 0.08979553 39
8.8774595 -11.931743 -0.024658699 23
