# .PCD v0.7 - Point Cloud Data file format
VERSION 0.7
FIELDS x y z intensity
SIZE 4 4 4 4
TYPE F F F F
COUNT 1 1 1 1
WIDTH 1345
HEIGHT 1
VIEWPOINT 0 0 0 1 0 0 0
POINTS 1345
DATA ascii
-18.335762 -0.84865785 -0.68044001 44
-18.340622 0.48666969 -0.7882179 41
-17.744635 -2.1190603 -0.8724606 49
-18.324886 -0.84815449 -1.0047421 42
-18.35182 0.48696688 -1.1131926 50
-17.746382 -2.1192687 -1.1892815 48
-7.9984379 -0.37020206 -0.58027041 2
-7.9089689 0.20986506 -0.61988974 3
-17.742651 -2.1188233 -1.5051891 44
-7.6527314 -0.35420129 -0.69072801 0
-7.6819353 0.2038407 -0.73805159 1
-17.733431 -2.1177223 -1.8207088 35
-7.5520673 -0.34954211 -0.81542158 0
-7.4732351 -0.34589344 -0.93952876 2
-7.424149 -0.34362149 -1.0648915 52
-7.4359913 -0.34416962 -1.199658 17
-7.4142914 -0.34316525 -1.3274472 36
-7.3746676 -0.3413313 -1.4520143 36
-7.3684807 -0.34104493 -1.5814912 31
-7.4108 -0.34300366 -1.7221627 13
-8.1757708 -0.3784098 -2.0444243 4
-5.6978164 -0.26371941 -1.9622343 5
-1.5934995 -0.073754005 -0.74358547 10
-2.0636661 -0.081081681 0.54516351 3
-4.3089008 -0.16929719 0.83329207 31
-5.7871327 -0.2273771 0.81024551 20
-6.371099 -0.25032121 0.55356818 5
-7.6679354 -0.30127406 0.39478329 0
-8.7282915 -0.34293556 0.29480731 3
-18.398546 0.61677027 0.51195586 34
-13.022925 -1.4630556 0.28732187 14
-11.301828 -0.44405013 0.18123448 2
-15.226665 0.51043999 0.15423 17
-17.823713 -2.0023983 0.075755998 54
-18.361807 -0.72143745 -0.030468548 31
-18.361162 0.61551702 -0.13852032 38
-17.826237 -2.0026817 -0.24108903 37
-18.338419 -0.72051853 -0.35495076 45
-18.359835 0.6154725 -0.46371436 36
-17.815245 -2.0014467 -0.55806428 47
-18.333252 -0.72031552 -0.68014365 45
-18.320799 0.61416394 -0.7875312 59
-17.782818 -1.9978039 -0.87363088 46
-18.32238 -0.71988839 -1.0043046 33
-18.347973 0.61507487 -1.1131926 54
-17.788509 -1.9984432 -1.1911407 54
-7.9769092 -0.31341368 -0.57853568 1
-8.1663713 0.27375939 -0.64019859 1
-17.780775 -1.9975744 -1.5072036 44
-7.6510372 -0.30061013 -0.69036883 1
-7.7042012 0.25826618 -0.74034601 1
-7.7310424 -0.868541 -0.79311174 4
-7.685461 -0.30196264 -0.82957667 1
-7.4596047 -0.29308873 -0.93753511 1
-7.4224105 -0.29162735 -1.0643241 37
-7.4382129 -0.29224822 -1.199658 43
-7.4047027 -0.29093161 -1.3253345 35
-7.3729491 -0.289684 -1.4512423 36
-7.3667741 -0.28944138 -1.5806526 31
-7.3701868 -0.28957549 -1.7122132 2
-8.1665802 -0.32086584 -2.0415163 4
-5.6919599 -0.22363774 -1.9596318 6
-1.5758623 -0.061915807 -0.73513561 12
-2.0061994 -0.064799771 0.52984995 5
-5.7846193 -0.18684186 0.80969131 20
-6.4005718 -0.20673697 0.55599004 6
-11.78626 -0.38069341 0.60666335 20
-14.328365 -0.46280283 0.48383477 2
-18.405779 0.74568683 0.5122894 42
-13.028846 -1.3716841 0.28723419 7
-11.876281 -0.3836011 0.19039875 6
-15.23472 0.61721545 0.15435147 16
-17.87306 -1.8816857 0.075908057 52
-16.967129 -0.54803425 -0.02814726 3
-18.352423 0.74352521 -0.13849016 33
-17.871607 -1.8815325 -0.24151908 37
-18.339005 -0.59234554 -0.35487342 46
-18.359087 0.74379522 -0.4638153 37
-17.852638 -1.8795356 -0.55881101 44
-18.325848 -0.59192061 -0.67969912 45
-18.340025 0.74302292 -0.78856128 52
-17.804279 -1.8744444 -0.87402099 48
-18.322968 -0.59182757 -1.0040859 41
-18.347221 0.7433145 -1.1134347 52
-17.817904 -1.8758788 -1.1922029 48
-7.9988403 -0.25836065 -0.57998127 2
-18.32476 0.74240458 -1.4369318 42
-7.8447084 -0.82589525 -0.66445887 2
-7.6728582 -0.24783152 -0.69216478 1
-7.9170446 0.32074907 -0.76099616 1
-7.6696396 -0.80746394 -0.78621513 0
-7.7350802 -0.24984129 -0.83472401 0
-7.4733691 -0.24138808 -0.93903035 1
-7.4242654 -0.23980203 -1.0643241 46
-7.4400721 -0.24031258 -1.199658 39
-7.4026184 -0.23910284 -1.3246303 36
-7.3708692 -0.23807734 -1.4504704 36
-7.3725243 -0.23813081 -1.5814912 32
-7.3837118 -0.23849218 -1.7149267 0
-8.1492271 -0.2632181 -2.0366693 4
-5.6896014 -0.1837728 -1.9583306 6
-1.5726326 -0.050795663 -0.73344564 12
-1.9950041 -0.050498679 0.52678722 10
-2.6108487 -0.066087283 0.50468051 3
-3.4849343 -0.088212647 0.48769909 5
-6.3978753 -0.16194667 0.55564404 5
-11.700774 -0.29617667 0.60214216 18
-18.299717 -0.46321285 0.61781359 29
-18.37616 0.87302679 0.51162225 37
-13.042083 -1.2810831 0.28732187 5
-18.36376 -0.46483397 0.29434583 33
-15.23004 0.72355878 0.15435147 17
-17.913628 -1.7595997 0.07602632 52
-18.066189 -0.45730168 -0.029964495 28
-18.374752 0.87295985 -0.13870127 38
-17.912169 -1.7594565 -0.24189535 39
-18.342693 -0.46430069 -0.35487342 43
-18.357439 0.87213737 -0.46391624 36
-17.893175 -1.7575908 -0.55968219 48
-18.341522 -0.46427107 -0.68014365 43
-18.346365 0.87161124 -0.78907639 46
-17.860666 -1.7543976 -0.87616652 44
-18.334639 -0.46409681 -1.0045234 42
-18.341585 0.87138414 -1.1134347 50
-17.85837 -1.754172 -1.194062 53
-8.0044374 -0.20261288 -0.58027041 2
-18.311165 0.86993891 -1.436307 42
-7.7035117 -0.75669193 -0.65203595 12
-7.6544886 -0.19375478 -0.69036883 0
-18.299063 0.86936396 -1.759469 40
-7.7186532 -0.75817925 -0.79067767 2
-7.7644658 -0.19653858 -0.83772665 1
-7.4986782 -0.18981081 -0.94202089 1
-7.4178424 -0.18776466 -1.0631895 82
-7.4257774 -0.18796551 -1.1971123 17
-7.4080434 -0.18751661 -1.3253345 35
-7.3723516 -0.18661316 -1.4504704 36
-7.3779168 -0.18675403 -1.5823298 33
-7.4825759 -0.18940322 -1.7375392 4
-8.1431074 -0.20612298 -2.0347304 4
-5.6945276 -0.14414312 -1.9596318 7
-1.6091919 -0.040732782 -0.75034529 11
-2.0185091 -0.036994927 0.53291267 5
-2.5680528 -0.047066875 0.49633244 2
-3.3864465 -0.062066268 0.47384399 3
-5.0640965 -0.092813976 0.43974072 4
-9.1144142 -0.16704758 0.46897215 16
-18.342474 -0.33617803 0.6191628 29
-14.768358 0.80499703 0.41132161 21
-13.078587 -1.1925491 0.28793561 6
-18.366558 -0.33661944 0.29434583 27
-14.769318 0.80504924 0.14973551 26
-18.228216 -1.6621095 0.077310316 47
-18.364891 -0.33658889 -0.030455282 32
-18.360224 1.0007832 -0.13864096 35
-18.234699 -1.6627007 -0.24608821 32
-18.33749 -0.33608669 -0.35471871 42
-18.350904 1.0002753 -0.46391624 36
-18.219553 -1.6613196 -0.56951427 35
-18.348314 -0.33628505 -0.68029183 45
-18.335844 0.99945426 -0.78890467 43
-17.928183 -1.6347516 -0.87889725 57
-18.337431 -0.33608562 -1.0045234 42
-18.347015 1.0000632 -1.114161 55
-18.160332 -1.6559197 -1.2134496 44
-7.9936905 -0.14650713 -0.57940304 2
-18.324554 0.99883896 -1.4378692 40
-7.6847901 -0.70072478 -0.65002143 28
-7.6596379 -0.14038466 -0.69072801 1
-18.308451 0.99796116 -1.7609987 40
-7.6246848 -0.69524419 -0.78053552 0
-7.5628591 -0.13861091 -0.8158505 0
-7.6466422 -0.14014648 -0.96046257 1
-7.4308491 -0.13619146 -1.0648915 40
-7.4466505 -0.13648106 -1.2002945 29
-7.3973618 -0.13557771 -1.3232219 36
-7.377399 -0.13521183 -1.4512423 38
-7.3751307 -0.13517025 -1.5814912 31
-7.4837155 -0.13716039 -1.7375392 8
-8.1443481 -0.14926836 -2.0347304 4
-5.7067404 -0.10459226 -1.9635355 6
-1.5695636 -0.02876672 -0.73175567 12
-1.9800456 -0.022463433 0.52270359 3
-2.5840268 -0.029315546 0.4993681 2
-3.3669913 -0.038198207 0.47107297 4
-4.7896724 -0.054338396 0.4158681 4
-7.2459512 -0.082204647 0.37279379 0
-18.340376 -0.20806988 0.61902785 13
-18.394108 1.1314789 0.51251185 40
-11.835317 -0.99592161 0.26040462 26
-11.757733 -0.13339041 0.18841209 3
-15.226437 0.93662572 0.15443246 15
-18.267275 -1.5371599 0.077428579 41
-17.058878 -0.19353141 -0.028286537 5
-18.364765 1.129674 -0.13873142 37
-18.249847 -1.5356934 -0.24614196 28
-18.33539 -0.20801331 -0.35464138 44
-18.37141 1.1300828 -0.46462283 37
-18.270546 -1.5374352 -0.57075888 35
-18.346216 -0.20813613 -0.68014365 45
-18.348362 1.1286651 -0.78976309 41
-18.225801 -1.5336701 -0.89294088 41
-18.331343 -0.2079674 -1.0040859 42
-18.339586 1.1281252 -1.114161 52
-18.215199 -1.5327778 -1.2163709 46
-8.0064859 -0.090832844 -0.58027041 2
-18.329075 1.1274786 -1.4388065 38
-7.6775789 -0.6460551 -0.64901417 32
-7.6405129 -0.086680919 -0.68893206 1
-18.308985 1.1262429 -1.7617635 38
-7.712625 -0.64900416 -0.78905493 1
-7.5715957 -0.085899055 -0.81670839 0
-7.6196542 -0.086444274 -0.95697361 1
-7.427659 -0.084266111 -1.0643241 43
-7.4434729 -0.084445514 -1.199658 45
-7.4138765 -0.084109746 -1.3260387 36
-7.374238 -0.083660051 -1.4504704 36
-7.3798051 -0.08372321 -1.5823298 31
-8.82866 -0.10016034 -2.0495906 5
-8.1335497 -0.092274375 -2.0318224 4
-5.6808558 -0.064448789 -1.954427 6
-1.5878524 -0.018014038 -0.74020553 12
-2.0226965 -0.0088261431 0.53393358 4
-2.5959506 -0.011327568 0.50164485 2
-3.4424422 -0.015021279 0.48160285 3
-4.9015145 -0.021388017 0.42555553 4
-6.7230453 -0.029336363 0.34587207 6
-8.5190687 -0.037173405 0.28752145 5
-13.447254 0.92146009 0.37484863 18
-10.019831 -0.7727443 0.22033562 7
-11.510413 -0.050226297 0.18443877 5
-15.211547 1.0423565 0.15435147 16
-18.309467 -1.4120533 0.07756374 42
-18.3678 -0.080148868 -0.030455282 33
-18.364412 1.2584035 -0.13879174 36
-18.303988 -1.4116309 -0.24673326 31
-18.340395 -0.080029286 -0.35471871 42
-18.371052 1.2588586 -0.46482471 37
-18.288807 -1.41046 -0.57100779 35
-18.351219 -0.080076516 -0.68029183 45
-18.340034 1.2567332 -0.78976309 42
-18.248014 -1.4073142 -0.89352602 55
-18.336342 -0.080011599 -1.0043046 41
-18.331263 1.2561321 -1.114161 48
-18.249331 -1.4074156 -1.2179645 39
-8.0228834 -0.035008274 -0.58142692 2
-18.328714 1.2559575 -1.4394314 38
-7.673954 -0.5918268 -0.64834267 31
-7.6528835 -0.033393763 -0.69000965 0
-18.312593 1.2548528 -1.7629107 38
-7.7328382 -0.59636801 -0.79067767 0
-7.7827864 -0.033960599 -0.83944237 12
-7.5287895 -0.032852273 -0.94550985 1
-7.4320259 -0.032430038 -1.0648915 39
-7.4478302 -0.032499 -1.2002945 45
-7.4260955 -0.032404162 -1.3281513 37
-7.3746428 -0.032179642 -1.4504704 36
-7.3802094 -0.032203935 -1.5823298 31
-7.418663 -0.032371726 -1.7221627 5
-8.1184731 -0.035425384 -2.0279448 4
-5.7114267 -0.024922112 -1.9648367 8
-1.5625614 -0.0068183192 -0.72837573 12
-2.0729864 0.0054267752 0.54720533 7
-2.6666586 0.0069809221 0.5153054 1
-3.5573442 0.0093126073 0.49767476 5
-5.3080139 0.013895605 0.4608455 3
-6.9587736 0.018217051 0.35799712 6
-9.0268297 0.023630919 0.30465668 5
-13.480365 1.0183291 0.37596062 15
-10.060885 -0.70529079 0.22112472 16
-16.653805 0.043597225 0.26685303 0
-14.298526 1.0801344 0.14516003 18
-18.342821 -1.2858732 0.077665105 42
-18.367912 0.048084509 -0.030455282 31
-18.371132 1.3877858 -0.13891238 39
-18.321377 -1.2843701 -0.24684078 32
-18.340508 0.048012767 -0.35471871 44
-18.365805 1.3873835 -0.46492565 37
-18.338091 -1.2855417 -0.57225233 34
-18.347334 0.048030637 -0.68014365 45
-18.35074 1.3862454 -0.79062158 44
-18.285294 -1.2818404 -0.89489138 46
-18.33246 0.0479917 -1.0040859 44
-18.341955 1.3855817 -1.1153715 53
-8.7232533 -0.61151981 -0.58189279 1
-8.0508585 0.021075971 -0.58345073 2
-18.323477 1.3841859 -1.4397439 42
-7.6778989 -0.53823811 -0.64834267 31
-7.6608982 0.020055111 -0.69072801 1
-18.303387 1.3826683 -1.7629107 38
-7.7526917 -0.54348123 -0.7923004 1
-7.838511 0.020520076 -0.8454476 22
-7.5089917 0.019657442 -0.94301772 1
-7.4360313 0.019466443 -1.0654589 42
-7.4557738 0.019518126 -1.2015673 40
-7.4261413 0.019440552 -1.3281513 35
-7.3629136 0.01927503 -1.4481546 36
-7.3724327 0.01929995 -1.5806526 31
-7.4070191 0.019390494 -1.7194492 2
-8.1340456 0.021293743 -2.0318224 4
-5.7001143 0.014922066 -1.9609331 6
-1.5770729 0.004128546 -0.73513561 12
-2.1231737 0.020381439 0.56047714 44
-4.8971744 0.047010504 0.9463709 13
-8.8652525 0.085102133 1.2403075 17
-6.3876758 0.061318595 0.55460614 7
-9.2633219 0.08892341 0.47657597 0
-18.392681 0.17656083 0.6207819 27
-13.508791 1.1153697 0.37696141 17
-10.724096 -0.6765821 0.23559165 5
-11.897924 0.11421432 0.19065508 11
-14.214898 1.1736703 0.1443907 15
-18.371309 -1.1590439 0.07774958 42
-17.135187 0.16448951 -0.028412551 5
-18.35701 1.5156689 -0.13888222 37
-18.345865 -1.1574386 -0.24705578 30
-18.343725 0.17609088 -0.35479608 44
-18.355673 1.5155584 -0.46492565 40
-18.342628 -1.1572344 -0.57212788 36
-18.35055 0.17615639 -0.68029183 50
-18.336634 1.5139863 -0.79044986 43
-18.301773 -1.1546569 -0.89528149 64
-18.339666 0.17605191 -1.0045234 43
-18.343773 1.5145758 -1.1160978 46
-8.5480633 -0.53929639 -0.56994152 2
-8.0824299 0.077587418 -0.58576375 1
-18.317341 1.5123935 -1.4400563 41
-7.6615796 -0.48336825 -0.6466639 53
-7.6725225 0.073652498 -0.6918056 1
-18.305193 1.5113904 -1.764058 39
-7.8620372 0.075471751 -0.84802127 21
-7.4848599 0.07185103 -0.94002718 1
-7.4475923 0.071493283 -1.0671608 43
-7.4317627 0.071341328 -1.1977488 39
-7.4336991 0.07135991 -1.3295598 35
-7.3822227 0.070865765 -1.4520143 37
-7.3838515 0.070881397 -1.5831683 32
-8.8210297 0.084677614 -2.0477817 3
-8.106534 0.077818803 -2.0250368 4
-5.7036533 0.054752313 -1.9622343 8
-1.5770055 0.01513849 -0.73513561 12
-2.1268466 0.03526761 0.56149805 25
-5.293334 0.087774664 1.0230216 20
-5.8462543 0.096943252 0.81800437 5
-6.399045 0.10610969 0.55564404 7
-11.519182 0.19101238 0.59268868 9
-15.505039 0.25710633 0.52336729 1
-13.504659 1.2100086 0.3770726 16
-11.862503 -0.66529316 0.2604923 1
-18.375116 0.30469826 0.29447401 22
-14.130666 1.2660985 0.14362139 10
-14.904446 -0.83589655 0.063051157 9
-18.36945 0.30460432 -0.030461915 31
-18.373871 1.6462868 -0.13909334 37
-18.337524 -1.0284363 -0.24684078 30
-18.338049 0.30408362 -0.35471871 42
-18.356592 1.6447387 -0.46522847 38
-18.342278 -1.028703 -0.57187897 38
-18.340879 0.30413055 -0.67999548 44
-18.341539 1.6433899 -0.79113662 46
-18.29343 -1.0259634 -0.89450127 44
-18.333998 0.30401644 -1.0043046 40
-18.332752 1.6426027 -1.1160978 52
-8.5436506 -0.47915959 -0.56941032 2
-8.1415262 0.13500372 -0.59010059 2
-18.322224 1.6416593 -1.4413061 39
-7.6687469 -0.43009177 -0.64699966 34
-7.6997042 0.12767738 -0.69431996 1
-18.310059 1.6405692 -1.7655876 35
-7.5886798 -0.4256013 -0.77485597 0
-7.8652954 0.13042322 -0.84845018 2
-7.5040174 0.12443247 -0.94251931 1
-7.4587889 0.12368248 -1.0688629 38
-7.4231863 0.12309212 -1.1964759 37
-7.4408937 0.12338574 -1.3309683 35
-7.3893967 0.12253182 -1.4535582 38
-7.3831768 0.12242868 -1.5831683 33
-8.8007431 0.14593492 -2.0432591 4
-8.113554 0.13453989 -2.0269754 4
-5.6880045 0.094319142 -1.9570295 6
-1.5659865 0.025967367 -0.7300657 12
-2.1072161 0.049659345 0.5563935 20
-5.3004451 0.12491202 1.0245395 40
-8.9265652 0.21036637 1.2491747 17
-6.3981481 0.15078086 0.55564404 5
-9.2092619 0.21702848 0.47390434 1
-18.39242 0.43344179 0.62091678 37
-13.511802 1.3057978 0.3775174 14
-13.260845 -0.65088212 0.29109204 6
-16.689224 0.39330372 0.2674939 3
-14.025932 1.3554841 0.14264959 4
-15.844784 -0.77770954 0.067004532 5
-18.354877 0.43255708 -0.030442018 34
-18.377853 1.7760594 -0.13921396 35
-18.352247 -0.90078336 -0.24694829 29
-18.343475 0.43228835 -0.35487342 44
-18.356604 1.7740057 -0.46553129 40
-18.353004 -0.90082061 -0.57200342 35
-18.342304 0.43226075 -0.68014365 43
-18.341553 1.7725512 -0.79165167 42
-18.312119 -0.89881378 -0.89508647 52
-18.347399 0.43238083 -1.0051796 41
-18.340708 1.7724695 -1.1173084 51
-8.4750328 -0.41598004 -0.56462985 2
-8.2041998 0.19334286 -0.59472656 1
-18.326193 1.7710668 -1.4425559 36
-7.6874871 -0.37732494 -0.64834267 45
-7.682694 0.18105289 -0.69288319 1
-18.310049 1.7695066 -1.7667348 35
-7.5795422 -0.37202671 -0.7736389 0
-7.617691 0.17952101 -0.82185572 0
-7.510901 0.17700435 -0.94351619 4
-7.4577432 0.17575163 -1.0688629 39
-7.4497814 0.17556399 -1.2009308 38
-7.4319777 0.17514443 -1.3295598 19
-7.3962078 0.17430146 -1.4551021 37
-7.3938718 0.1742464 -1.5856839 31
-8.8150921 0.20773934 -2.0468771 3
-8.0930185 0.19072272 -2.0221286 4
-5.6947703 0.13420482 -1.9596318 6
-1.5838894 0.037326455 -0.73851556 12
-2.0913553 0.063896842 0.55230987 17
-5.3112202 0.16227286 1.0268162 43
-8.9169598 0.27243844 1.2480663 21
-6.4128723 0.19593148 0.557028 4
-11.523377 0.35207191 0.59309971 4
-18.380953 0.56159031 0.62064695 47
-13.518265 1.4017458 0.37796217 17
-10.596071 -0.44595787 0.2325229 2
-16.682074 0.50968474 0.2674298 32
-15.241494 1.5804322 0.1551208 17
-18.367575 -0.77303785 0.077648215 41
-17.191954 0.52526301 -0.028518666 4
-18.380922 1.9059681 -0.1393346 37
-18.362085 -0.77280682 -0.24700204 30
-18.348005 0.56058371 -0.35502812 46
-18.383545 1.9062401 -0.46654066 37
-18.330885 -0.77149367 -0.57113224 37
-18.338839 0.56030363 -0.68014365 45
-18.344629 1.9022048 -0.79233843 41
-18.305973 -0.77044517 -0.89450127 57
-18.331957 0.56009334 -1.0045234 43
-18.3398 1.9017041 -1.1180347 49
-8.4378529 -0.35512474 -0.56197405 2
-8.5416031 0.26097023 -0.61930203 1
-18.337183 1.9014326 -1.4444306 38
-7.6899343 -0.32364699 -0.64834267 28
-7.7290273 0.23614374 -0.6971935 9
-18.328932 1.9005771 -1.7697941 35
-7.5859313 -0.31926981 -0.77404463 0
-7.6321526 0.23318395 -0.8235715 1
-7.5332842 0.23016323 -0.94650674 25
-7.4800811 0.22853772 -1.0722669 37
-7.4681106 0.22817199 -1.204113 39
-7.4266381 0.2269049 -1.3288556 33
-7.3948112 0.22593248 -1.4551021 36
-7.388566 0.22574167 -1.5848454 31
-7.8008366 0.23833773 -1.8117079 2
-7.8122058 0.23868509 -1.9523332 2
-5.6785717 0.1734965 -1.954427 7
-1.5799663 0.048272461 -0.73682559 12
-2.1024528 0.078930981 0.5553726 14
-5.3060331 0.19920087 1.0260572 39
-8.8950472 0.33394083 1.2452953 18
-6.4113483 0.24069698 0.557028 4
-11.524631 0.43266153 0.59330523 5
-15.971648 0.59961295 0.53942317 1
-13.512123 1.4965271 0.37807339 14
-10.327159 -0.36243469 0.22656079 5
-18.376692 0.68990391 0.29466626 21
-15.23804 1.68768 0.15520179 20
-18.356535 -0.64422798 0.077580631 45
-18.371033 0.68969142 -0.030481812 31
-18.371143 2.0346849 -0.13936476 34
-18.351042 -0.64403528 -0.24678701 32
-18.339647 0.68851316 -0.35495076 46
-18.377739 2.0354154 -0.46674255 37
-18.327833 -0.64322072 -0.57088333 36
-18.346466 0.68876916 -0.68058819 45
-18.342819 2.0315478 -0.79285347 44
-18.322884 -0.64304698 -0.89508647 23
-18.343565 0.6886602 -1.0053984 43
-18.334015 2.0305729 -1.1185188 51
-8.1489506 -0.28598982 -0.54258645 1
-18.323004 0.68788838 -1.3288106 41
-18.331387 2.0302818 -1.4450555 36
-7.6880221 -0.26981342 -0.64800692 45
-7.7550573 0.29114294 -0.69970787 26
-18.323133 2.0293677 -1.770559 36
-7.5800209 -0.26602307 -0.77323323 0
-7.650209 0.28720671 -0.8257162 1
-7.5592556 0.28379211 -0.9499957 40
-7.5218277 0.28238696 -1.0785075 15
-7.4544969 0.27985922 -1.2022038 197
-7.4288082 0.27889478 -1.3295598 33
-7.4008975 0.27784696 -1.456646 35
-7.3946261 0.27761152 -1.5865225 32
-7.5536823 0.28358287 -1.7547246 4
-7.5505209 0.28346416 -1.8873847 5
-5.6847816 0.21341997 -1.9570295 6
-1.568722 0.058893487 -0.73175567 12
-2.0748045 0.092402451 0.54822624 15
-5.3084364 0.23641385 1.0268162 40
-6.409512 0.28545079 0.557028 4
-9.2825117 0.41340128 0.47801453 1
-18.363333 0.81782013 0.62037712 27
-13.445752 1.5842725 0.37651661 1
-11.488701 -0.32291749 0.25198749 2
-15.258915 0.67956334 0.24474345 20
-15.209997 1.7921482 0.15503982 17
-15.001942 -0.42166555 0.063389055 3
-18.369768 0.81810671 -0.030488444 20
-18.380323 2.1656983 -0.13954572 39
-18.3431 -0.51557684 -0.24662575 28
-18.342386 0.81688726 -0.35510546 46
-18.371023 2.1646023 -0.46694443 37
-18.327881 -0.51514906 -0.57075888 35
-18.357182 0.81754619 -0.68118089 46
-18.344065 2.1614258 -0.79354024 43
-18.318939 -0.51489776 -0.89469635 45
-18.346291 0.81706113 -1.0058359 43
-18.347149 2.1617892 -1.1202136 49
-8.3861341 -0.23571242 -0.55825585 2
-18.317757 0.81579036 -1.3288106 43
-18.34449 2.1614761 -1.4472425 38
-7.6817503 -0.21591403 -0.64733541 38
-18.319458 0.81586611 -1.6533651 27
-18.304564 2.1567717 -1.7701765 34
-7.5896492 -0.21332531 -0.77404463 0
-7.6877484 0.34237766 -0.83000565 16
-7.5808802 0.33761823 -0.95298624 20
-7.5315399 0.33542088 -1.0802096 5
-7.5628252 0.33681417 -1.2200235 58
-7.4306135 0.33092606 -1.330264 33
-7.4379869 0.33125442 -1.4643654 70
-7.4120445 0.33009908 -1.5907152 28
-7.4386353 0.33128333 -1.7284942 18
-7.5444813 0.33599722 -1.8864152 6
-5.6718173 0.25259718 -1.9531257 6
-1.5863822 0.070650309 -0.74020553 11
-2.0741463 0.10616011 0.54822624 15
-3.6084347 0.18468893 0.69820464 36
-3.6001809 0.18426648 0.50432521 19
-6.4114575 0.3281548 0.55737394 5
-14.797037 0.75735027 0.76223385 5
-14.748286 0.75485504 0.49840647 29
-13.458756 1.676379 0.37718379 1
-13.357711 -0.28680304 0.29293326 3
-14.75479 0.75518793 0.23673274 11
-15.22556 1.8964463 0.15532327 23
-18.359604 -0.39419857 0.07756374 35
-17.161514 0.87837017 -0.028492138 1
-18.369528 2.2880487 -0.13957588 36
-18.342117 -0.39382306 -0.246572 41
-18.340557 0.93871671 -0.3551828 45
-18.384039 2.2898562 -0.46765101 36
-18.326895 -0.39349625 -0.57063442 36
-18.33539 0.93845218 -0.68058819 44
-18.353119 2.286005 -0.79457039 41
-18.313961 -0.39321855 -0.89430624 51
-18.348446 0.93912041 -1.0062734 43
-18.348255 2.2853992 -1.121182 50
-8.3994846 -0.1803451 -0.55905259 2
-18.327881 0.93806785 -1.329967 36
-18.325794 2.2826014 -1.4469301 37
-7.6750431 -0.16479063 -0.6466639 26
-18.313644 0.93733919 -1.6533651 43
-10.020107 1.248072 -0.96979213 9
-7.5749831 -0.16264224 -0.7724219 0
-9.6552896 0.49418241 -1.0427616 3
-7.6854925 0.39336318 -0.96644366 6
-7.5014691 0.38394439 -1.0762383 8
-7.5130987 0.3845396 -1.2123865 2
-7.4361205 0.38059968 -1.3316724 34
-7.4395461 0.380775 -1.4651372 144
-7.4175043 0.37964687 -1.5923922 255
-7.4751878 0.38259923 -1.7375392 14
-7.5265841 0.38522983 -1.8825377 6
-5.6737947 0.29039934 -1.954427 4
-1.5641544 0.080057427 -0.7300657 12
-2.0694933 0.12041314 0.54720533 15
-3.6109779 0.21010417 0.69896358 5
-3.6027613 0.20962609 0.50487942 2
-6.4010539 0.37244427 0.55668199 4
-9.2999516 0.54111618 0.4792476 1
-18.390406 1.0700428 0.62172633 33
-13.454653 1.7713417 0.37740618 3
-13.38338 -0.19388922 0.29345933 5
-16.677649 0.97038633 0.26768616 7
-15.231777 2.0053051 0.15552571 20
-18.349911 -0.26584092 0.077513054 40
-18.356928 1.068095 -0.030488444 26
-18.357071 2.4167583 -0.13960604 35
-18.348419 -0.26581931 -0.24662575 30
-18.341543 1.0671997 -0.3553375 40
-18.395355 2.4217985 -0.46835756 38
-18.34119 -0.26571459 -0.57100779 37
-18.344351 1.0673631 -0.68118089 45
-18.344637 2.4151216 -0.79491377 43
-18.308271 -0.26523766 -0.89391613 44
-18.353403 1.0678898 -1.0069298 41
-18.359562 2.4170864 -1.1228768 47
-8.4125118 -0.12187469 -0.55984938 2
-18.332832 1.0666929 -1.3308344 39
-18.32918 2.4130864 -1.4484923 40
-7.6760068 -0.11120472 -0.6466639 32
-18.318584 1.065864 -1.6544427 43
-7.5878706 -0.10992786 -0.7736389 0
-9.6198416 0.55972898 -1.03933 0
-18.289164 1.0641521 -2.300724 40
-7.700202 0.44803503 -1.1051724 3
-7.5338845 0.43835789 -1.216205 25
-7.4490051 0.4334192 -1.3344893 43
-7.4484606 0.43338749 -1.467453 32
-7.4498138 0.43346623 -1.5999391 24
-7.519012 0.43749252 -1.7483931 5
-7.5198369 0.4375405 -1.8815683 5
-5.671629 0.33000281 -1.954427 4
-1.5888927 0.092449464 -0.7418955 11
-2.0454464 0.13334839 0.54107994 15
-5.3141994 0.34644759 1.0290929 22
-5.7318935 0.37367821 0.80359507 0
-6.394321 0.41686371 0.55633599 5
-9.339797 0.60888755 0.4815082 1
-13.487673 0.87929922 0.45617551 4
-13.481565 1.870719 0.37851816 2
-10.945062 -0.082143441 0.23997556 4
-13.864784 0.90388417 0.22263387 5
-15.229294 2.113236 0.15564719 18
-15.07544 -0.11314222 0.063676268 5
-18.333057 1.1951834 -0.030461915 12
-18.37541 2.5497949 -0.13987747 35
-18.353825 -0.13774672 -0.24667951 30
-18.341627 1.195742 -0.3554922 42
-18.378 2.5501547 -0.46835756 37
-18.3386 -0.13763246 -0.57088333 36
-18.344433 1.195925 -0.68147725 49
-18.35504 2.5469685 -0.79611558 43
-18.309677 -0.13741538 -0.89391613 56
-18.349487 1.1962545 -1.0071485 42
-18.365971 2.5484853 -1.1243293 46
-8.4251299 -0.063231185 -0.56064612 2
-18.332901 1.1951733 -1.3314127 39
-18.327686 2.5431728 -1.4497421 36
-7.6726103 -0.05758347 -0.64632815 34
-18.326597 1.1947623 -1.6558795 43
-9.9938183 1.3867548 -0.96902728 0
-7.7277279 -0.05799713 -0.78783786 2
-9.5998259 0.62583953 -1.0376143 0
-18.269409 1.1910341 -2.2992287 68
-15.994352 1.0427167 -2.2965801 1
-7.6212769 0.4968524 -1.2308427 11
-7.5322404 0.49104786 -1.349982 18
-7.4961686 0.48869625 -1.4774883 18
-7.5714965 0.4936071 -1.6267725 2
-7.5352159 0.49124184 -1.7529156 3
-7.5204716 0.49028063 -1.8825377 6
-5.6654129 0.36934415 -1.9531257 4
-1.5665019 0.10212465 -0.73175567 12
-2.0676103 0.14929627 0.54720533 15
-5.307734 0.38325641 1.028334 25
-5.6698775 0.40940574 0.79528207 3
-6.3992043 0.46206835 0.557028 5
-9.3592234 0.67580295 0.48274127 1
-12.436522 0.8980059 0.4208256 18
-13.472133 1.9653697 0.37862936 2
-10.477481 -0.0054855407 0.2297172 4
-13.770376 0.99431968 0.221224 12
-15.222084 2.2206597 0.15572818 25
-18.363834 -0.0096144835 0.07756374 38
-18.364162 1.3260239 -0.030528238 31
-18.376951 2.6809044 -0.14002827 38
-18.342342 -0.0096032312 -0.24651824 35
-18.336821 1.3240497 -0.35556954 42
-18.38349 2.6818585 -0.46896321 38
-18.319124 -0.0095910747 -0.570261 33
-18.347595 1.3248278 -0.68192178 49
-18.344721 2.6762025 -0.7964589 42
-18.306196 -0.0095843067 -0.8937211 44
-18.344671 1.3246167 -1.0073673 41
-18.351683 2.6772182 -1.1245714 47
-8.4373398 -0.0044174143 -0.56144285 2
-18.340029 1.3242813 -1.3325691 39
-7.6768112 -0.0040192353 -0.6466639 39
-18.31781 1.322677 -1.6558795 44
-9.7947731 1.4289014 -0.95067161 0
-7.7557998 -0.0040605902 -0.79067767 1
-9.5753899 0.69141167 -1.0354695 0
-18.276482 1.3196929 -2.3012226 59
-15.931394 1.1503607 -2.2886374 1
-11.962546 0.86378145 -2.1450419 2
-10.651669 0.76912671 -2.1004417 1
-9.6236725 0.69489807 -2.0686843 2
-8.7480068 0.63166869 -2.0360231 1
-7.5284777 0.54360998 -1.8854458 7
-5.6589231 0.40861475 -1.9518245 4
-1.5765989 0.11384172 -0.73682559 12
-2.0665178 0.16372727 0.54720533 14
-5.3088441 0.42061219 1.0290929 40
-5.5918498 0.44303429 0.78475219 18
-6.4037676 0.50736141 0.55771995 6
-9.3662252 0.7420727 0.48335779 1
-12.441905 0.98575449 0.42123038 26
-13.465989 2.0605845 0.37885177 3
-13.416496 0.086642489 0.29416075 10
-13.787021 1.092326 0.2216085 8
-15.222027 2.3292959 0.15589014 18
-18.371452 0.11864114 0.077597529 40
-18.378382 1.4560931 -0.030568032 28
-18.385466 2.8133698 -0.14023937 39
-18.357958 0.118554 -0.24673326 32
-18.33909 1.45298 -0.35580158 42
-18.380131 2.8125536 -0.46936697 39
-18.342731 0.11845566 -0.57100779 35
-18.3379 1.4528857 -0.68192178 46
-18.349291 2.8078344 -0.79748905 41
-18.305817 0.11821727 -0.8937211 40
-18.346922 1.4536005 -1.0080235 43
-18.348331 2.8076878 -1.1255399 51
-8.5050135 0.054924589 -0.56595778 2
-18.342268 1.4532318 -1.3334365 38
-9.6458178 1.4760165 -0.76455152 0
-7.6846237 0.049626585 -0.64733541 32
-18.320045 1.4514712 -1.656957 68
-9.2414112 1.4141337 -0.89789903 0
-7.7795148 0.050239384 -0.79311174 2
-18.304146 1.4502115 -1.980432 45
-18.286606 1.4488218 -2.3037145 37
-15.922975 1.2615546 -2.2886374 1
-13.624952 1.0794857 -2.2026613 2
-11.924823 0.94478679 -2.1394081 2
-10.630389 0.84223062 -2.0973539 2
-9.6029921 0.76083142 -2.0653303 2
-8.7550364 0.69364911 -2.0387368 2
-7.5206308 0.59584892 -1.8844765 8
-5.6559324 0.4481115 -1.9518245 4
-1.582994 0.12541837 -0.74020553 12
-2.0499115 0.17682081 0.5431217 13
-5.3018661 0.45732716 1.028334 36
-5.6044078 0.48342374 0.78696901 20
-6.4159508 0.55342567 0.55910385 6
-9.372756 0.80847305 0.48397431 2
-12.43472 1.0725913 0.42123038 28
-13.46312 2.1564419 0.37918535 3
-11.888069 0.15977564 0.26066765 23
-13.787028 1.1892384 0.22173667 12
-15.225141 2.4386718 0.15609258 20
-15.474464 0.20797679 0.065365739 10
-18.379726 1.5853943 -0.030587928 33
-18.389072 2.9454515 -0.14042033 35
-18.372681 0.24692881 -0.24694829 32
-18.344439 1.5823504 -0.35611099 39
-18.379791 2.943965 -0.46987167 39
-18.337461 0.24645546 -0.57088333 37
-18.339258 1.5819036 -0.68236631 47
-18.337133 2.9371321 -0.79783243 82
-18.324518 0.24628152 -0.89469635 43
-18.352243 1.5830238 -1.0088985 41
-9.694396 1.5527903 -0.59533286 2
-8.612174 0.11574762 -0.57312852 2
-18.319752 1.5802209 -1.3325691 39
-9.2730198 1.4852967 -0.73580658 0
-7.6840901 0.10327416 -0.64733541 31
-18.305496 1.5789914 -1.6565979 61
-8.9836245 1.4389431 -0.87380719 0
-7.5919609 0.10203595 -0.77404463 0
-18.301502 1.5786469 -1.98129 51
-18.280001 1.5767922 -2.304213 33
-15.894054 1.3709857 -2.2858007 1
-13.605282 1.1735613 -2.200752 1
-11.894399 1.0259844 -2.1351829 3
-10.600789 0.91440052 -2.0927224 2
-9.6052399 0.82852662 -2.0670073 3
-8.7305708 0.75307965 -2.0342143 2
-7.5278869 0.64933878 -1.8873847 7
-5.6451302 0.48693636 -1.9492221 5
-1.5856919 0.13677827 -0.7418955 11
-2.0370746 0.1900498 0.54005903 10
-4.680706 0.4366886 0.90842497 11
-5.6245613 0.524746 0.79029423 9
-6.4039946 0.59746355 0.5584119 3
-9.3987017 0.87685615 0.48561838 2
-12.438869 1.1604899 0.42163515 25
-13.475342 2.2549992 0.37996376 3
-13.429971 0.27428567 0.29451147 5
-13.802282 1.2876902 0.22212119 11
-15.223524 2.5475445 0.15625456 28
-15.292674 0.31232843 0.064605474 2
-18.36821 1.7136704 -0.030587928 31
-18.379896 3.0757401 -0.14051081 38
-18.358513 0.37494326 -0.24678701 34
-18.352854 1.7122377 -0.35649773 46
-18.382454 3.0761683 -0.47047728 38
-18.339291 0.3745507 -0.57100779 38
-18.351645 1.7121251 -0.68325543 49
-18.347713 3.0703547 -0.79920596 63
-18.318357 0.37412319 -0.89450127 43
-18.340744 1.7111081 -1.0088985 46
-9.4352312 1.5789164 -0.58008033 2
-8.6590414 0.17684707 -0.57631552 2
-18.347996 1.7117845 -1.3354604 38
-9.0579033 1.5157734 -0.71955949 0
-7.695137 0.15716086 -0.64834267 31
-18.305925 1.7078596 -1.6576754 70
-8.741662 1.4628527 -0.85124499 0
-7.6388059 0.1560104 -0.77891278 1
-18.301914 1.7074853 -1.9825768 47
-18.312016 1.7084277 -2.3096957 41
-15.884095 1.4819138 -2.2858007 1
-13.596756 1.2685156 -2.200752 1
-11.890866 1.1093638 -2.1358871 3
-10.605869 0.98947942 -2.0950382 4
-9.6109037 0.89665365 -2.0695229 2
-8.7328587 0.81473601 -2.0360231 2
-7.5154419 0.70115656 -1.8854458 6
-5.6528907 0.52738899 -1.9531257 6
-1.5774788 0.14717159 -0.73851556 11
-1.98952 0.19963299 0.52780813 1
-4.4782495 0.44935787 0.86972016 3
-5.7468929 0.5766564 0.8080287 2
-6.4115629 0.64335096 0.55944985 5
-9.4162006 0.94484317 0.48685142 2
-12.434443 1.2477005 0.42177007 35
-13.471087 2.3510823 0.38029733 3
-13.423732 0.36792195 0.29442379 4
-13.828773 1.3876108 0.22269796 13
-15.23689 2.6592643 0.15657848 21
-15.262132 0.41830939 0.064487211 2
-18.395597 1.8458564 -0.03065425 31
-18.377678 3.2074196 -0.1406616 37
-18.359446 0.50320154 -0.24684078 31
-18.344433 1.8407224 -0.35657507 44
-18.384163 3.2085516 -0.47108293 39
-18.356213 0.50311297 -0.57163006 38
-18.355154 1.8417983 -0.68384814 48
-18.341579 3.2011194 -0.79989266 74
-18.311306 0.50188214 -0.89430624 57
-18.352196 1.8415015 -1.010211 42
-9.1368542 1.594637 -0.56240678 2
-8.7094603 0.23871168 -0.57976812 1
-18.335598 1.8398359 -1.3354604 38
-8.7721128 1.5309795 -0.6976884 0
-7.7297115 0.21185841 -0.65136445 16
-18.313375 1.8376062 -1.6594714 60
-8.4723587 1.478664 -0.82600588 0
-7.6534424 0.209768 -0.78053552 0
-18.301418 1.8364062 -1.9838636 47
-18.299641 1.836228 -2.3096957 33
-15.822145 1.5876304 -2.2784252 1
-13.567922 1.3614365 -2.1975698 1
-11.910257 1.1951026 -2.1408167 3
-10.594799 1.0631064 -2.0942662 4
-9.5927343 0.96255702 -2.0670073 4
-8.7192049 0.87490499 -2.0342143 3
-7.5065026 0.75321972 -1.8844765 7
-5.6377807 0.56570786 -1.9492221 6
-1.5800202 0.15854284 -0.74020553 12
-2.0457587 0.2197125 0.5431217 2
-5.2872205 0.5678423 1.0275751 13
-5.746666 0.61718631 0.8085829 7
-6.4029531 0.68767089 0.55910385 4
-9.5046997 1.0207953 0.49178365 14
-12.453254 1.3374672 0.42271453 24
-13.493686 2.4522202 0.38140932 4
-13.480785 0.46369034 0.29573897 2
-13.830678 1.4854012 0.22289021 12
-15.225823 2.7670033 0.15665947 23
-14.611228 0.50257349 0.061750263 3
-18.378286 1.9738098 -0.030647617 32
-18.370579 3.3385026 -0.14078224 36
-18.355486 0.63136238 -0.24684078 30
-18.362946 1.9721622 -0.35719386 42
-18.38492 3.3411093 -0.47168857 39
-18.336269 0.63070142 -0.57113224 38
-18.353771 1.9711771 -0.68429267 49
-18.334511 3.3319483 -0.80057943 65
-18.311348 0.62984425 -0.89450127 47
-18.346834 1.970432 -1.0106485 41
-8.842659 1.6069849 -0.54497534 5
-18.332592 0.63057494 -1.2206203 44
-18.334206 1.9690758 -1.3363278 37
-8.4904871 1.5429844 -0.6761297 0
-7.8834019 0.27116054 -0.66445887 2
-18.311983 1.9666891 -1.6605489 63
-8.2698708 1.5028915 -0.80726779 0
-7.6955385 0.26469871 -0.78499806 0
-18.319784 1.9675268 -1.9872952 52
-18.310053 1.9664818 -2.3126862 38
-11.204478 1.2033499 -1.6146411 1
-13.542381 1.4544384 -2.195024 1
-11.874218 1.2752794 -2.1358871 2
-10.587119 1.1370462 -2.0942662 2
-9.5780039 1.0286682 -2.0653303 4
-8.7167578 0.93617123 -2.0351188 2
-7.4856267 0.80394894 -1.880599 5
-5.6299329 0.60464925 -1.9479209 8
-1.5680606 0.16840819 -0.73513561 11
-2.0633874 0.2361874 0.54822624 4
-5.2987351 0.60652423 1.0306108 27
-5.7618957 0.6595403 0.81135392 3
-6.4019556 0.73280531 0.55944985 4
-10.052974 1.1507223 0.52055496 9
-12.455528 1.4257326 0.42311931 23
-13.488025 2.5485911 0.38174292 4
-13.433269 0.55597359 0.2947745 1
-13.978913 1.6001081 0.22545364 17
-15.241508 2.8799157 0.15702388 29
-14.659319 0.60671717 0.061969895 3
-18.399824 2.1061516 -0.030707307 31
-18.386127 3.4740984 -0.14108384 40
-18.362619 0.75998867 -0.24700204 37
-18.34873 2.1003029 -0.35719386 42
-18.388655 3.4745758 -0.47239515 38
-18.351393 0.75952399 -0.57175452 37
-18.35545 2.1010723 -0.68488538 45
-18.346146 3.4665437 -0.80212462 65
-18.322474 0.75832707 -0.89528149 48
-18.348505 2.1002772 -1.0115236 42
-8.6193705 1.6286485 -0.53190172 6
-18.311792 0.75788498 -1.219558 49
-18.343796 2.0997381 -1.3380625 36
-8.2757502 1.5637208 -0.65988261 0
-18.311417 0.75786948 -1.543801 37
-18.309683 2.0958333 -1.6616266 60
-7.9892182 1.50958 -0.78088152 4
-7.7889266 0.32236663 -0.79473448 2
-18.309553 2.0958185 -1.9877241 45
-10.677854 1.2222495 -1.3497316 0
-10.798484 1.2360576 -1.55734 4
-11.044445 1.2642119 -1.7915317 1
-10.922239 1.2502234 -1.966171 1
-10.598419 1.2131572 -2.0981259 2
-9.5395031 1.0919473 -2.0586219 4
-8.7061396 0.99655569 -2.0342143 3
-7.4991102 0.858392 -1.8854458 5
-5.6443644 0.64608699 -1.954427 6
-1.552439 0.17770125 -0.72837573 13
-2.0693667 0.25152007 0.55026805 6
-5.2904725 0.64302766 1.0298519 49
-5.6391768 0.68541068 0.79472786 0
-6.3966837 0.7774815 0.55944985 4
-10.064524 1.2232871 0.52158248 6
-12.44924 1.5131361 0.42325422 22
-13.505217 2.649615 0.38274369 16
-13.500957 0.65322059 0.29635271 1
-13.971373 1.698143 0.22551773 20
-15.232807 2.9885545 0.15714535 20
-15.589623 0.75427711 0.065923266 2
-18.392616 2.2355206 -0.030720573 31
-18.384979 3.6069851 -0.14126478 34
-18.352871 0.88797206 -0.24694829 36
-18.34553 2.2297976 -0.3574259 42
-18.371798 3.6043992 -0.472597 37
-18.337654 0.88723582 -0.57150561 36
-18.360176 2.2315776 -0.68562627 46
-18.337185 3.5976086 -0.80281138 71
-18.30077 0.88545126 -0.89450127 47
-18.349255 2.2302504 -1.0123986 41
-8.4471531 1.6572635 -0.52197546 4
-18.318014 0.8862856 -1.2203548 46
-18.336611 2.2287135 -1.3386407 39
-8.0807133 1.585371 -0.64519775 9
-18.317623 0.88626659 -1.5448081 39
-18.314381 2.2260115 -1.6634225 64
-7.8378267 1.5377187 -0.76711476 12
-9.6347332 0.46615997 -0.9833774 1
-10.671121 1.2970155 -1.1594342 4
-10.345995 1.2574984 -1.3088608 5
-10.258955 1.2469192 -1.4807495 6
-10.537486 1.280773 -1.710706 2
-10.541914 1.2813113 -1.8992705 2
-10.566315 1.2842771 -2.0934944 2
-9.5394125 1.1594628 -2.0602989 2
-8.6796303 1.054961 -2.0296917 5
-7.5006394 0.91166121 -1.8873847 5
-5.6209421 0.6831944 -1.9479209 6
-1.5763534 0.19159703 -0.74020553 12
-2.0675604 0.26596087 0.55026805 15
-5.2975407 0.68144971 1.0321286 36
-8.8482151 1.1381911 1.2480663 19
-6.3871479 0.82161146 0.55910385 5
-9.794241 1.2598833 0.50801891 15
-17.156786 2.2069652 0.58381289 29
-13.556917 2.7581835 0.38474527 5
-13.428188 0.74369973 0.29486218 1
-13.975044 1.7976813 0.22577408 20
-15.219411 3.0964215 0.15722634 20
-15.516082 0.85933453 0.065636054 4
-18.392429 2.365912 -0.030747101 33
-18.394625 3.7424254 -0.14153622 39
-18.358206 1.0167412 -0.24710955 32
-18.345383 2.3598602 -0.35773531 42
-18.393206 3.7421367 -0.47380829 42
-18.327023 1.0150142 -0.57138115 37
-18.352077 2.3607216 -0.68592262 44
-18.354698 3.7343023 -0.80469996 44
-18.314087 1.0142977 -0.89547652 43
-18.333237 2.3582981 -1.0123986 42
-8.2945271 1.687539 -0.51325977 2
-18.31138 1.0141479 -1.2203548 49
-18.344345 2.3597269 -1.3403754 37
-18.314968 1.0143466 -1.545144 33
-10.079723 1.2966063 -0.91630119 9
-7.7293568 1.572554 -0.75755447 0
-9.6074038 0.53209138 -0.98094332 0
-10.322584 1.3278468 -1.1225451 5
-9.9393883 1.2785543 -1.25852 4
-9.8494253 1.266982 -1.4228811 3
-10.203195 1.3124892 -1.6578828 4
-10.419456 1.340308 -1.8788483 1
-10.557092 1.3580127 -2.0934944 2
-9.5349646 1.2265311 -2.0611374 2
-8.6643248 1.1145364 -2.0278828 5
-7.4979415 0.96449852 -1.8883541 4
-5.6122842 0.72193682 -1.9466196 6
-1.5713817 0.20213485 -0.73851556 12
-2.0311618 0.27570686 0.54107994 15
-5.2965455 0.71894515 1.0328876 36
-8.8439789 1.2004685 1.2486205 16
-6.4128466 0.87047017 0.56187171 3
-10.093964 1.3701395 0.52404863 8
-16.903276 2.2944255 0.57571751 27
-13.49038 2.8428674 0.38341087 5
-13.426661 0.83767712 0.29494986 0
-13.981969 1.8978915 0.2260945 20
-15.240476 3.2116702 0.15767173 26
-15.677378 0.97809726 0.066345632 5
-18.387356 2.495872 -0.030766997 31
-18.395447 3.8765264 -0.14174733 35
-18.362635 1.145628 -0.24727081 29
-18.348276 2.4905674 -0.35812205 41
-18.40185 3.8778758 -0.47471675 36
-18.343431 1.1444299 -0.57212788 39
-18.362875 2.4925492 -0.68695986 45
-18.351645 3.8672957 -0.80573004 42
-18.314535 1.1426271 -0.89586663 56
-18.359863 2.4921403 -1.0148048 40
-8.298171 1.748698 -0.51422817 3
-18.303854 1.1419607 -1.2203548 48
-18.347191 2.4904201 -1.3418211 37
-7.878294 1.660216 -0.63082528 0
-18.307442 1.1421845 -1.545144 34
-10.204645 1.3851633 -0.92851377 21
-7.7649436 1.6363293 -0.76214343 0
-9.5955114 0.59865516 -0.98013198 1
-9.8795748 1.3410387 -1.0753614 3
-9.5605402 1.2977334 -1.2116681 5
-9.4244413 1.2792594 -1.3627434 5
-9.68116 1.3141061 -1.5745114 4
-9.7348452 1.3213933 -1.7570189 1
-10.508463 1.4264029 -2.0857749 2
-9.4951658 1.2888595 -2.0544293 2
-8.6486111 1.1739495 -2.0260737 2
-7.9601755 1.0805023 -2.0066185 6
-5.6033597 0.76059163 -1.9453185 6
-1.5878948 0.21553846 -0.74696535 12
-2.0215304 0.28878641 0.53903812 14
-5.2952857 0.75645989 1.0336465 34
-5.9490795 0.84985781 0.84072673 4
-6.1699157 0.88140547 0.5411129 3
-10.119743 1.4456595 0.52589822 8
-16.685013 2.3835435 0.56883639 29
-13.497552 2.9429412 0.38418928 6
-13.711716 0.95160401 0.30135038 8
-13.988174 1.9982855 0.22641493 17
-15.237222 3.3222506 0.1578742 22
-15.773916 1.0947224 0.066784896 5
-18.393242 2.627573 -0.030806791 31
-18.395292 4.0108209 -0.14195845 35
-18.370152 1.2749032 -0.24748583 38
-18.350237 2.6214294 -0.35850877 42
-18.389956 4.0096579 -0.47512048 37
-18.354939 1.2738473 -0.57275015 39
-18.360855 2.6229465 -0.68755263 47
-18.339815 3.9987252 -0.80641681 70
-18.318069 1.2712886 -0.89645177 78
-18.361786 2.6230795 -1.0158987 41
-8.2545528 1.799783 -0.51229131 4
-18.315344 1.2710994 -1.2216827 54
-18.357004 2.6223962 -1.3438449 34
-7.9093709 1.7245212 -0.63426214 0
-18.310949 1.2707945 -1.5461512 32
-7.7338791 1.6862578 -0.76023138 0
-18.296926 1.2698213 -1.8697964 41
-9.499898 1.3571112 -1.0350406 4
-9.2055016 1.3150551 -1.1678069 6
-9.0703402 1.2957467 -1.3128178 5
-9.3081789 1.3297232 -1.515324 8
-9.3005056 1.328627 -1.6802593 7
-10.478821 1.4969556 -2.0819151 1
-9.5052948 1.3578823 -2.0586219 2
-8.6363468 1.2337484 -2.0251691 2
-7.9332299 1.1333044 -2.0017717 9
-5.6016574 0.80022675 -1.9466196 6
-1.5612282 0.22302981 -0.73513561 13
-2.0309391 0.30461329 0.54210085 15
-5.2976432 0.79457462 1.0351644 35
-5.6178403 0.84259981 0.79472786 0
-6.3921857 0.95874119 0.56117976 6
-10.144958 1.5216062 0.52774781 5
-16.442616 2.4661694 0.56114578 23
-13.488379 3.0397375 0.38452286 6
-13.640939 1.0424311 0.29994753 14
-13.985749 2.0976727 0.22660719 16
-15.240971 3.4347012 0.15815763 22
-15.737972 1.2026849 0.066666633 5
-18.40214 2.7600713 -0.030853217 32
-18.386353 4.1435432 -0.14210923 32
-18.372766 1.4040341 -0.24764709 31
-18.355219 2.7530339 -0.35897288 42
-18.392723 4.144979 -0.47592801 37
-18.361542 1.4031763 -0.57324797 36
-18.357908 2.7534373 -0.68814534 47
-18.346539 4.1345711 -0.807962 53
-18.340616 1.4015772 -0.89801222 44
-18.354876 2.7529824 -1.016555 41
-8.222312 1.852978 -0.5110808 4
-18.321941 1.4001501 -1.2227449 47
-7.9049191 1.7814504 -0.63488704 0
-18.333426 1.4010277 -1.5488372 38
-9.7391157 1.4607353 -0.88792497 0
-7.7258024 1.7410848 -0.76061374 0
-18.307455 1.3990431 -1.8718249 44
-9.2070189 1.380928 -1.0041567 5
-8.870327 1.3304287 -1.1264377 8
-8.7673922 1.3149898 -1.2702675 5
-9.0096731 1.3513287 -1.4682287 6
-8.9561224 1.3432969 -1.6196969 4
-10.487523 1.5729861 -2.0857749 1
-9.4762449 1.4213082 -2.0544293 2
-8.6159639 1.2922777 -2.0224557 2
-7.7716112 1.1656362 -1.9629964 4
-5.5884528 0.83819211 -1.9440173 6
-1.5775599 0.23661259 -0.74358547 12
-2.0402248 0.32058555 0.54516351 14
-5.2997265 0.83275902 1.0366821 35
-8.7855911 1.3805015 1.2441869 21
-6.3971467 1.0051994 0.56221765 4
-9.4947882 1.4919395 0.49445528 1
-16.19594 2.5449078 0.55332023 24
-13.49409 3.1401739 0.38530126 7
-13.653255 1.1393002 0.30038592 15
-13.994469 2.1989853 0.22699171 14
-15.24389 3.5473652 0.15844107 27
-15.749122 1.3141905 0.066751108 4
-18.386374 2.889096 -0.03085985 31
-18.388144 4.2790561 -0.14235051 37
-18.362516 1.532266 -0.24764709 29
-18.343452 2.8823519 -0.35912755 40
-18.382811 4.2778149 -0.47643271 36
-18.355282 1.5316623 -0.57337242 39
-18.350084 2.883394 -0.68858987 48
-18.348366 4.2697992 -0.80933553 46
-18.342329 1.5305815 -0.89859736 44
-18.366774 2.8860164 -1.0183049 41
-8.1702881 1.9012859 -0.50865978 4
-18.323652 1.5290229 -1.2235417 50
-9.5297699 1.4974363 -0.69910008 0
-7.8884048 1.8356898 -0.63457459 0
-18.327169 1.5293165 -1.549173 38
-9.378417 1.4736537 -0.85595679 0
-7.7018247 1.7922711 -0.75946653 0
-18.332932 1.5297973 -1.875476 40
-8.9142857 1.4007237 -0.97327274 6
-8.6098967 1.3528943 -1.0945386 8
-8.4020452 1.3202341 -1.2186399 4
-8.566988 1.3461519 -1.3975856 4
-8.5458775 1.3428348 -1.5471625 2
-8.5337915 1.3409356 -1.6990343 1
-8.3610697 1.3137954 -1.8146061 1
-8.5913343 1.3499776 -2.0188377 2
-7.7747846 1.2216711 -1.9659045 4
-5.5862017 0.87777364 -1.9453185 8
-1.572288 0.24705748 -0.7418955 12
-2.0608354 0.33858323 0.55128896 16
-5.3015342 0.87101114 1.0382 40
-8.7210131 1.4328116 1.236428 18
-6.4096346 1.0530657 0.56394756 3
-9.5077934 1.562075 0.49568835 1
-15.976592 2.624861 0.54643917 27
-13.50683 3.2427046 0.38630202 9
-13.6609 1.2360251 0.30073664 17
-13.998509 2.2998736 0.22731213 15
-15.242089 3.6593037 0.15868402 21
-15.970618 1.4450061 0.067731 3
-18.397331 3.0225744 -0.030912908 34
-18.392826 4.415729 -0.14262193 38
-18.363323 1.6614958 -0.24780835 39
-18.346561 3.0142331 -0.35959166 67
-18.395267 4.4163151 -0.47754303 36
-18.356091 1.6608413 -0.57374579 37
-18.361063 3.0166159 -0.68977529 51
-18.353083 4.4061875 -0.81088066 52
-18.331198 1.6585891 -0.89859736 43
-18.358002 3.0161126 -1.0189612 31
-8.1490498 1.9564146 -0.50817555 5
-18.332405 1.6586984 -1.2248696 51
-9.2080803 1.512834 -0.67625934 0
-7.8676419 1.8888546 -0.6339497 0
-18.312078 1.6568592 -1.5488372 32
-9.1084461 1.4964646 -0.83225006 0
-7.6813817 1.8441374 -0.75870174 0
-18.305952 1.6563048 -1.8738533 37
-8.6609812 1.4229487 -0.94667828 7
-8.3378477 1.3698598 -1.0611442 8
-8.1230278 1.3345662 -1.1794935 8
-8.4599619 1.3899224 -1.3816751 3
-8.3031683 1.3641622 -1.5049096 1
-8.2647381 1.3578483 -1.6473144 0
-8.1587238 1.3404309 -1.7726789 2
-8.4740458 1.3922364 -1.9935118 2
-7.7660666 1.2759194 -1.9659045 4
-5.5836697 0.91736442 -1.9466196 6
-1.5669473 0.25744033 -0.74020553 12
-2.0507975 0.35165405 0.54924715 16
-5.3069372 0.90999037 1.0404767 33
-8.6717539 1.4869618 1.230886 9
-6.3981996 1.0971112 0.56360161 3
-11.71333 2.0085065 0.61139005 19
-15.768749 2.7038968 0.53996283 23
-13.499387 3.3407631 0.38674682 7
-13.659899 1.3321424 0.30091199 16
-13.989997 2.3988907 0.22744031 11
-15.243349 3.7723503 0.15896745 20
-15.944218 1.5549139 0.067663424 5
-18.407322 3.1563377 -0.030965965 32
-18.396496 4.5526757 -0.14289337 35
-18.363218 1.79082 -0.24796961 34
-18.34478 3.1456134 -0.35997841 75
-18.41445 4.5571189 -0.47885525 40
-18.348026 1.7893385 -0.5738703 37
-18.351376 3.1467447 -0.69021982 46
-18.34127 4.5390091 -0.81173915 48
-18.335077 1.7880757 -0.89937752 46
-9.4123163 1.6139474 -0.52304345 2
-8.1041861 2.005585 -0.50623876 6
-18.324352 1.7870296 -1.2251352 46
-8.9299088 1.5312281 -0.65659893 0
-7.8542633 1.9437351 -0.6339497 0
-18.323868 1.7869824 -1.5508517 37
-8.8464794 1.5169222 -0.80926168 0
-7.6837802 1.9015447 -0.76023138 0
-18.333549 1.7879267 -1.8779101 39
-8.407814 1.4417034 -0.92008376 11
-8.109025 1.3904697 -1.0332325 9
-7.949604 1.3631334 -1.1556654 15
-8.0024443 1.3721941 -1.3084865 0
-8.0023766 1.3721825 -1.4520934 2
-7.9378529 1.3611184 -1.5840156 1
-7.8561993 1.3471171 -1.7089497 2
-8.0301609 1.3769467 -1.8913037 1
-7.7760949 1.3333814 -1.9707514 4
-5.5771298 0.95632082 -1.9466196 6
-1.5686854 0.26898539 -0.7418955 12
-2.0597143 0.36800346 0.55230987 17
-5.3043208 0.94770831 1.0412357 34
-5.4361367 0.97125942 0.7725597 3
-6.3864617 1.1410514 0.56325561 3
-11.726549 2.09515 0.61282861 18
-15.639297 2.7942297 0.53618497 26
-13.522231 3.4467766 0.38808119 8
-13.678107 1.4303855 0.30152574 17
-14.004406 2.5021284 0.22795299 13
-15.247648 3.8865805 0.15929137 22
-15.94093 1.6670197 0.067697212 5
-18.396652 3.2868788 -0.030985862 38
-18.383642 4.685936 -0.14304416 38
-18.354248 1.9193919 -0.24802338 28
-18.369617 3.2820485 -0.36090657 64
-18.405436 4.6914907 -0.47946087 37
-18.34304 1.9182198 -0.57411921 34
-18.356504 3.279706 -0.69125712 45
-18.34786 4.676815 -0.813456 45
-18.330095 1.9168661 -0.89976764 42
-9.1020069 1.6262302 -0.50641805 2
-8.0861187 2.0611277 -0.50599664 7
-18.327309 1.9165747 -1.2261976 43
-8.6794329 1.5507302 -0.63896245 0
-7.844367 1.9995059 -0.63426214 0
-18.330769 1.9169365 -1.5525305 38
-8.5768385 1.5323999 -0.78555495 0
-7.6548843 1.9512073 -0.75870174 0
-18.328535 1.9167031 -1.8787215 36
-8.2213717 1.4688897 -0.90078133 9
-7.9076796 1.4128432 -1.0088097 10
-7.7917757 1.392135 -1.1341066 14
-7.8177328 1.3967726 -1.2798474 14
-7.7367773 1.3823086 -1.4056151 17
-7.7079306 1.3771546 -1.5400152 4
-7.8312025 1.3991792 -1.7055955 3
-7.8745971 1.4069325 -1.8569328 1
-7.7742372 1.3890014 -1.9726901 5
-5.5591469 0.99323738 -1.942716 6
-1.5632002 0.27929267 -0.74020553 13
-2.0570951 0.38237399 0.55230987 16
-5.3130202 0.98758721 1.0442713 34
-5.2072248 0.96792197 0.74097008 4
-6.3861756 1.187066 0.56394756 2
-11.735202 2.1813459 0.61406165 18
-15.466122 2.8748517 0.53092301 21
-13.49784 3.5410891 0.38808119 9
-13.679711 1.5271728 0.30178878 16
-14.010189 2.6042218 0.22833751 11
-15.24336 3.9990172 0.15953432 21
-15.95673 1.7813742 0.067815475 5
-18.408651 3.4218104 -0.031045552 32
-18.408518 4.8293805 -0.14349654 39
-18.384123 2.0523629 -0.24861467 32
-18.354118 3.411674 -0.36106128 84
-18.391575 4.8249354 -0.47996557 34
-18.345095 2.0480061 -0.57461703 35
-18.36067 3.4128921 -0.69229436 46
-18.349554 4.8139114 -0.81500119 55
-18.33215 2.0465608 -0.90054786 44
-8.8940935 1.6532391 -0.4954803 1
-8.0908432 2.1225913 -0.50720716 10
-18.325382 2.0458052 -1.2269943 49
-8.4291325 1.5668119 -0.62132591 0
-7.8610759 2.0623128 -0.63676172 0
-18.32486 2.045747 -1.553202 38
-8.3348436 1.5492854 -0.76436257 0
-7.6526313 2.0076284 -0.75984895 0
-18.302843 2.0432892 -1.8775045 40
-8.0232382 1.4913641 -0.88019204 14
-7.7532496 1.4411784 -0.99036801 2
-7.6923313 1.4298549 -1.1210579 27
-7.7068453 1.4325528 -1.2633003 22
-7.6301579 1.4182981 -1.3880098 22
-7.6248131 1.4173046 -1.5253483 22
-7.7251124 1.4359484 -1.6846319 0
-7.864583 1.4618732 -1.8569328 2
-7.7796121 1.4460788 -1.9765677 4
-5.5557961 1.0327146 -1.9440173 6
-1.5505192 0.28821141 -0.73513561 13
-2.0353885 0.39305931 0.54720533 16
-5.2867155 1.0209318 1.0404767 24
-4.9397402 0.95392644 0.70383847 22
-6.3855577 1.2331321 0.56463951 2
-11.778522 2.2745819 0.61714429 18
-15.363246 2.9668374 0.52808958 11
-13.511394 3.6456516 0.38919318 9
-13.966553 1.6579947 0.30836466 22
-14.042717 2.7118266 0.22917062 9
-15.238239 4.1115899 0.15977727 13
-16.027319 1.9026321 0.068170264 5
