# .PCD v0.7 - Point Cloud Data file format
VERSION 0.7
FIELDS x y z intensity
SIZE 4 4 4 4
TYPE F F F F
COUNT 1 1 1 1
WIDTH 1384
HEIGHT 1
VIEWPOINT 0 0 0 1 0 0 0
POINTS 1384
DATA ascii
13.927205 -14.779187 -0.15311727 32
13.888417 -10.995991 -0.23807879 30
13.848625 -12.703273 -0.36345905 37
11.874592 -12.601007 -0.43706644 0
13.929965 -11.028886 -0.55308598 30
13.885892 -12.737457 -0.69851786 35
11.768762 -12.488704 -0.73722672 0
13.854355 -10.969023 -0.86270809 54
13.9335 -12.781128 -1.0355866 32
11.744329 -12.462776 -1.0383825 0
13.899701 -11.004925 -1.1797205 37
13.959044 -12.804559 -1.3727573 19
11.768241 -12.488152 -1.3444483 0
13.90628 -11.010133 -1.4941092 8
12.538739 -11.501721 -1.534113 2
11.337902 -12.031486 -1.5877669 2
11.780754 -9.3272734 -1.5318619 1
10.752726 -9.8634195 -1.5737936 3
9.4322243 -8.6521311 -1.6074166 1
8.3772736 -7.6844301 -1.6288245 1
7.5023537 -6.8818707 -1.6406994 2
6.7956705 -6.2336335 -1.6492739 3
6.2184076 -5.7041135 -1.6596655 3
5.747097 -5.2717824 -1.6720538 4
5.3119864 -4.8726583 -1.6733198 4
4.9818125 -4.5697913 -1.6886616 8
3.7044113 -3.3980374 -1.7293166 6
2.7625296 -2.534054 -1.7474258 8
4.1245189 -3.8394525 1.4874593 18
4.2026873 -3.9122181 1.1095383 26
8.2318411 -7.6628971 1.5733838 21
7.4787312 -6.9618378 0.88709301 3
13.795091 -12.841641 0.96959269 26
13.843512 -12.886717 0.63832188 30
13.851638 -14.916574 0.5661093 42
13.820955 -11.108365 0.38876566 38
13.878892 -12.919651 0.3038305 25
13.888943 -14.956747 0.20662528 41
13.874037 -11.151029 0.075181581 41
13.91286 -12.951271 -0.031516444 23
13.921921 -14.99226 -0.15426332 25
13.891613 -11.165154 -0.23953016 29
13.84295 -12.886193 -0.36577952 34
11.670342 -12.567576 -0.43292794 0
13.911072 -11.180795 -0.55557513 33
13.888699 -12.928781 -0.70340782 40
11.617073 -12.510212 -0.73344958 0
13.857657 -11.137863 -0.8679744 44
13.93006 -12.967283 -1.0423681 31
11.582018 -12.472463 -1.0320879 0
13.902653 -11.174028 -1.1868913 40
13.961171 -12.996243 -1.3822984 20
11.603115 -12.495181 -1.3360124 0
13.868692 -11.146733 -1.4988097 7
12.471586 -11.609612 -1.5362682 2
11.249402 -12.114273 -1.5877669 2
11.764795 -9.45576 -1.5387585 1
10.700511 -9.9609442 -1.5767963 3
9.380168 -8.7318563 -1.6094103 1
8.3265152 -7.7510276 -1.6299591 2
7.4632673 -6.947443 -1.6432451 2
6.7584391 -6.2913289 -1.6513865 3
6.1821728 -5.7548919 -1.6612093 4
5.7111611 -5.3164339 -1.6728923 4
5.3017931 -4.9353595 -1.6814603 5
4.9396586 -4.5982537 -1.6857535 6
3.6683288 -3.4147918 -1.7241117 6
2.7253039 -2.5369444 -1.7355961 11
4.06949 -3.8416045 1.4772502 21
4.1524253 -3.9198954 1.1034669 28
8.114769 -7.6603537 1.5611913 22
7.4994931 -7.0795321 0.89539653 4
13.809678 -13.036355 0.976991 27
13.852048 -13.076353 0.64290929 35
13.849774 -15.124972 0.57033479 52
13.826755 -11.272807 0.39113298 37
13.884332 -13.106829 0.30594534 19
13.87873 -15.156593 0.20804247 39
13.857857 -11.298164 0.075519472 40
13.903546 -13.124968 -0.031702146 22
13.893928 -11.327572 -0.24092777 29
13.842803 -13.067626 -0.36817729 36
11.536412 -12.598611 -0.43121198 0
13.922542 -11.350901 -0.55918437 31
13.896928 -13.11872 -0.70844591 36
11.456584 -12.511432 -0.72881401 0
13.866267 -11.30502 -0.87343585 43
13.926324 -13.146469 -1.0489306 29
11.435343 -12.488235 -1.0267615 0
13.895454 -11.328817 -1.1929997 39
13.962934 -13.181029 -1.3915503 21
11.437502 -12.490593 -1.3269515 0
13.805984 -11.255874 -1.5004885 6
12.404717 -11.710071 -1.5380641 2
11.140354 -12.166085 -1.5843252 2
11.698497 -9.5376606 -1.5387585 1
10.645168 -10.049054 -1.578941 3
9.3189793 -8.7971296 -1.6094103 2
8.2750788 -7.8116865 -1.6305264 2
7.4289417 -7.0129313 -1.6464272 2
6.7143526 -6.3383584 -1.6513865 3
6.1389918 -5.795217 -1.6604375 3
5.679594 -5.3615451 -1.6745694 4
5.2672086 -4.9722524 -1.6814603 4
4.8989706 -4.6246352 -1.6828452 6
3.6499002 -3.4455111 -1.7267141 6
2.7180719 -2.5658638 -1.7423559 13
4.0006657 -3.8298039 1.4619367 24
4.0426865 -3.8700299 1.0814583 11
8.0153084 -7.672987 1.5523241 22
7.4930668 -7.1730499 0.90058625 3
13.804901 -13.215317 0.98315632 25
13.849946 -13.258437 0.64709193 34
13.84835 -15.337032 0.57467151 40
13.834008 -11.44042 0.39358798 37
13.884944 -13.29194 0.30799609 26
13.879799 -15.371861 0.20966211 36
13.86187 -11.46346 0.075975634 41
13.921379 -13.326819 -0.031954169 22
11.665945 -12.920022 -0.13125199 0
13.869989 -11.470175 -0.24189535 32
13.849463 -13.257974 -0.37080714 40
11.381181 -12.604646 -0.4286885 0
13.861444 -11.463109 -0.5599311 37
11.296647 -12.511024 -0.72417843 0
13.863977 -11.465203 -0.87831211 45
11.275634 -12.487752 -1.0202248 0
13.868314 -11.468789 -1.1975145 48
13.965678 -13.369226 -1.4010913 21
11.259158 -12.469505 -1.3163283 0
12.787152 -10.574693 -1.3977475 13
12.383099 -11.854237 -1.5456072 2
11.060484 -12.249474 -1.58509 2
11.653093 -9.6368513 -1.5415983 1
10.606357 -10.153377 -1.5836593 3
9.263072 -8.8674612 -1.6104071 2
8.2117624 -7.8610511 -1.6288245 2
7.38836 -7.0728154 -1.6483365 2
6.6813173 -6.3959689 -1.6542034 3
6.1153965 -5.8542175 -1.665069 4
5.6505022 -5.4091783 -1.677085 4
5.2211099 -4.9981251 -1.6778423 4
4.8721724 -4.6640902 -1.6847841 7
3.633955 -3.4787548 -1.7306178 6
2.700093 -2.5847764 -1.7423559 13
3.9571812 -3.8414769 1.4558113 24
4.0578394 -3.9391918 1.0928421 20
7.901855 -7.6708121 1.5406858 26
7.4971342 -7.2779245 0.90715986 2
13.821224 -13.417105 0.99096566 27
13.848837 -13.44391 0.65140945 33
13.852611 -15.558764 0.57934183 28
13.77525 -11.554711 0.39420173 46
13.89225 -13.486053 0.31023908 27
13.881194 -15.590867 0.21132223 40
13.806018 -11.58052 0.076110788 49
13.934195 -13.526772 -0.032199565 23
11.535565 -12.95634 -0.13079961 0
13.835539 -11.605282 -0.24270168 30
13.842653 -13.437907 -0.37312758 36
11.191864 -12.570306 -0.42485282 0
13.854594 -11.621265 -0.56291807 37
12.920813 -12.54302 -0.66754836 0
11.153223 -12.526906 -0.72057301 0
13.811146 -11.584822 -0.88006753 55
12.838693 -12.463302 -0.98002285 0
11.119147 -12.488634 -1.0139301 0
13.836835 -11.606369 -1.2017639 50
13.975056 -13.566439 -1.4114997 9
11.113491 -12.482281 -1.3094546 1
12.771039 -10.712377 -1.4041269 35
12.402944 -12.040293 -1.5585382 3
10.979992 -12.332339 -1.5858549 1
11.612971 -9.7409868 -1.5452495 2
10.540921 -10.232715 -1.5845172 3
9.2351122 -8.965086 -1.6163882 2
8.1822519 -7.9430108 -1.6339304 2
7.3529706 -7.1379766 -1.6515186 2
6.6478033 -6.4534278 -1.6570202 3
6.0715609 -5.8940339 -1.6642971 4
5.6013761 -5.4375973 -1.6737309 4
5.1888852 -5.0371671 -1.6787468 4
4.858984 -4.7169118 -1.6915697 6
3.6095803 -3.5040395 -1.7306178 7
2.6819823 -2.6035635 -1.7423559 13
3.8985314 -3.8350909 1.4435604 20
4.0092263 -3.9439845 1.0867708 17
7.7971501 -7.6702671 1.5301559 21
7.488472 -7.366612 0.91200358 2
13.81452 -13.589717 0.99692541 26
13.856266 -13.630784 0.65599686 31
13.862597 -15.779461 0.58412337 31
13.789715 -11.723526 0.39683208 44
13.888036 -13.662037 0.31216165 22
13.893644 -15.8148 0.21310383 38
13.811192 -11.741784 0.076566949 48
13.932573 -13.70585 -0.032405164 23
11.372827 -12.945415 -0.129925 1
13.834445 -11.761554 -0.24404554 29
13.841606 -13.616362 -0.37552539 36
11.07922 -12.611209 -0.42374247 0
13.868594 -11.790586 -0.56665176 36
12.720509 -12.513508 -0.66147304 0
10.982858 -12.501523 -0.71490729 0
13.804017 -11.735685 -0.88455373 58
12.715889 -12.508964 -0.97696024 3
10.97547 -12.493113 -1.0083617 0
13.847735 -11.772853 -1.2094659 44
12.627691 -12.422201 -1.2837073 3
10.946241 -12.459844 -1.2994564 0
12.781702 -10.866549 -1.4131923 47
10.958404 -12.473687 -1.5946503 1
11.560237 -9.8281031 -1.5468721 2
10.501175 -10.330289 -1.5888066 3
9.1924267 -9.0428381 -1.6193788 3
8.1350374 -8.002656 -1.6350652 2
7.3110981 -7.1921248 -1.6527914 2
6.6188912 -6.5111823 -1.6605413 3
6.0435286 -5.9451823 -1.6673849 3
5.5819182 -5.4910841 -1.6787621 4
5.1720295 -5.0878649 -1.6841738 4
4.8248272 -4.7463131 -1.6906003 5
3.5862613 -3.5279021 -1.7306178 6
2.6749938 -2.6314638 -1.7491157 11
3.8470197 -3.8376319 1.4343722 20
3.9593508 -3.9496889 1.0806993 28
7.695734 -7.6769543 1.5207344 15
7.4904647 -7.4721856 0.91857719 3
13.821122 -13.787395 1.0043237 25
13.873978 -13.840121 0.66139376 30
13.85158 -15.990701 0.58834893 26
13.774168 -11.87696 0.398761 44
13.888591 -13.854699 0.31434056 24
13.892888 -16.038389 0.21480446 35
13.819765 -11.916277 0.07707379 49
13.932833 -13.898832 -0.03263066 21
11.269078 -13.009379 -0.1297742 0
13.824697 -11.92053 -0.24533564 31
13.859463 -13.825642 -0.37861931 41
10.928072 -12.615711 -0.42131993 0
13.861643 -11.952387 -0.56976318 37
12.51398 -12.483442 -0.65524948 0
10.837749 -12.51144 -0.7111302 0
13.812525 -11.910034 -0.89040524 42
12.475558 -12.445114 -0.9651475 2
10.814788 -12.484932 -1.0015829 0
13.840778 -11.934396 -1.2161055 45
12.472873 -12.442435 -1.2767683 1
10.798936 -12.466633 -1.2922701 0
12.793073 -11.030997 -1.4229292 51
12.178658 -12.148938 -1.5509951 3
10.876266 -12.555906 -1.5954151 1
11.509428 -9.9241581 -1.5493063 2
10.442878 -10.417394 -1.5909514 3
9.1346912 -9.1124001 -1.6203756 3
8.0845766 -8.0648479 -1.6361998 2
7.2690969 -7.2513585 -1.6547008 2
6.5704856 -6.5544515 -1.6598371 3
6.0046539 -5.9900012 -1.6681567 3
5.5323715 -5.5188713 -1.675408 4
5.125349 -5.1128421 -1.6805558 4
4.7943211 -4.7826219 -1.6915697 5
3.5695779 -3.5608673 -1.7345214 6
2.6591241 -2.6526351 -1.7508057 12
3.8011022 -3.8451409 1.4272258 21
3.9233985 -3.9688542 1.0784227 24
7.572329 -7.6600604 1.5068793 5
7.4773393 -7.5639706 0.92342091 4
13.825635 -13.985816 1.0117221 24
13.852903 -14.013401 0.66503668 28
13.851269 -16.217752 0.59313041 29
13.760152 -12.033381 0.40077761 42
13.892753 -14.053712 0.31664765 24
13.889683 -16.26273 0.21650508 50
13.799468 -12.067763 0.077428579 50
13.931075 -14.092478 -0.032856155 24
11.162395 -13.069488 -0.12959325 0
13.86157 -12.122073 -0.24748583 28
13.852576 -14.01307 -0.38109446 17
10.767016 -12.606557 -0.41849363 0
13.919312 -12.172568 -0.57561266 30
12.333791 -12.476687 -0.65035957 0
10.693041 -12.519943 -0.70735306 0
13.807234 -12.074555 -0.89547652 46
12.304136 -12.44669 -0.95858485 2
10.66513 -12.487264 -0.9957723 0
13.892321 -12.148965 -1.2280567 36
12.301564 -12.444088 -1.2680947 1
10.652074 -12.471977 -1.2850839 0
12.79676 -11.190886 -1.4319946 71
12.104752 -12.244995 -1.5524318 3
10.79869 -12.643642 -1.5969447 1
11.460832 -10.022604 -1.5521461 3
10.386673 -10.507011 -1.5935251 2
9.0848045 -9.1900597 -1.6228677 2
8.041996 -8.135169 -1.6390365 2
7.2238503 -7.3075442 -1.6559736 2
6.5411773 -6.616962 -1.6640624 3
5.9709692 -6.0401478 -1.6704726 3
5.499208 -5.562921 -1.677085 4
5.1032271 -5.1623526 -1.6850783 5
4.7744579 -4.8297739 -1.6964166 6
3.5419729 -3.5830095 -1.7332202 6
2.6354437 -2.6659775 -1.7474258 12
3.7498684 -3.8466599 1.4180378 20
3.8818879 -3.9820874 1.074628 24
4.0151176 -4.1187558 0.80470347 2
7.4938936 -7.6873264 0.93207043 3
13.825256 -14.182115 1.0189149 27
13.871939 -14.23 0.67070347 31
13.853606 -16.451691 0.59813434 58
13.810441 -12.248559 0.40472314 35
13.903182 -14.262052 0.31914702 23
13.896897 -16.503099 0.21840815 48
13.861517 -12.293859 0.078256421 41
13.938453 -14.298232 -0.033108182 25
11.119833 -13.20523 -0.13016626 0
13.887321 -12.316744 -0.24947475 28
10.652986 -12.65083 -0.41748425 0
13.932699 -12.35699 -0.57971972 29
12.16826 -12.482347 -0.64621055 0
10.551317 -12.530095 -0.70374763 0
13.866075 -12.297901 -0.90483898 44
12.166759 -12.480808 -0.95464724 1
10.518541 -12.491172 -0.99020392 0
13.905704 -12.333048 -1.2368209 37
12.11135 -12.423968 -1.2573971 2
10.513371 -12.485031 -1.2788351 0
12.04956 -12.360583 -1.556383 2
10.738369 -12.752226 -1.6011512 1
11.399512 -10.110292 -1.5533631 3
10.340829 -10.607746 -1.5978144 2
9.0287361 -9.2617855 -1.6243631 2
8.0043535 -8.2109623 -1.6430079 2
7.1671448 -7.3521428 -1.6547008 3
6.5058169 -6.6737452 -1.6668793 3
5.9396143 -6.0929279 -1.6735604 3
5.4575076 -5.5983768 -1.6762465 4
5.0806623 -5.2118044 -1.6896008 4
4.7352057 -4.8574309 -1.6944778 6
3.5089517 -3.5995247 -1.7293166 6
2.6243596 -2.6920996 -1.7524956 11
3.6987996 -3.8476517 1.4088496 21
3.8512712 -4.006259 1.0738691 29
3.9725387 -4.1324067 0.80193245 1
7.492516 -7.7940397 0.93864405 2
13.811731 -14.367561 1.0252857 22
13.869226 -14.427369 0.67542577 32
13.866122 -16.701822 0.6036942 45
13.828657 -12.438276 0.40779188 35
13.900287 -14.459681 0.32139 19
13.903987 -16.747431 0.22035171 41
13.855649 -12.462555 0.078712583 41
13.927 -14.487469 -0.033320412 22
9.5480309 -11.500657 -0.1127042 0
13.893179 -12.496311 -0.25114113 31
12.217123 -12.70878 -0.34095076 0
9.5503702 -11.503474 -0.37741143 21
13.917433 -12.518126 -0.58270669 30
12.008796 -12.49207 -0.64235789 0
10.412533 -12.541954 -0.70031387 0
13.868995 -12.474559 -0.91069049 42
11.954772 -12.435872 -0.94480324 0
9.5665026 -11.522905 -0.90813082 6
13.899384 -12.501892 -1.2439916 36
11.960728 -12.442066 -1.2507472 0
9.5395069 -11.49039 -1.1701044 27
13.311972 -11.973541 -1.5082109 6
11.962973 -12.444403 -1.556383 1
9.5121975 -11.457495 -1.4302139 35
11.358238 -10.216242 -1.5574199 3
10.258252 -10.671078 -1.5965277 2
9.0023642 -9.3646488 -1.631341 2
7.9495797 -8.2694969 -1.6435752 2
7.1265893 -7.4133868 -1.6572464 3
6.4645247 -6.724679 -1.6682878 4
5.9078126 -6.1455626 -1.6766481 3
5.4426851 -5.6617169 -1.6837934 4
5.0495539 -5.2527647 -1.6914098 4
4.7092476 -4.8987632 -1.697386 6
3.4942222 -3.6348414 -1.7345214 6
2.5954511 -2.6999006 -1.7457359 11
3.6332586 -3.8353536 1.3945569 20
3.8109965 -4.0229778 1.0708334 24
3.96121 -4.1815467 0.80581188 1
7.481771 -7.8979344 0.94452572 1
13.818677 -14.587322 1.0337116 27
13.862069 -14.633127 0.68028301 30
9.4398308 -11.541434 0.41465753 34
13.819813 -12.614799 0.41024685 36
13.903939 -14.677327 0.32395345 25
9.4353991 -11.536017 0.15086925 40
13.849599 -12.641987 0.079202525 38
13.933213 -14.708229 -0.033592336 25
9.4280176 -11.526992 -0.11228198 33
13.889828 -12.678708 -0.25275376 26
12.038372 -12.707991 -0.33855295 0
9.4100933 -11.505076 -0.37519076 36
13.910933 -12.697973 -0.58631593 27
11.848176 -12.507215 -0.6386534 0
9.4373083 -11.53835 -0.64039487 29
13.856853 -12.648608 -0.91595685 34
11.783635 -12.439084 -0.93845934 0
9.4211111 -11.518547 -0.90232033 45
13.892855 -12.681472 -1.2516936 34
11.80061 -12.457002 -1.2435192 0
9.407053 -11.50136 -1.1641679 44
13.297444 -12.137978 -1.5166048 4
11.896087 -12.557791 -1.5596157 1
9.3901415 -11.480683 -1.4244778 38
11.300681 -10.315321 -1.559854 3
10.218043 -10.786408 -1.6025329 1
8.9553108 -9.4534378 -1.6353283 3
7.8996401 -8.3390465 -1.6458446 2
7.0856342 -7.479763 -1.6604285 2
6.4258881 -6.7833195 -1.6711046 4
5.8707023 -6.1972518 -1.6789639 3
5.4091058 -5.7099795 -1.686309 4
5.0055537 -5.2839808 -1.6896008 5
4.67588 -4.9359694 -1.6983553 6
3.4700847 -3.6631033 -1.7358227 6
2.5780833 -2.7214856 -1.7474258 5
3.5905535 -3.8436675 1.3884314 21
3.7828181 -4.0494857 1.0708334 28
3.9427378 -4.2206788 0.8080287 0
7.4835773 -8.0111275 0.95179129 0
13.820127 -14.794369 1.041521 30
13.860547 -14.837638 0.6852752 29
9.3088303 -11.544803 0.41243356 41
13.822384 -12.795186 0.41296488 37
13.899422 -14.879253 0.32626054 25
9.3044205 -11.539333 0.15005943 38
13.863741 -12.833469 0.079793841 39
13.931222 -14.913296 -0.033837728 21
9.3046331 -11.539598 -0.11176927 41
13.871418 -12.840576 -0.25404388 29
11.883841 -12.721585 -0.33669659 0
9.2743244 -11.502008 -0.3729701 38
13.933436 -12.897985 -0.59104532 30
11.697811 -12.522442 -0.63524526 0
9.3063564 -11.541735 -0.6369611 46
13.879623 -12.848171 -0.92336875 34
11.650158 -12.471429 -0.93474054 0
9.2953558 -11.528092 -0.89796245 42
13.903566 -12.870336 -1.2607234 33
11.639824 -12.460366 -1.2357129 0
9.2814732 -11.510875 -1.1585439 41
13.229932 -12.246761 -1.5186193 4
11.835323 -12.669647 -1.5632076 1
9.2622766 -11.487067 -1.417212 41
11.234231 -10.399369 -1.5606654 3
10.145206 -10.860387 -1.6029618 2
8.9216061 -9.5505304 -1.6413094 3
7.8493385 -8.4026728 -1.6475465 2
7.0197639 -7.5146184 -1.6572464 2
6.3891268 -6.8395247 -1.6739215 4
5.8272943 -6.2380862 -1.6789639 4
5.3664408 -5.7447453 -1.6854705 5
4.9685431 -5.3187976 -1.6896008 4
4.6492543 -4.9770007 -1.7012635 6
3.444427 -3.6872399 -1.7358227 6
2.559021 -2.7394178 -1.7474258 7
3.5348098 -3.8373497 1.3772016 20
3.741152 -4.0613523 1.0670389 28
7.0668001 -7.6716385 1.4592178 23
9.1014166 -9.8803959 1.166299 17
13.827476 -15.010952 1.0499468 28
13.873093 -15.060473 0.69107687 30
9.1832209 -11.553168 0.41043201 38
13.828936 -12.981694 0.41585827 35
13.900887 -15.090648 0.32875988 25
9.1738567 -11.541387 0.14924961 42
13.867131 -13.01755 0.080334477 40
13.940594 -15.133752 -0.034116283 25
9.1665993 -11.532257 -0.11107562 42
13.895164 -13.043865 -0.25614029 30
11.683648 -12.683637 -0.33352533 0
9.1514997 -11.513261 -0.37125412 42
13.9305 -13.077036 -0.59477901 30
11.547817 -12.53618 -0.63183713 0
9.1733322 -11.540728 -0.63335568 45
13.862411 -13.013118 -0.92824501 38
11.478923 -12.46139 -0.92795914 0
9.1599913 -11.523944 -0.89263618 45
13.912313 -13.059963 -1.2697532 32
11.457948 -12.43862 -1.2255936 0
9.1388521 -11.497349 -1.1507328 38
13.161547 -12.355193 -1.5206338 4
11.754683 -12.760753 -1.5642853 1
9.1298265 -11.485994 -1.4091814 38
11.187469 -10.502059 -1.5643165 2
10.098781 -10.963122 -1.6076802 2
8.8762274 -9.6359329 -1.6452968 2
7.8012185 -8.468915 -1.6498159 2
6.9831867 -7.5808687 -1.661065 2
6.3305531 -6.8723769 -1.6711046 4
5.7889223 -6.2843885 -1.6805078 3
5.3500543 -5.8079586 -1.6930174 5
4.9365706 -5.3590856 -1.6914098 5
4.6170249 -5.0121903 -1.7022328 6
3.418602 -3.7111959 -1.7358227 7
2.5422909 -2.7598825 -1.7491157 6
3.4845307 -3.8361685 1.3680134 19
3.7047853 -4.0786505 1.0647621 26
6.9677901 -7.670938 1.4497964 13
9.0268583 -9.9377956 1.165607 12
13.832465 -15.228354 1.0583727 26
13.88857 -15.290122 0.69714844 26
9.0554848 -11.557198 0.40831923 42
13.82776 -13.163398 0.4185763 33
13.905451 -15.308706 0.33138737 23
9.0412531 -11.539034 0.14839931 40
13.874416 -13.207813 0.080908895 42
13.958317 -15.366907 -0.034421366 23
9.0365257 -11.533001 -0.11047244 38
13.89067 -13.223286 -0.25775293 33
11.546414 -12.711609 -0.33213305 0
9.0141745 -11.504475 -0.36893252 41
13.908363 -13.240129 -0.59776598 12
11.39014 -12.539565 -0.62798446 0
9.0506372 -11.551011 -0.63043702 44
13.860929 -13.194974 -0.9342916 32
11.337938 -12.482095 -0.92358404 0
9.0300646 -11.524755 -0.88779408 41
13.895959 -13.228321 -1.2766584 15
11.322548 -12.465152 -1.2203894 0
9.0214701 -11.513785 -1.1460462 40
12.855563 -12.237911 -1.4951165 2
11.726919 -12.91033 -1.5725467 1
8.9953899 -11.4805 -1.4007683 23
11.122524 -10.588138 -1.5655336 2
10.040715 -11.053965 -1.6106828 1
8.8247519 -9.7152929 -1.6482874 2
7.7498913 -8.5319643 -1.651518 2
6.9354029 -7.6352825 -1.6623378 2
6.2771254 -6.9105754 -1.6696961 4
5.7581024 -6.3391757 -1.6843674 4
5.2988582 -5.8335872 -1.6896632 4
4.9068966 -5.4020715 -1.6941233 5
4.5793118 -5.0414286 -1.7012635 6
3.3900669 -3.732172 -1.7345214 6
2.513211 -2.7668293 -1.7423559 7
3.4306161 -3.8275146 1.3567834 19
3.6802745 -4.1060567 1.065521 25
4.0004048 -4.4632239 0.83850992 1
8.9208527 -9.9529333 1.1604173 17
13.832479 -15.4328 1.066182 24
13.882913 -15.489069 0.70200568 28
8.9321804 -11.55689 0.40620649 38
13.832256 -13.343662 0.42138201 35
13.907721 -15.516747 0.33388674 23
8.9180536 -11.538612 0.14762998 40
13.87288 -13.382852 0.081415735 40
13.952202 -15.566375 -0.034660127 25
8.908473 -11.526217 -0.1098391 42
13.900538 -13.409533 -0.25958058 27
11.36309 -12.677719 -0.32927117 0
8.9058895 -11.522873 -0.36762032 49
11.242691 -12.543392 -0.62442815 0
8.9225111 -11.54438 -0.62683153 31
11.158936 -12.449947 -0.91570884 0
8.8997183 -11.514889 -0.88246781 11
13.006505 -12.547079 -1.2025607 0
11.143765 -12.433021 -1.2099808 9
8.8839455 -11.494482 -1.138235 23
12.776987 -12.325668 -1.4954522 3
11.680921 -13.032322 -1.5779346 1
8.8995743 -11.514703 -1.397709 5
11.054923 -10.664433 -1.5659393 2
9.9884157 -11.144006 -1.6141143 2
8.749526 -9.7617855 -1.6462936 2
7.6957765 -8.5861244 -1.6520853 2
6.8925176 -7.6899338 -1.664247 2
6.2548075 -6.9784451 -1.6760341 4
5.7106929 -6.3713803 -1.6828235 3
5.2600513 -5.8686023 -1.6896632 4
4.8709602 -5.4344964 -1.6941233 4
4.5613155 -5.0890284 -1.7070798 6
3.3677635 -3.7573905 -1.7358227 6
2.5093238 -2.7996352 -1.7524956 7
3.3884444 -3.8339837 1.3506579 18
3.6463175 -4.1257639 1.0640032 25
3.9560313 -4.4762015 0.8357389 2
8.8405952 -10.003026 1.1590334 11
13.830217 -15.648723 1.0744025 26
13.885633 -15.711424 0.70767242 31
8.8125114 -11.568075 0.40442732 46
13.838817 -13.537782 0.42445076 32
13.926187 -15.75731 0.33696285 22
8.8178911 -11.575136 0.14730605 36
13.870611 -13.568885 0.081956372 38
13.962391 -15.798275 -0.034958579 20
8.8592978 -11.629491 -0.11023117 29
13.898073 -13.59575 -0.26130074 26
11.216041 -12.690813 -0.32756951 0
8.8833838 -11.661108 -0.37004286 26
12.803712 -12.525194 -0.5575664 0
11.088672 -12.546698 -0.62072366 0
8.8368549 -11.600031 -0.62648815 8
12.783253 -12.505179 -0.87304574 0
11.010913 -12.458714 -0.91067749 0
8.8699217 -11.643436 -0.88755196 29
12.75597 -12.47849 -1.1874224 2
11.011782 -12.459697 -1.2050657 0
8.8928957 -11.673594 -1.1497954 31
12.778954 -12.500974 -1.5058606 3
11.605483 -13.131462 -1.5800897 2
8.9178963 -11.706412 -1.4133879 31
11.000114 -10.76083 -1.5687791 1
9.960412 -11.270085 -1.6222643 1
8.6995611 -9.8434477 -1.6497827 2
7.6487579 -8.6544762 -1.654922 2
6.8648157 -7.7674556 -1.6706113 3
6.2189741 -7.0366936 -1.6795552 4
5.6920648 -6.4405022 -1.6905429 3
5.2370834 -5.9256959 -1.6955329 4
4.8406429 -5.4771285 -1.6968367 4
4.5076871 -5.1003928 -1.7002941 6
3.343955 -3.7836444 -1.7371238 6
2.4825151 -2.8089354 -1.7474258 6
3.3361876 -3.8283877 1.3404489 19
3.6122661 -4.1451969 1.0624853 27
3.9533145 -4.536562 0.84183514 2
8.6213169 -9.8932524 1.1393125 10
13.84136 -15.883428 1.0838559 26
13.872787 -15.919492 0.7126646 28
8.789155 -11.706057 0.40709606 28
13.82914 -13.718555 0.42708111 65
13.920946 -15.974755 0.33952627 22
8.8329287 -11.764358 0.14892569 33
13.869256 -13.758351 0.082513899 38
13.951622 -16.009956 -0.035210606 25
8.8547449 -11.793414 -0.11119626 27
13.905041 -13.79385 -0.2632359 25
11.066741 -12.699458 -0.32579049 0
8.8857889 -11.834762 -0.37357572 29
12.599584 -12.498832 -0.55246371 0
10.935159 -12.548463 -0.61701918 0
8.8324394 -11.763707 -0.63198215 34
12.627564 -12.526589 -0.86836451 1
10.865941 -12.469034 -0.90586483 0
8.8651323 -11.807249 -0.89529932 33
12.577872 -12.477294 -1.1789237 2
10.851141 -12.45205 -1.1969703 0
8.8925886 -11.843818 -1.1604186 28
12.558372 -12.45795 -1.4900801 2
11.534467 -13.23619 -1.5829632 2
8.924408 -11.886197 -1.4275371 27
10.958623 -10.870993 -1.5736473 1
9.891943 -11.351338 -1.62398 3
8.6540976 -9.9308691 -1.6542684 2
7.5725455 -8.6897516 -1.651518 2
6.8182068 -7.824122 -1.6725205 2
6.1903934 -7.1036854 -1.6851889 3
5.6443853 -6.4771228 -1.6897711 3
5.1878791 -5.9532661 -1.6930174 4
4.7971687 -5.5049129 -1.6950277 4
4.4847188 -5.1463661 -1.7051411 6
3.3224294 -3.8125999 -1.7397263 5
2.4652269 -2.8289309 -1.7491157 7
2.586004 -3.0096929 1.047449 10
3.5909173 -4.1792507 1.0647621 25
3.9525273 -4.6001062 0.84848559 3
8.4741287 -9.862524 1.1289331 9
13.826461 -16.091778 1.0914596 26
13.875946 -16.14937 0.71860123 27
8.7975979 -11.889268 0.41132161 26
13.834524 -13.916867 0.43023753 52
13.926374 -16.208061 0.34241012 28
8.8243399 -11.925408 0.15018091 30
13.888486 -13.971149 0.083206579 38
13.959425 -16.246527 -0.035515688 28
8.8649883 -11.980341 -0.11237246 29
13.904275 -13.987033 -0.26506355 23
10.917867 -12.706642 -0.3240115 0
8.8909588 -12.015439 -0.37731048 28
12.427458 -12.501426 -0.54873002 0
10.800397 -12.569926 -0.61435199 0
8.8380537 -11.943941 -0.63833463 35
12.593322 -12.668277 -0.87207049 3
10.70054 -12.453708 -0.89930218 0
8.8774862 -11.997231 -0.90498346 36
12.386346 -12.460069 -1.1690972 1
10.722346 -12.479088 -1.1923443 0
8.899827 -12.027423 -1.1722915 25
12.358689 -12.432248 -1.4766499 1
11.446973 -13.322436 -1.5836817 2
8.8909483 -12.015424 -1.4355676 9
10.913322 -10.978278 -1.5781099 2
9.83319 -11.444252 -1.6274116 4
8.5897293 -9.9970646 -1.6552653 2
7.5374999 -8.772438 -1.6571913 2
6.7737122 -7.883512 -1.6750662 2
6.1509142 -7.1586752 -1.6880058 3
5.6092606 -6.5282779 -1.6928588 2
5.151289 -5.9952722 -1.6946944 4
4.7636991 -5.5441799 -1.6968367 4
4.4587975 -5.1893239 -1.7090186 6
3.2957318 -3.8357019 -1.7397263 6
2.4548681 -2.8570719 -1.7558756 6
2.5599294 -3.0217714 1.0454072 16
3.5464215 -4.1862388 1.0602086 26
3.9587252 -4.6729269 0.85679865 3
8.3458233 -9.85151 1.1209755 11
13.827395 -16.322025 1.1005021 28
13.881732 -16.386164 0.72480768 24
8.7968359 -12.063472 0.41521353 28
13.837814 -14.115914 0.43339393 38
13.931802 -16.445267 0.34535807 25
8.8233528 -12.099835 0.1515981 18
13.874618 -14.153457 0.08371342 38
13.956841 -16.474823 -0.035800874 28
13.912687 -14.192291 -0.26710624 27
10.764264 -12.706267 -0.32207778 0
12.267114 -12.513647 -0.54549414 0
10.668455 -12.593172 -0.61183292 0
8.8250914 -12.102221 -0.64348525 18
12.431858 -12.681703 -0.86699915 2
10.564282 -12.470206 -0.89514583 0
12.28509 -12.531984 -1.1677693 1
10.565337 -12.471451 -1.184538 0
12.19068 -12.435677 -1.466913 2
11.384586 -13.438502 -1.587992 3
9.1610928 -12.562992 -1.4933116 1
10.861487 -11.079772 -1.581761 1
9.7633362 -11.524759 -1.6291274 4
8.5479469 -10.090099 -1.660748 2
7.4811912 -8.8308878 -1.658326 2
6.7134042 -7.924583 -1.6737934 3
6.0956964 -7.1954336 -1.6865973 2
5.5533996 -6.5552998 -1.6897711 3
5.1219487 -6.04601 -1.6988871 4
4.7399888 -5.59514 -1.7022637 4
4.4124265 -5.2084813 -1.7051411 7
3.2737629 -3.8643892 -1.7423288 6
2.4278316 -2.8658416 -1.7508057 6
2.5238953 -3.0217593 1.0392818 22
3.5045216 -4.1958241 1.056414 26
3.9615581 -4.7430153 0.8645575 3
8.2359705 -9.8605986 1.1154399 10
13.825784 -16.553061 1.1095445 25
13.882319 -16.620747 0.73087925 29
13.878246 -19.313623 0.66140604 47
13.833432 -14.309935 0.43637499 51
13.926899 -16.67412 0.34811378 24
13.864228 -19.294115 0.2405162 63
13.881114 -14.359259 0.084355421 37
10.743855 -14.951656 -0.1388219 0
10.618894 -12.713577 -0.32037613 0
10.537731 -14.664804 -0.45584112 10
12.09609 -12.512749 -0.54176044 0
10.513654 -12.587579 -0.60798025 0
12.048677 -12.463703 -0.84632385 18
10.418079 -12.47315 -0.89011449 0
9.0236464 -12.557733 -0.93766743 1
12.053052 -12.468228 -1.1539589 2
9.6033516 -11.49771 -1.0856578 6
9.0009642 -12.526167 -1.208535 2
11.295597 -13.523768 -1.5887103 3
9.0685167 -12.620176 -1.4925468 0
10.808764 -11.18108 -1.5854121 1
9.6826401 -11.592639 -1.6291274 5
8.4925623 -10.167806 -1.6637385 2
7.4295111 -8.8950567 -1.6605953 2
6.6781688 -7.9955049 -1.6788847 3
6.0604591 -7.2559462 -1.6908226 3
5.5351758 -6.6270452 -1.6982623 3
5.0846295 -6.0876241 -1.7005643 4
4.6983142 -5.625104 -1.7013593 4
4.3883958 -5.2540512 -1.7099879 6
3.2418551 -3.8813438 -1.7397263 6
2.4124134 -2.8882864 -1.7541857 7
2.5090501 -3.0491378 1.0423445 18
3.4711764 -4.2183676 1.0556551 23
3.9644413 -4.8178105 0.8728705 2
8.1128273 -9.8591614 1.1085203 11
13.780226 -16.7465 1.1157098 18
9.5078659 -11.554489 0.5050177 9
13.807891 -19.516024 0.66485316 60
13.838497 -14.526774 0.43988213 31
9.4968109 -11.541056 0.23948842 27
13.851794 -19.578077 0.2427837 44
13.880323 -14.570681 0.084997423 39
9.4649754 -11.502367 -0.024698492 35
2.6313465 -3.719136 -0.034351107 0
12.121881 -12.72478 -0.23619738 0
9.5267477 -11.577436 -0.2899783 6
10.423022 -14.731863 -0.4555383 2
11.943374 -12.537395 -0.53902239 0
9.4813509 -11.522267 -0.55315387 20
9.251112 -13.07549 -0.68812406 0
9.4685888 -11.506758 -0.81617528 26
8.9336576 -12.626801 -0.93790954 0
11.87324 -12.463773 -1.1454602 0
9.4529057 -11.4877 -1.0781406 42
2.6878717 -3.7990286 -0.36462262 1
12.621794 -13.249557 -1.5414506 5
9.48244 -11.523591 -1.3455367 40
2.6653624 -3.7672141 -0.44321334 16
10.773172 -11.308992 -1.5923088 3
9.4735832 -11.512828 -1.6081091 27
8.4178028 -10.229784 -1.6637385 2
7.3716578 -8.9584503 -1.6622974 2
6.631928 -8.0594893 -1.6820669 3
6.014616 -7.3092971 -1.6929352 3
5.4839563 -6.6644106 -1.6974905 2
5.0423551 -6.1277518 -1.7014028 4
4.6619067 -5.6654096 -1.7031683 4
4.3571625 -5.2950678 -1.7128961 6
3.2157207 -3.9079235 -1.7410275 5
2.3957844 -2.9114909 -1.7575656 5
2.4657731 -3.0395484 1.0331564 16
3.4168997 -4.211998 1.0480659 19
6.2367268 -7.6879873 1.3849546 18
7.9910784 -9.8505697 1.1012547 10
9.3770952 -11.559107 0.76572752 41
9.3665228 -11.546074 0.50177956 38
13.840788 -14.733789 0.44321391 32
9.3429365 -11.517 0.23762994 27
2.6487174 -3.7996738 0.046888512 16
13.885072 -14.78093 0.085656315 33
9.3416033 -11.515356 -0.024585743 29
2.6350536 -3.7800729 -0.034743175 26
11.939642 -12.709982 -0.23436972 1
9.3701038 -11.550488 -0.28765786 35
2.6365759 -3.7822568 -0.11638282 33
11.787121 -12.54762 -0.53591096 0
9.3503132 -11.526093 -0.55019027 42
2.6486974 -3.7996452 -0.19898596 20
11.721357 -12.477613 -0.83579111 0
9.3402166 -11.513647 -0.81201893 43
2.6485631 -3.7994528 -0.28084025 32
11.714888 -12.470727 -1.1385552 0
9.3272352 -11.497644 -1.0729364 37
2.6293578 -3.7719021 -0.36024842 32
12.6054 -13.418694 -1.5508517 4
9.3490524 -11.524539 -1.3379937 36
2.6230586 -3.7628655 -0.44053647 48
10.685785 -11.375226 -1.5910916 2
9.3378582 -11.510739 -1.5986724 32
8.3611822 -10.306795 -1.6667291 2
7.3263974 -9.0312204 -1.6662687 2
6.5680366 -8.0963917 -1.6801577 3
5.9609599 -7.3480511 -1.6922311 3
5.4496593 -6.717773 -1.7013501 3
5.0019164 -6.1658416 -1.7022413 4
4.6271505 -5.7038693 -1.7049773 4
4.3103104 -5.313302 -1.7090186 6
3.1931257 -3.9361532 -1.7436299 6
2.3525596 -2.8999906 -1.7406659 5
2.4493239 -3.0627298 1.0351982 20
3.3947697 -4.2449517 1.0503427 8
6.1556869 -7.6973095 1.3788583 24
7.8922472 -9.8687725 1.0971029 9
9.2462702 -11.561895 0.7616173 33
9.2307577 -11.542498 0.49881124 36
2.6121933 -3.8036077 0.12832256 44
13.846294 -14.947407 0.44672105 34
9.21984 -11.528846 0.23654048 29
2.6062765 -3.7949922 0.046605077 63
13.898427 -15.003685 0.086382791 36
9.2110186 -11.517815 -0.024453098 30
2.6040716 -3.7917817 -0.034682855 35
11.809849 -12.749015 -0.23356341 0
9.2417803 -11.55628 -0.28618824 46
2.5942612 -3.7774966 -0.11567625 46
11.612292 -12.535748 -0.53192836 0
9.2196884 -11.528655 -0.54722667 46
2.6040082 -3.7916892 -0.19761246 42
11.582376 -12.503452 -0.83208513 0
9.2172022 -11.525547 -0.80830008 46
2.6084125 -3.7981026 -0.27938762 42
11.576007 -12.496576 -1.133509 0
9.1969042 -11.500166 -1.0671539 45
2.596189 -3.780304 -0.35931107 41
12.571003 -13.570699 -1.5582384 3
9.2310457 -11.542858 -1.3326058 46
2.5944715 -3.7778029 -0.44015408 40
10.608815 -11.45247 -1.5914974 2
9.215045 -11.52285 -1.5913804 33
8.3014174 -10.380415 -1.6692212 2
7.2730613 -9.0945187 -1.6685381 2
6.5212193 -8.1543856 -1.6827034 2
5.9242711 -7.4079385 -1.6964563 3
5.4001765 -6.7525907 -1.7005782 4
4.9636345 -6.2067208 -1.7039185 4
4.5872173 -5.7360344 -1.7049773 4
4.2949257 -5.3705416 -1.717743 6
3.1702933 -3.9642577 -1.7462324 6
2.3481069 -2.9361639 -1.7524956 6
2.4230936 -3.0736799 1.0331564 18
3.3480318 -4.2469583 1.0450302 3
6.065012 -7.6934319 1.3705453 25
5.864285 -7.4388103 0.82239473 12
9.1133919 -11.560285 0.75730163 30
9.1078758 -11.553287 0.49651757 35
2.5676513 -3.7952578 0.12743297 39
13.833308 -15.144094 0.44970211 36
9.0871315 -11.526973 0.23519468 25
2.5707538 -3.7998435 0.046443112 39
13.890463 -15.206665 0.086991005 34
9.0808573 -11.519013 -0.024320453 30
2.5596058 -3.7833657 -0.034441587 38
11.645029 -12.748463 -0.23205827 0
9.1113586 -11.557704 -0.28464127 47
2.5611038 -3.7855802 -0.11537343 41
11.478657 -12.566325 -0.52981257 0
9.0993834 -11.542514 -0.54485583 53
2.5640378 -3.7899165 -0.19658233 45
11.405887 -12.48666 -0.82564849 0
9.0771694 -11.514337 -0.80304998 48
2.5684094 -3.7963781 -0.277935 44
11.42119 -12.503414 -1.1268694 0
9.0694666 -11.504564 -1.0616606 48
2.560796 -3.785125 -0.35806131 43
12.486711 -13.669899 -1.5595814 4
9.0910435 -11.531935 -1.3239852 50
2.5524163 -3.7727389 -0.4374772 42
10.547392 -11.546819 -1.5943371 2
9.0875959 -11.527562 -1.5832304 38
8.2557735 -10.4724 -1.6747038 2
7.2314544 -9.1730576 -1.6736441 2
6.4861345 -8.2276239 -1.6884311 3
5.8845973 -7.4645767 -1.6999774 3
5.3529029 -6.7901258 -1.7005782 4
4.9226036 -6.2442932 -1.704757 4
4.5494723 -5.7709789 -1.7058817 4
4.2453146 -5.3851562 -1.7128961 7
3.1401982 -3.9833231 -1.7449311 6
2.3275514 -2.9524851 -1.7524956 6
2.4074039 -3.0957885 1.0351982 18
5.1592994 -6.6345739 1.6240847 20
4.6277266 -5.9510002 1.0546492 1
5.8710856 -7.5498919 0.83035225 7
8.9899321 -11.560555 0.75339693 34
8.9819727 -11.550321 0.49381909 32
2.5291126 -3.7922444 0.12676579 38
13.850372 -15.366208 0.45355996 50
8.9638367 -11.526999 0.23397705 28
2.5321798 -3.796844 0.046200167 42
13.891069 -15.411359 0.087632999 38
8.9625196 -11.525305 -0.024207706 32
2.5300183 -3.7936029 -0.034381267 39
11.474531 -12.730346 -0.23033813 0
8.9903164 -11.561049 -0.28324902 46
2.5248473 -3.7858491 -0.11486873 37
11.30405 -12.541207 -0.52558106 0
8.9760103 -11.542653 -0.54204041 50
2.5321934 -3.7968643 -0.19606727 46
11.261299 -12.493776 -0.82116234 0
8.9564743 -11.517531 -0.79911238 23
2.5298824 -3.7933989 -0.27648237 43
11.257849 -12.489948 -1.118902 0
8.9366398 -11.492024 -1.0550108 6
2.5245726 -3.7854373 -0.35649908 40
12.377094 -13.731688 -1.5572311 3
8.9654522 -11.529077 -1.3168013 45
2.5273383 -3.7895842 -0.4374772 42
10.494557 -11.64312 -1.5979884 2
8.9474697 -11.505952 -1.5720779 24
8.1763935 -10.514391 -1.6727102 2
7.1728902 -9.2239408 -1.6742114 2
6.4411235 -8.2829285 -1.6909769 3
5.8422146 -7.5127649 -1.70209 2
5.3246183 -6.8471646 -1.7059817 3
4.881083 -6.276803 -1.704757 4
4.5134912 -5.8041005 -1.7067863 4
4.2333298 -5.4438281 -1.7225899 7
3.116034 -4.0070477 -1.7462324 7
2.3123703 -2.9735804 -1.7558756 5
2.3527935 -3.0695465 1.0209055 17
5.1104665 -6.6673141 1.6233258 25
4.5836577 -5.9800191 1.054095 2
5.8545985 -7.6381383 0.83554196 6
8.8604002 -11.559626 0.74928677 31
8.8549089 -11.552461 0.49125555 36
2.4937952 -3.7964411 0.12632099 37
13.841054 -15.573123 0.45680404 56
8.8515148 -11.548033 0.23314394 27
2.4924355 -3.7943709 0.045957223 39
13.897402 -15.636521 0.088359475 35
8.867239 -11.568547 -0.024167912 24
2.4902964 -3.7911146 -0.034200314 39
11.305666 -12.720456 -0.22872549 0
8.8558617 -11.553703 -0.28154734 50
2.4873786 -3.7866728 -0.11436404 36
11.179037 -12.577981 -0.52383864 0
8.8587322 -11.557449 -0.53981769 55
2.4946544 -3.797749 -0.19520883 44
11.10214 -12.491462 -0.81589597 1
8.86127 -11.560759 -0.79779983 5
2.4923775 -3.7942829 -0.27527186 41
11.101442 -12.490676 -1.1119968 0
8.8925972 -11.60163 -1.0593476 25
2.4893265 -3.7896378 -0.35524932 37
12.267688 -13.802866 -1.5555524 2
8.8556633 -11.553444 -1.3124909 27
2.4811461 -3.7771845 -0.43403551 42
10.434166 -11.739897 -1.6012338 2
8.8983774 -11.609171 -1.5776541 22
8.1196909 -10.593266 -1.6761991 2
7.1155457 -9.2832193 -1.6759135 2
6.3831406 -8.3276949 -1.6909769 3
5.7896233 -7.5533686 -1.70209 2
5.2742982 -6.8810558 -1.7052097 3
4.8466606 -6.3231435 -1.7081112 3
4.494194 -5.8633013 -1.7149267 4
4.188139 -5.4640098 -1.7196817 6
3.0879836 -4.0287042 -1.7462324 7
2.2915542 -2.9896514 -1.7558756 7
2.3429632 -3.1013267 1.02601 19
5.0614281 -6.6996961 1.6225669 26
4.5155306 -5.9771042 1.0479988 4
7.4465876 -9.8568764 1.0725384 8
8.7842999 -11.627576 0.7496978 26
8.8270578 -11.684174 0.49422386 26
2.4607155 -3.8036866 0.1259874 35
13.847965 -15.801704 0.46066189 60
8.8430042 -11.705281 0.2350665 22
2.4528503 -3.7915287 0.045714274 38
13.890715 -15.850485 0.089018367 37
8.8730612 -11.745068 -0.024406672 23
2.4507337 -3.7882569 -0.034019358 36
11.14541 -12.717858 -0.22727412 0
8.8183784 -11.672685 -0.28293961 35
2.4500227 -3.787158 -0.11385934 35
8.8525257 -11.717884 -0.54441124 35
2.4572275 -3.7982948 -0.19435041 42
10.954099 -12.499557 -0.81140983 0
8.8742399 -11.746627 -0.80633128 33
2.4528162 -3.7914758 -0.27381924 39
10.935054 -12.477824 -1.1040293 0
8.9051752 -11.787577 -1.0706235 28
2.4519796 -3.7901828 -0.35368708 39
11.025641 -12.581193 -1.4091632 0
8.8492327 -11.713527 -1.3236259 36
2.4395776 -3.7710123 -0.43135864 41
10.359819 -11.821433 -1.6024508 2
8.8938255 -11.772552 -1.5913804 30
8.0527153 -10.659194 -1.6776943 2
7.0505638 -9.3326693 -1.6759135 2
6.3438907 -8.3972616 -1.6960682 3
5.7320023 -7.5873199 -1.7006817 2
5.2426925 -6.9396315 -1.7106134 3
4.818902 -6.3786697 -1.7139809 3
4.4625459 -5.9069695 -1.7185447 4
4.166266 -5.5147905 -1.7264674 7
3.0666227 -4.0592179 -1.750136 7
2.2706268 -3.0055766 -1.7558756 6
2.3073967 -3.0989954 1.0198846 20
5.0004592 -6.7159677 1.6180134 28
4.4524007 -5.9798865 1.043011 7
7.3395138 -9.857482 1.0670027 8
8.7840223 -11.797559 0.75668508 28
8.8216705 -11.848122 0.49854141 22
2.4233592 -3.8039114 0.1254314 35
13.84713 -16.02508 0.46434438 50
8.8446684 -11.87901 0.23730952 21
2.4155753 -3.7916934 0.045511819 38
13.889564 -16.074188 0.089727953 36
8.8816242 -11.928644 -0.024658699 22
2.4134812 -3.7884066 -0.033868562 39
11.006668 -12.737856 -0.22625279 0
8.8154888 -11.83982 -0.28549209 33
2.4127815 -3.7873077 -0.11335465 35
10.887317 -12.599731 -0.51836252 0
8.8540545 -11.891617 -0.54959756 36
2.4220619 -3.8018754 -0.19366366 42
10.796043 -12.494102 -0.80614346 0
8.8754997 -11.920419 -0.81398773 31
2.4177063 -3.7950382 -0.27285081 39
10.795488 -12.493461 -1.0987177 0
8.910821 -11.967857 -1.081321 26
2.4147463 -3.7903919 -0.35212487 40
10.802029 -12.50103 -1.391704 0
8.8528919 -11.890055 -1.3365569 38
2.4110522 -3.7845936 -0.43097621 42
10.29005 -11.908524 -1.6044793 2
8.8945475 -11.946001 -1.6063933 24
7.9899549 -10.73107 -1.6801865 2
7.018343 -9.4261274 -1.6838561 2
6.2851119 -8.4413462 -1.6960682 3
5.7071118 -7.6650515 -1.7091322 3
5.1917725 -6.9729147 -1.7098414 3
4.7719173 -6.4090195 -1.7131424 3
4.4142179 -5.9286041 -1.7158312 4
4.1253462 -5.5406294 -1.7254981 6
3.042727 -4.0865955 -1.7527385 7
2.256084 -3.0300791 -1.7609456 7
2.2857051 -3.1150286 1.0198846 20
4.9441576 -6.7380486 1.6149777 26
4.3941398 -5.9884672 1.0391316 9
7.2469411 -9.8763523 1.0635428 7
8.7912483 -11.980981 0.76449442 27
8.8238802 -12.025453 0.50339866 24
2.3839951 -3.8004141 0.12476422 36
13.843842 -16.249212 0.46802688 58
8.8466997 -12.056552 0.2396166 21
2.378418 -3.7915235 0.045309365 37
13.893738 -16.307777 0.09048821 35
8.8691206 -12.087107 -0.024857664 6
2.3784721 -3.7916098 -0.033747926 35
10.847439 -12.732184 -0.22480142 0
8.8130579 -12.010703 -0.28812194 34
2.3777823 -3.7905104 -0.11295089 35
10.739453 -12.605436 -0.51550001 0
8.8583145 -12.072381 -0.55508018 35
2.3848424 -3.801765 -0.19280522 43
10.654144 -12.505305 -0.80204737 0
8.8605843 -12.075475 -0.82033163 7
2.3847876 -3.8016777 -0.2721245 43
10.627766 -12.474342 -1.0904846 0
2.3755107 -3.7868891 -0.35025018 40
10.655039 -12.506354 -1.3839816 0
8.8545122 -12.067199 -1.3494879 32
2.3761084 -3.787842 -0.42944658 36
10.224726 -12.001274 -1.607319 2
8.8485746 -12.059108 -1.6132565 9
7.9359741 -10.815388 -1.6846722 2
6.9664192 -9.4940481 -1.6872602 2
6.2400441 -8.5041218 -1.6998868 3
5.6464715 -7.6951833 -1.7070196 3
5.1476092 -7.0153189 -1.7113853 3
4.7339988 -6.4516373 -1.7156579 3
4.3750257 -5.9624181 -1.7167357 4
4.093452 -5.578681 -1.7284062 6
3.0096476 -4.1016393 -1.750136 7
2.2327302 -3.0428329 -1.7592555 6
2.2684357 -3.1371775 1.0219264 20
4.8900948 -6.7628522 1.6127009 29
4.3243723 -5.9804754 1.0324812 7
7.135787 -9.868577 1.0573152 6
8.7612295 -12.116514 0.76922119 2
13.900151 -19.223486 0.80063456 24
2.3490007 -3.8033569 0.12431943 40
13.843237 -16.480196 0.47188473 56
13.934403 -19.270857 0.38105384 33
2.3476868 -3.8012292 0.045228384 38
13.90304 -16.551392 0.091299161 35
10.835339 -14.984943 -0.030660883 12
2.3435366 -3.7945096 -0.03362729 40
10.706837 -12.746351 -0.22372633 0
2.3449581 -3.7968113 -0.11264807 38
10.566329 -12.57908 -0.51139295 0
2.3456433 -3.7979209 -0.19177508 47
10.507478 -12.509018 -0.79756123 0
9.1224308 -12.616045 -0.85270739 0
2.3497968 -3.8046458 -0.2711561 42
10.499347 -12.499337 -1.0862353 0
9.0374012 -12.498451 -1.1177505 2
2.3448246 -3.7965951 -0.34962532 42
10.508503 -12.510239 -1.3762592 1
2.3370531 -3.7840118 -0.42715213 41
10.173965 -12.111976 -1.6125929 3
8.9319534 -12.35262 -1.6441404 3
7.8439989 -10.848012 -1.6811833 2
2.7191548 -3.7605085 -0.66491896 7
6.1805239 -8.5474768 -1.6998868 2
5.6110711 -7.7599406 -1.7126533 1
2.7320836 -3.7783885 -0.91706169 4
2.711096 -3.7493634 -0.99199581 19
4.3378611 -5.9991302 -1.7185447 3
2.7127917 -3.7517085 -1.1564715 12
2.7127666 -3.7516737 -1.5926888 0
2.2199309 -3.070097 -1.7660154 7
2.2509673 -3.1592374 1.0239682 21
4.8518777 -6.8096204 1.6157366 28
4.2595282 -5.9782572 1.0269392 9
7.0366564 -9.8759623 1.0528175 6
12.549874 -17.613775 1.1126271 1
13.837521 -19.42099 0.8048172 30
2.3078511 -3.7957473 0.12354103 36
13.852831 -16.727358 0.47618097 69
13.890039 -19.494699 0.38355318 27
2.310703 -3.8004377 0.04502593 40
12.434969 -15.015284 0.082344949 9
10.681717 -14.991812 -0.030521605 11
2.3045218 -3.7902713 -0.033446338 40
9.5410337 -11.520844 -0.20104192 9
10.672773 -14.979259 -0.35572425 0
2.3038533 -3.7891722 -0.11194149 36
9.5168753 -11.491673 -0.46447274 26
9.6770096 -13.581703 -0.61820465 0
2.308692 -3.7971301 -0.19091664 42
9.5254488 -11.502025 -0.7290985 0
8.9854622 -12.611115 -0.84811354 0
2.3148818 -3.8073108 -0.27018768 41
9.5361147 -11.514904 -0.9948746 18
8.9383507 -12.544994 -1.1163049 2
2.3037612 -3.7890205 -0.34743819 43
9.5234756 -11.499641 -1.2577378 34
8.9556389 -12.569258 -1.3915135 0
2.3002369 -3.7832239 -0.42524007 38
9.500309 -11.471667 -1.5184743 36
8.8985758 -12.48917 -1.6540061 2
7.7726808 -10.908974 -1.6821802 0
2.6882401 -3.7729504 -0.66378427 14
2.6765177 -3.7564981 -0.74334246 13
2.682416 -3.7647765 -0.82674956 1
2.6623671 -3.7366378 -0.90239483 1
2.6724856 -3.7508392 -1.0691156 1
2.6797781 -3.7610741 -1.1535633 1
2.6667552 -3.7427967 -1.5809779 11
2.194236 -3.0796149 -1.7626355 9
2.2122009 -3.1534896 1.0168219 19
4.8040857 -6.8482184 1.6164956 29
4.211041 -6.0028338 1.0258307 10
2.6615896 -3.7940929 0.40237486 1
13.606487 -19.396032 1.2188754 19
13.830243 -19.714994 0.81277764 6
2.2758605 -3.8056993 0.12331864 33
9.4271002 -11.55465 0.32695246 55
2.6735561 -3.811151 0.074595809 1
2.2766237 -3.8069754 0.044904456 37
9.4166374 -11.541827 0.062916003 35
2.6624095 -3.7952616 -0.0076867752 22
2.2725699 -3.8001966 -0.033386018 37
9.4007015 -11.522294 -0.19985932 35
2.6366513 -3.7585433 -0.088795699 0
2.2678063 -3.7922308 -0.11153774 39
9.3818331 -11.499168 -0.46198362 38
2.6743593 -3.8122959 -0.17262904 2
2.27054 -3.7968023 -0.19005822 46
9.4055195 -11.5282 -0.72636783 29
2.6584289 -3.7895873 -0.25353715 21
2.2725663 -3.8001904 -0.26849294 41
9.3959436 -11.516462 -0.98903179 47
2.6462846 -3.7722754 -0.33393738 39
2.2677376 -3.7921162 -0.34618843 45
9.3834896 -11.501198 -1.2503512 36
2.6676724 -3.8027637 -0.41881895 6
2.2622249 -3.7828975 -0.42332801 41
9.3656502 -11.479333 -1.5103606 37
2.6493447 -3.7766378 -0.49757445 30
2.6462219 -3.772186 -0.57866997 28
2.644593 -3.7698641 -0.65981293 58
2.6534452 -3.7824831 -0.74461532 1
2.6389179 -3.7617743 -0.82182008 22
2.6461744 -3.7721186 -0.90625453 9
2.6459296 -3.7717695 -0.9878031 32
2.6314929 -3.7511899 -1.0636888 16
2.6476786 -3.7742629 -1.1516246 3
2.6457644 -3.7715337 -1.5848815 43
2.1716025 -3.0956166 -1.7626355 6
2.1967282 -3.1784015 1.0198846 19
4.7427616 -6.8622055 1.6119421 5
2.6194398 -3.7900143 0.6445387 27
2.6101141 -3.7765212 0.39856908 26
2.6142013 -3.7824349 0.23654115 27
2.6138961 -3.7819932 0.15516174 23
2.2370672 -3.8008199 0.12265145 34
9.2960787 -11.557858 0.32519889 40
2.6105006 -3.7770805 0.073570438 23
2.2357886 -3.7986472 0.044621021 37
9.2831879 -11.54183 0.062561214 44
2.6199291 -3.7907224 -0.0076403497 40
2.2338107 -3.7952869 -0.033205066 38
9.2673922 -11.522192 -0.19873047 34
2.6239905 -3.7965989 -0.089259788 26
2.2311344 -3.79074 -0.11103304 37
9.2562246 -11.508307 -0.45974338 39
2.6204071 -3.7914138 -0.1708509 36
2.2378969 -3.8022294 -0.18954314 43
9.2797394 -11.537543 -0.72285688 40
2.6069286 -3.7719121 -0.25113085 41
2.2358544 -3.798759 -0.26728243 42
9.2652874 -11.519575 -0.98372012 43
2.6130798 -3.780812 -0.33307001 44
2.2331173 -3.7941089 -0.34493864 44
9.2605019 -11.513625 -1.2446433 40
2.6116133 -3.7786903 -0.41414946 42
2.2276814 -3.7848732 -0.42179838 41
9.2478724 -11.497923 -1.5042753 41
2.6206532 -3.79177 -0.4971455 51
2.6107965 -3.7775085 -0.57667631 41
2.609205 -3.7752059 -0.65754354 43
2.613502 -3.7814233 -0.7407968 19
2.6013978 -3.7639098 -0.818299 47
2.6130812 -3.7808142 -0.90393871 43
2.6106384 -3.7772799 -0.98444891 35
2.6118865 -3.7790859 -1.0664022 36
2.6080263 -3.7735002 -1.1458082 36
2.6064663 -3.7712431 -1.5770743 34
2.1416929 -3.098772 -1.7558756 7
2.1744859 -3.1936598 1.0198846 20
2.5860856 -3.7981749 0.88793421 26
2.5862288 -3.7983851 0.64287609 32
2.5836861 -3.7946508 0.39856908 30
2.5922289 -3.8071973 0.23695217 31
2.5919297 -3.8067577 0.15543158 30
2.2004578 -3.7990451 0.12209547 37
9.165472 -11.559802 0.32344532 39
2.5818181 -3.7919071 0.073506348 24
2.2032003 -3.8037803 0.044499546 40
9.1526823 -11.543672 0.062223319 44
2.5798948 -3.7890821 -0.0076005561 31
2.2052553 -3.807328 -0.033174906 40
9.1345425 -11.520793 -0.19760163 33
2.5861681 -3.7982957 -0.088873051 36
2.1945946 -3.7889228 -0.11052835 41
9.1259775 -11.50999 -0.45725426 42
2.5938749 -3.8096149 -0.1708509 51
2.1992798 -3.7970114 -0.18851303 49
9.1493225 -11.539433 -0.71895587 41
2.5805328 -3.7900195 -0.25113085 44
2.2012749 -3.8004558 -0.26631403 46
9.1226482 -11.505792 -0.97708052 46
2.5798857 -3.7890692 -0.33220264 49
2.1985803 -3.7958035 -0.34368885 44
9.1278925 -11.512405 -1.2375925 43
2.5829279 -3.7935371 -0.41379026 49
2.1932211 -3.7865515 -0.42026874 49
9.1154575 -11.496722 -1.495756 40
2.5762126 -3.7836745 -0.49371395 59
2.5731933 -3.7792399 -0.57418418 46
2.5694156 -3.7736914 -0.65413952 42
2.5825949 -3.7930481 -0.73952395 40
2.5684102 -3.7722149 -0.81618637 45
2.57337 -3.7794993 -0.89930713 41
2.5731993 -3.7792485 -0.9802562 36
2.574476 -3.7811239 -1.0618798 35
2.5772512 -3.7851999 -1.1438695 42
2.563045 -3.7643352 -1.5666645 28
2.1363313 -3.1376221 -1.7693954 6
2.1499827 -3.2055509 1.0188637 20
2.5463808 -3.7965667 0.88338065 29
2.5464087 -3.7966084 0.63955086 32
2.5460329 -3.7960482 0.39683917 29
2.5500104 -3.8019783 0.23551361 31
2.5519295 -3.8048396 0.15462205 29
2.1679423 -3.8038929 0.12176187 39
9.0402193 -11.566792 0.32186711 41
2.5463715 -3.7965529 0.073250003 24
2.1686692 -3.8051684 0.044337582 44
9.0201426 -11.541104 0.061868526 46
2.5422387 -3.790391 -0.007567395 30
2.1647575 -3.798305 -0.032963794 37
9.004631 -11.521257 -0.19652654 37
2.5484498 -3.7996514 -0.088486306 43
2.1641297 -3.7972035 -0.11032647 43
9.0010834 -11.516719 -0.45501405 42
2.5471766 -3.7977533 -0.16951728 46
2.1667817 -3.8018568 -0.18799795 47
9.0168734 -11.536922 -0.71485984 42
2.5473366 -3.7979918 -0.25047457 47
2.1648042 -3.7983868 -0.26510349 47
9.0076923 -11.525175 -0.97336239 50
2.5378146 -3.7837951 -0.33017877 45
2.162154 -3.7937369 -0.34212664 44
8.9957533 -11.509899 -1.2305416 31
2.5408478 -3.7883172 -0.41127592 53
2.1588464 -3.7879333 -0.41873911 45
8.973711 -11.481696 -1.4856139 7
2.5386586 -3.7850533 -0.49156922 56
2.5312715 -3.7740393 -0.57069522 46
2.5297742 -3.771807 -0.6507355 41
2.5428534 -3.7913074 -0.73570538 44
2.5420127 -3.7900541 -0.81618637 47
2.5338039 -3.7778153 -0.89467549 44
2.5358596 -3.78088 -0.97606349 35
2.5393348 -3.7860613 -1.0582618 36
2.5377929 -3.7837625 -1.1380532 44
2.5261681 -3.7664304 -1.5601584 29
2.1103356 -3.1464381 -1.7660154 7
2.1265423 -3.2165132 1.0178428 21
2.514647 -3.8035431 0.88110393 39
2.5124335 -3.800195 0.63733405 32
2.5032187 -3.7862568 0.39407134 31
2.5159261 -3.8054776 0.23469158 30
2.5112052 -3.798337 0.15367758 28
2.1367967 -3.8077264 0.12142827 36
8.9120312 -11.559985 0.32002586 40
2.5079012 -3.7933395 0.072865494 27
2.1277258 -3.7915626 0.044013657 40
8.8969984 -11.540485 0.061547529 43
2.5060139 -3.7904847 -0.0075342339 27
2.1277747 -3.7916493 -0.032782838 39
8.8889484 -11.530044 -0.19566646 37
2.5077543 -3.7931173 -0.087944873 43
2.1271574 -3.7905495 -0.10972083 40
8.9000931 -11.5445 -0.45376948 48
2.5197287 -3.811229 -0.1693691 48
2.133697 -3.8022029 -0.1873112 46
8.8938122 -11.536353 -0.71115386 10
