# .PCD v0.7 - Point Cloud Data file format
VERSION 0.7
FIELDS x y z intensity
SIZE 4 4 4 4
TYPE F F F F
COUNT 1 1 1 1
WIDTH 1380
HEIGHT 1
VIEWPOINT 0 0 0 1 0 0 0
POINTS 1380
DATA ascii
7.8269358 -1.5710806 -1.5701207 4
7.2359462 -1.4524527 -1.5823298 5
6.7388206 -1.352666 -1.595533 6
6.3084669 -1.2662822 -1.6072335 7
4.7357106 -0.95058692 -1.6616533 6
1.7026366 -0.34176582 -0.80949414 4
6.4105163 -1.333389 1.728393 18
5.2600284 -1.0940872 1.0382 19
8.893198 -1.8497875 1.2707887 19
13.752807 -2.8605871 1.2195799 34
13.758933 -2.8618615 0.72298157 30
13.796686 -2.8697143 0.47560444 31
13.719302 -3.9132237 0.39675465 51
6.3820429 -0.85041291 0.1411621 3
13.794939 -2.8693509 0.22577408 28
13.739288 -3.9189243 0.14463365 43
6.3795547 -0.85008138 0.027183631 52
10.937881 -2.2750821 -0.018523868 0
13.762681 -3.9255967 -0.10790892 43
6.3790355 -0.85001218 -0.086491026 40
10.352449 -2.153312 -0.20450857 0
10.4363 -2.9767969 -0.27394882 0
6.3487811 -0.84598082 -0.19937979 1
10.042026 -2.0887439 -0.38022846 0
9.9995842 -2.8522303 -0.44673121 0
6.3522215 -0.84643918 -0.31286091 48
9.4551563 -1.9666749 -0.5289498 11
9.1764774 -2.6174514 -0.57862771 9
6.3457532 -0.8455773 -0.42599544 5
8.9328814 -1.8580416 -0.6612249 13
8.7395763 -2.4928322 -0.71206081 15
6.3373423 -0.84445655 -0.53855079 5
8.7173061 -1.8132018 -0.80279624 7
8.5424175 -2.4365954 -0.85315704 0
6.3585491 -0.84728241 -0.65396219 55
8.6554718 -1.8003404 -0.95354134 64
8.6766796 -1.8047516 -1.1129802 35
8.6409216 -1.7973138 -1.2645941 6
9.2945757 -1.9332741 -1.5299617 2
8.4733191 -1.7624526 -1.5478668 3
7.8196197 -1.6264828 -1.5708927 4
7.2332888 -1.5045259 -1.5840068 4
6.7253985 -1.3988847 -1.5946286 6
6.3222694 -1.3150337 -1.6130499 7
4.7178497 -0.98131394 -1.6577497 7
1.7179567 -0.35733542 -0.81794399 4
6.4615455 -1.3911344 1.7447275 19
5.2561011 -1.131609 1.0389589 13
8.876194 -1.9109946 1.2702345 21
13.755875 -2.9615624 1.2216557 31
13.758144 -2.9620509 0.7240091 49
13.788039 -2.9684873 0.47600922 34
13.706998 -4.0134015 0.39719945 91
6.3719902 -0.89439058 0.14107442 1
13.805849 -2.9723217 0.22628677 25
13.753819 -4.0271106 0.14507905 40
6.3774257 -0.89515352 0.027200527 62
10.949104 -2.3572805 -0.018570295 0
13.76565 -4.0305748 -0.10815019 42
6.3808675 -0.89563662 -0.086598538 36
10.301977 -2.2179577 -0.20381244 0
10.396076 -3.0439651 -0.27344412 1
6.3466802 -0.89083797 -0.19950424 1
10.007659 -2.1545928 -0.37948754 0
10.048464 -2.9421847 -0.44982159 0
6.358027 -0.89243066 -0.31344604 47
9.4216728 -2.0284333 -0.52785605 7
9.1924667 -2.6915491 -0.58080667 9
6.335743 -0.88930279 -0.42572984 2
8.9001913 -1.9161611 -0.65977931 12
8.7487507 -2.5616293 -0.71424794 14
6.3391871 -0.88978624 -0.5392223 1
8.6615934 -1.8647923 -0.79884511 33
8.5519466 -2.5040052 -0.85583389 1
6.3721833 -0.89441764 -0.65599066 49
8.6310291 -1.858212 -0.95225453 31
8.6367092 -1.859435 -1.1094912 38
8.6475163 -1.8617617 -1.2674308 1
9.2769909 -1.9972841 -1.5293254 3
8.4800549 -1.8257082 -1.5513879 2
7.7850528 -1.6760781 -1.5662611 5
7.2417259 -1.5591029 -1.5881995 5
6.70785 -1.4441624 -1.5928196 9
6.305347 -1.3575057 -1.611111 7
4.7219768 -1.016615 -1.6616533 6
1.6941545 -0.36474192 -0.80780417 2
6.4597278 -1.4356359 1.7467693 17
5.2676497 -1.1707036 1.0427535 19
8.859458 -1.9689616 1.2696803 19
13.782613 -3.0631032 1.2258075 35
13.761595 -3.0584323 0.7252422 42
13.78366 -3.0633359 0.47654891 32
13.726037 -4.1180081 0.39853382 69
6.3540487 -0.93488544 0.14081138 2
13.813163 -3.0698929 0.22673537 28
13.745964 -4.1239867 0.14528151 42
6.3871775 -0.93975973 0.027268106 56
11.023039 -2.4498045 -0.018722836 0
13.773096 -4.1321268 -0.10842162 43
6.3906155 -0.94026554 -0.086813554 37
10.310465 -2.2914393 -0.20427652 0
13.772931 -4.1320772 -0.36297712 42
6.3564539 -0.93523926 -0.20000206 13
10.000954 -2.2226522 -0.3797839 0
10.135907 -3.0409176 -0.45462885 0
6.3638263 -0.93632394 -0.31403118 48
9.411912 -2.0917413 -0.5280748 6
9.227953 -2.7685187 -0.58419609 6
6.3455 -0.93362761 -0.42679217 1
8.8911819 -1.976012 -0.66006839 10
8.7506666 -2.6253259 -0.71581018 14
6.3686371 -0.93703181 -0.54224414 6
8.6451473 -1.9213324 -0.79848588 23
8.7677908 -2.6304631 -0.87916088 4
6.3739848 -0.93781865 -0.656802 41
8.6262798 -1.9171391 -0.95311242 5
8.6009417 -1.9115078 -1.1065007 41
8.6272497 -1.9173547 -1.2662961 7
9.2828159 -2.0630503 -1.5325074 3
8.4754477 -1.8836175 -1.5527962 3
7.792922 -1.7319304 -1.5701207 4
7.2045007 -1.6011572 -1.5823298 5
6.7133393 -1.4919995 -1.5964376 7
6.2848401 -1.3967681 -1.6082029 6
4.7262077 -1.0503714 -1.6655569 6
1.6952374 -0.3767564 -0.80949414 3
6.4495478 -1.4806983 1.7467693 19
5.2593484 -1.2074503 1.0427535 12
8.8493576 -2.0316508 1.2702345 20
13.76866 -3.1610327 1.2264994 34
13.755482 -3.1580071 0.72606421 42
13.781419 -3.1639621 0.47722355 36
13.719883 -4.220788 0.39920101 42
6.3592243 -0.98105061 0.14107442 33
13.806987 -3.169832 0.22699171 26
13.755068 -4.2316122 0.14568642 45
6.3606958 -0.9812777 0.027183631 3
11.075841 -2.5428107 -0.018842217 0
13.770674 -4.236413 -0.10863274 43
13.819257 -2.1319251 -0.18792582 0
10.305909 -2.3660486 -0.20450857 0
13.770502 -4.2363605 -0.3636837 43
10.020257 -2.300468 -0.38111752 0
10.11061 -3.1104305 -0.45445716 0
6.3373919 -0.97768253 -0.31305593 17
9.3931875 -2.1565042 -0.52785605 5
9.2732763 -2.8528328 -0.58831185 5
9.7784405 -1.5085403 -0.65838075 7
8.8693933 -2.0362508 -0.65949017 11
8.7588062 -2.6945612 -0.71799725 14
9.6788158 -1.4931709 -0.82494974 4
8.6159925 -1.9780744 -0.79704911 26
8.7568245 -2.6939514 -0.87992573 2
9.5528898 -1.473744 -0.98540586 1
8.5894279 -1.9719758 -0.95053875 13
8.5835199 -1.9706193 -1.1060023 51
8.5943575 -1.9731075 -1.2634594 5
9.2758846 -2.1295738 -1.5337802 3
8.4582529 -1.9418603 -1.5520921 3
7.7959423 -1.789806 -1.5732085 3
7.2274547 -1.6592915 -1.5898767 4
6.6951647 -1.5370874 -1.5946286 9
6.278718 -1.441479 -1.6091723 6
4.7150731 -1.0824947 -1.6642557 7
1.6890323 -0.38777095 -0.80780417 3
6.4240003 -1.5221211 1.7426857 19
5.2622552 -1.2468538 1.0450302 16
8.8311033 -2.0924671 1.2696803 20
13.777277 -3.2644277 1.2292674 34
13.768083 -3.2622492 0.7279138 37
13.801785 -3.2702346 0.4787077 33
13.751097 -4.3357038 0.40098017 39
13.770381 -2.2229173 0.30582199 37
13.811763 -3.272599 0.22744031 25
13.816742 -4.3564019 0.1466582 39
13.781466 -2.2247064 0.058962632 39
11.100634 -2.6302161 -0.018915171 0
13.836132 -4.3625154 -0.10938671 34
10.550452 -1.7031324 -0.14363208 7
10.312489 -2.4434707 -0.20497265 0
13.858814 -4.3696675 -0.3668128 38
10.198963 -1.6463925 -0.32159635 7
10.027289 -2.3758948 -0.38200662 0
10.248726 -3.231411 -0.46166804 31
10.049774 -1.6223093 -0.49698851 5
9.3895617 -2.2247899 -0.5285123 4
9.2950191 -2.9307082 -0.59097499 5
9.5430813 -1.5405151 -0.64324248 9
8.8782539 -2.1036391 -0.6612249 13
8.7778139 -2.7676339 -0.72112173 13
9.2195721 -1.4882919 -0.78667367 12
8.609725 -2.0400131 -0.79776752 17
8.6732483 -2.7346647 -0.87342477 1
9.1495171 -1.4769831 -0.94483745 6
8.5483646 -2.0254741 -0.94753617 18
8.5695524 -2.0304945 -1.1060023 43
8.5919323 -2.0357971 -1.2651615 4
9.2646341 -2.1951892 -1.5344167 2
8.459816 -2.0044932 -1.554909 2
7.7679806 -1.8405677 -1.5701207 3
7.2042775 -1.7070023 -1.587361 4
6.6956449 -1.5864853 -1.597342 8
6.2760539 -1.4870663 -1.611111 7
4.6926785 -1.1118968 -1.6590508 7
1.6827562 -0.39871711 -0.8061142 4
6.39013 -1.5636548 1.7365602 20
5.2758632 -1.2909955 1.0495838 13
8.4499779 -2.0676963 1.2170309 6
13.768461 -3.3691208 1.2306513 34
13.759321 -3.3668842 0.72873586 36
13.785209 -3.373219 0.47897753 31
13.783622 -4.4573026 0.40287054 35
13.765547 -2.3257961 0.30608502 54
13.795173 -3.3756571 0.22756848 25
13.811078 -4.4661813 0.14694163 37
13.788453 -2.3296664 0.059064001 40
13.831893 -3.3846424 -0.023610802 22
13.834229 -4.4736676 -0.10962798 39
10.317609 -2.5247025 -0.20543675 0
13.853045 -4.4797521 -0.36751938 37
10.009604 -2.4493346 -0.38200662 0
10.190541 -3.2953839 -0.46012285 19
9.8327646 -1.661322 -0.48684588 7
9.3962784 -2.2992547 -0.52982485 4
9.3226728 -3.0147355 -0.59412235 4
9.3662462 -1.5825001 -0.63208801 14
8.8470936 -2.16487 -0.66006839 11
8.780056 -2.8392658 -0.72299641 12
9.1101608 -1.5392326 -0.77827978 18
8.5945396 -2.1030705 -0.79776752 14
8.6112957 -2.7846925 -0.86921823 0
9.0050373 -1.521471 -0.93104422 21
8.5603275 -2.0946987 -0.95053875 76
8.5544386 -2.0932577 -1.1060023 31
8.7383137 -2.1382518 -1.2889897 3
9.2636375 -2.2667975 -1.5369624 2
8.4601946 -2.0701964 -1.5577258 3
7.7619047 -1.899326 -1.5716646 3
7.1953702 -1.7606958 -1.5881995 4
6.6838355 -1.635524 -1.597342 8
6.2762938 -1.5357993 -1.6140193 7
4.7027726 -1.150761 -1.6655569 6
1.7009176 -0.4162119 -0.81625402 5
6.3640571 -1.6044464 1.7324766 20
5.2667212 -1.3277965 1.0495838 14
8.7848883 -2.2147636 1.2674634 4
13.775517 -3.4729543 1.2334191 37
13.774215 -3.4726257 0.73079091 28
13.79621 -3.4781711 0.48019186 34
13.793922 -4.567245 0.40409371 36
13.776544 -2.4266973 0.30669877 36
13.79066 -3.4767718 0.22788891 26
13.809939 -4.5725484 0.14726557 40
13.78761 -2.4286466 0.059131581 43
13.823441 -3.4850361 -0.023637332 28
13.82924 -4.578939 -0.1098391 38
10.521059 -1.8532535 -0.14357834 0
10.330755 -2.6044931 -0.20605554 0
13.86319 -4.5901799 -0.36862972 37
10.154671 -1.7887152 -0.32097408 0
10.003888 -2.5220866 -0.38245115 0
13.82827 -4.5786176 -0.62580144 58
9.7776461 -1.7223033 -0.48470032 2
9.3993626 -2.3696792 -0.5309186 4
9.3582554 -3.0985708 -0.59775394 2
9.2606344 -1.6312333 -0.625714 10
8.8395014 -2.2285323 -0.66064668 12
8.8016634 -2.9142802 -0.72643328 13
9.0049829 -1.5862011 -0.77022165 14
8.5873747 -2.1649683 -0.79848588 12
8.6407833 -2.861012 -0.87418956 1
8.8844624 -1.5649718 -0.91968507 25
8.6341896 -2.1767709 -0.96040446 6
8.562706 -2.1587491 -1.1089928 5
8.7577276 -2.2079163 -1.2940956 3
9.2475863 -2.3314147 -1.5369624 2
8.4531708 -2.131134 -1.5591342 3
7.7789021 -1.9611439 -1.5778401 3
7.1866951 -1.8118421 -1.5890381 3
6.683589 -1.6850038 -1.6000556 11
6.2691813 -1.5805273 -1.6149886 6
4.7129622 -1.1881878 -1.672063 7
1.701486 -0.42896268 -0.81794399 5
6.3527007 -1.6488359 1.7324766 19
5.2573237 -1.364532 1.0495838 14
7.4501877 -1.9336873 1.0768174 3
13.777937 -3.5760469 1.2358409 44
13.772836 -3.574723 0.73202401 27
13.798679 -3.5814307 0.48113632 32
13.79957 -4.6762662 0.4052057 35
13.774999 -2.5256996 0.30704948 57
13.78928 -3.5789912 0.22827342 23
13.811773 -4.6804018 0.14762998 34
13.786056 -2.5277269 0.059199158 42
13.818131 -3.5864797 -0.023670493 28
13.838607 -4.6894951 -0.11017085 33
10.515733 -1.9281006 -0.14368585 0
10.35103 -2.6865976 -0.20682901 0
13.853529 -4.6945515 -0.36923534 34
10.157665 -1.8624475 -0.3214719 0
10.028598 -2.6029105 -0.38408113 0
13.826247 -4.6853065 -0.62717491 50
9.7418041 -1.7861978 -0.48353001 2
9.3864565 -2.4362435 -0.53113735 4
13.840098 -4.6900001 -0.88609934 42
9.1940594 -1.6857666 -0.62199581 12
8.8507595 -2.297204 -0.66267055 12
8.8566399 -3.0012534 -0.73268217 10
8.8956757 -1.6310568 -0.76182783 7
8.5990438 -2.2318716 -0.80100024 12
8.6771641 -2.9404347 -0.87992573 0
8.8185225 -1.6169103 -0.91400552 31
8.5533428 -2.2200098 -0.95311242 12
8.5320606 -2.2144861 -1.1069992 33
8.7574301 -2.2729807 -1.296365 2
9.2272625 -2.3949249 -1.5363259 2
8.4457092 -2.1920738 -1.5605427 4
7.7574234 -2.0134299 -1.5762962 3
7.1852283 -1.8649174 -1.5915537 4
6.6565766 -1.7277066 -1.5964376 9
6.246726 -1.6213303 -1.6120805 6
4.7045527 -1.221061 -1.672063 7
1.6949406 -0.4399198 -0.81625402 5
6.3559813 -1.6971369 1.7365602 18
5.2704353 -1.4072808 1.0541372 10
8.8334827 -2.358665 1.2791017 18
13.721834 -3.6639237 1.2330731 31
13.762981 -3.6749108 0.73284602 27
13.792651 -3.682833 0.48181093 32
13.793033 -4.7816577 0.4059841 32
13.780602 -2.626298 0.30757555 67
13.756228 -3.6731076 0.22814526 21
13.820333 -4.7911215 0.14807539 35
13.78772 -2.6276546 0.059283633 40
13.742517 -3.6694465 -0.023584275 33
13.843324 -4.7990923 -0.11047244 34
10.517733 -2.0044625 -0.14390086 0
11.124118 -2.9702966 -0.22268538 0
13.861978 -4.8055587 -0.37034568 12
10.124779 -1.9295737 -0.32084963 0
10.06811 -2.6883278 -0.38630381 0
13.827184 -4.7934966 -0.6287201 43
9.7330217 -1.8549129 -0.48372507 1
9.4232426 -2.516139 -0.53419995 4
13.844743 -4.7995839 -0.88852042 17
9.1389408 -1.7416933 -0.6190744 15
8.8460693 -2.3620255 -0.66353792 11
8.9296656 -3.0956647 -0.7404933 10
8.8410034 -1.6849126 -0.75813448 9
8.5832529 -2.2918499 -0.80100024 10
8.8896713 -3.0817997 -0.90363514 49
8.7757473 -1.6724762 -0.91076005 33
8.6759586 -2.3166037 -0.96855438 4
8.5394001 -2.2801406 -1.1099898 28
8.7183952 -2.327935 -1.292961 1
9.2255793 -2.4633601 -1.5388716 2
8.418787 -2.2479351 -1.55843 4
7.7355938 -2.0655129 -1.5747523 4
7.1644759 -1.9130163 -1.5898767 3
6.6481175 -1.7751414 -1.597342 7
6.2390041 -1.6659023 -1.6130499 7
4.6995673 -1.254851 -1.6733643 7
1.7023363 -0.45454785 -0.82132393 5
6.3551674 -1.7445393 1.739623 19
5.2794189 -1.4492385 1.0579319 9
8.8206224 -2.4213243 1.2796559 18
13.722821 -3.7670133 1.235495 45
13.698469 -3.7603285 0.73079091 31
13.73191 -3.7695081 0.4805966 35
13.797 -4.8911948 0.40709606 35
13.777622 -2.725543 0.30792627 72
13.730251 -3.769053 0.22814526 26
13.812937 -4.8968444 0.14835882 37
13.784735 -2.7269499 0.059351213 42
13.76671 -3.7790611 -0.023670493 33
13.843411 -4.9076481 -0.11074387 14
10.53487 -2.0840492 -0.14433089 0
10.497627 -2.8816743 -0.21054173 0
10.103217 -1.9986578 -0.32060069 0
11.09371 -3.0453033 -0.42646044 0
9.7119961 -1.921265 -0.48333499 2
9.4247046 -2.5871494 -0.5352937 3
12.791075 -4.5345826 -0.82291031 3
9.0599985 -1.7922843 -0.61455947 18
8.837059 -2.4258363 -0.66411614 11
9.0281115 -3.2005689 -0.7504915 7
8.809474 -1.7427245 -0.75645572 24
8.5785694 -2.3548791 -0.80207783 13
8.9017153 -3.15576 -0.90707684 0
8.7248201 -1.725978 -0.90670317 10
8.6327305 -2.3697467 -0.96555179 2
8.5232744 -2.3397002 -1.1099898 20
8.7057505 -2.3897913 -1.2935283 1
9.2233896 -2.5318871 -1.5414174 2
8.4104834 -2.3087382 -1.5598384 4
7.7285552 -2.1215441 -1.5762962 5
7.162261 -1.9660923 -1.5923922 3
6.6505923 -1.8256356 -1.60096 8
6.2421913 -1.7135265 -1.6169274 6
4.6870456 -1.2866278 -1.672063 6
1.70961 -0.46930027 -0.82639384 5
6.3018875 -1.7773163 1.728393 20
5.2691722 -1.4860605 1.0579319 9
8.8263788 -2.4892967 1.2829812 20
13.730706 -3.8724601 1.2386088 40
13.71033 -3.8667135 0.73284602 35
13.739886 -3.8750494 0.48181093 39
13.79635 -4.9996576 0.40809685 35
13.777847 -2.82568 0.30836466 78
13.749795 -3.8778439 0.22891428 28
13.82354 -5.009511 0.1488447 42
13.788872 -2.8279412 0.059452582 43
13.77079 -3.883765 -0.02372355 35
10.492639 -2.151921 -0.14395462 0
10.527291 -2.9690037 -0.21154726 0
12.447636 -4.5108972 -0.33420947 0
10.085101 -2.0683398 -0.32047623 0
10.118079 -2.8535938 -0.38971195 0
12.451398 -4.5122604 -0.56897283 0
9.702261 -1.9898236 -0.48353001 1
9.4525414 -2.6658928 -0.53791881 2
12.466311 -4.5176649 -0.80402625 1
9.0159864 -1.8490765 -0.6124348 14
8.850626 -2.496135 -0.6664291 13
12.574772 -4.5569701 -1.0479386 3
8.7736654 -1.7993791 -0.7544412 23
8.5964279 -2.4244437 -0.80531055 9
8.901927 -3.2259681 -0.90937132 3
8.5509062 -2.4116054 -0.95825976 3
8.5334702 -2.406688 -1.1134787 26
8.6850424 -2.4494357 -1.292961 1
9.2092896 -2.5972886 -1.5420538 2
8.3865805 -2.3652606 -1.55843 4
7.7097778 -2.1743824 -1.5755243 4
7.1370673 -2.0128615 -1.5898767 3
6.633935 -1.8709633 -1.6000556 7
6.2188716 -1.7539034 -1.6140193 7
4.6815891 -1.3203448 -1.6733643 7
1.6958239 -0.47827187 -0.82132393 5
6.270752 -1.8158891 1.7232884 19
5.2699866 -1.5260868 1.0602086 7
8.8278103 -2.5563641 1.2857522 20
13.726304 -3.9748735 1.2406846 43
13.717536 -3.9723344 0.73469561 37
13.743219 -3.9797721 0.48289031 39
13.802357 -5.1111245 0.40932003 34
13.765609 -2.9234586 0.30854002 58
13.753121 -3.9826393 0.22942697 27
13.788357 -2.9282897 0.059537053 44
13.75871 -3.9842577 -0.02375008 108
12.576983 -4.6573591 -0.10112315 0
10.485185 -2.2267816 -0.14406212 0
10.525515 -3.0479865 -0.211934 1
12.194599 -4.5157585 -0.32825404 0
10.121257 -2.1494927 -0.32209417 0
10.151665 -2.9397266 -0.39178646 0
12.228466 -4.5282998 -0.56021672 2
9.680316 -2.0558486 -0.48313993 1
9.4643917 -2.740706 -0.5396688 3
12.239771 -4.532486 -0.79143685 1
9.0028582 -1.9119738 -0.6124348 15
8.8521442 -2.5634108 -0.66787475 11
12.273401 -4.54494 -1.0254426 2
8.7374954 -1.8556178 -0.75242668 21
8.5984259 -2.4899387 -0.80710655 11
12.079133 -4.4730005 -1.2370968 1
8.6375904 -1.8344004 -0.90021223 1
8.5529613 -2.476773 -0.96040446 3
8.5317097 -2.470619 -1.1154723 25
8.7361908 -2.5298326 -1.3031731 6
9.2023134 -2.6648128 -1.5439631 3
8.3925562 -2.4303229 -1.5626553 3
7.7170296 -2.2347033 -1.580156 4
7.1378684 -2.0669894 -1.5932308 4
6.6281967 -1.9193983 -1.6018646 11
6.221386 -1.8015937 -1.6178968 7
4.6722574 -1.3529959 -1.6733643 6
1.6959261 -0.49110758 -0.8230139 5
6.2579217 -1.8596228 1.7232884 19
5.2817917 -1.5695531 1.0647621 4
8.8097486 -2.6179316 1.2857522 20
13.724959 -4.0785503 1.2431065 43
13.720103 -4.0771074 0.73633969 35
13.745757 -4.0847306 0.48396969 35
13.792517 -5.2172613 0.41009843 35
13.760487 -3.0229216 0.30889073 63
13.751819 -4.0865321 0.22987556 26
12.644886 -4.7831497 0.13685939 0
13.791018 -3.0296288 0.059638422 45
13.765068 -4.0904694 -0.02380977 33
12.31221 -4.6573091 -0.099253289 0
10.426411 -2.2904875 -0.14347082 0
13.735678 -4.0817356 -0.2771385 38
12.001951 -4.5399485 -0.32391366 0
10.098194 -2.2183845 -0.32184526 0
10.222854 -3.037854 -0.39534274 0
12.032089 -4.5513487 -0.55266249 0
9.6774349 -2.1259513 -0.48372507 2
9.5177698 -2.8283291 -0.54382515 3
11.953888 -4.5217676 -0.77497381 1
8.9853916 -1.9739226 -0.61216927 10
8.8569784 -2.6319664 -0.66960949 10
11.998932 -4.5388064 -1.0051337 1
8.7009697 -1.9114404 -0.75041217 20
8.6037464 -2.5567153 -0.80926168 10
12.055059 -4.5600376 -1.2378616 2
8.6245728 -1.8946574 -0.90021223 4
8.5468988 -2.5398223 -0.96169132 2
8.5332756 -2.5357738 -1.1179645 24
8.7259073 -2.5930169 -1.3043077 2
9.1872702 -2.7301171 -1.5445994 2
8.367837 -2.4866116 -1.5612469 3
7.6974788 -2.287406 -1.579384 4
7.1345119 -2.1201131 -1.5957464 4
6.6071658 -1.9634053 -1.6000556 9
6.2160969 -1.8471941 -1.6198355 7
4.6518207 -1.382349 -1.6694607 6
1.6820303 -0.49983722 -0.81794399 6
6.2410874 -1.9021376 1.7222676 19
8.7269058 -2.6597574 1.7629668 20
8.8139935 -2.6862996 1.2890774 19
13.719023 -4.1812377 1.2451824 13
13.714233 -4.1797781 0.73757273 35
13.751323 -4.191082 0.48518401 37
13.796786 -5.3292704 0.41132161 59
13.770247 -3.1259966 0.30959216 56
13.745909 -4.1894321 0.23026007 33
12.338814 -4.7661009 0.13390355 0
13.789035 -3.1302619 0.059722897 42
13.762959 -4.1946287 -0.023856197 36
12.070449 -4.6624398 -0.097564384 0
10.460873 -2.3747327 -0.14416963 0
13.741278 -4.1880207 -0.27783462 44
11.753617 -4.5400577 -0.31805921 0
10.117551 -2.2967947 -0.32296538 0
10.216691 -3.1138089 -0.39593548 1
11.798717 -4.5574784 -0.54339135 0
9.6740456 -2.1961143 -0.48431024 2
9.6009464 -2.9261444 -0.54973155 3
11.758153 -4.5418096 -0.76432121 0
8.9752846 -2.037488 -0.6124348 9
8.8727341 -2.7042022 -0.67221159 10
11.725159 -4.5290651 -0.98482484 0
8.6757526 -1.9694908 -0.74940485 19
8.6009302 -2.6213629 -0.81069845 8
9.4378338 -3.6455421 -0.97170419 0
8.6188984 -1.9565842 -0.90102363 5
8.6849298 -2.6469641 -0.97927797 3
8.5419397 -2.603384 -1.1214534 26
8.707592 -2.6538708 -1.3043077 1
9.1793194 -2.7976422 -1.5465088 2
8.3578062 -2.5472641 -1.5626553 4
7.6813226 -2.3410878 -1.579384 3
7.1083131 -2.1664479 -1.5932308 4
6.5783887 -2.0049393 -1.5964376 7
6.1919131 -1.8871505 -1.6169274 7
4.6492934 -1.416996 -1.672063 7
1.6993078 -0.51790935 -0.82808381 6
6.2313476 -1.9468157 1.7232884 20
8.7268686 -2.7264738 1.7667613 27
8.8025875 -2.7501302 1.2901858 21
13.780787 -4.3054338 1.2534859 35
13.715222 -4.2849498 0.7392168 34
13.752255 -4.2965198 0.48626339 36
13.792723 -5.4386611 0.41232237 71
13.775342 -3.2284405 0.31020591 50
13.792677 -4.3091488 0.2315418 30
12.089423 -4.7670264 0.13155508 0
13.794107 -3.2328386 0.05984116 42
13.851698 -4.3275881 -0.024061795 29
9.4254255 -3.7165756 -0.076392762 9
10.444039 -2.4477041 -0.14416963 0
13.734609 -4.2910066 -0.27829874 50
9.4003725 -3.7066967 -0.25507319 15
10.116839 -2.3710203 -0.3234632 0
10.297718 -3.2172434 -0.39993632 1
9.4541855 -3.7279158 -0.43660164 0
9.6662579 -2.2654204 -0.48470032 1
9.6069698 -3.0014377 -0.55126286 2
9.4566994 -3.7289073 -0.61639589 16
8.9841576 -2.1055608 -0.61402833 14
8.910759 -2.7839255 -0.67654842 7
9.404315 -3.7082515 -0.79204661 15
8.6811953 -2.0345573 -0.75108367 18
8.616643 -2.6920369 -0.81393117 11
9.345479 -3.6850514 -0.9648208 15
8.5779076 -2.0103505 -0.89818382 15
8.6320753 -2.6968582 -0.97541749 2
8.5690155 -2.6771569 -1.1274345 29
8.6434994 -2.7004273 -1.2974997 1
9.1708727 -2.865191 -1.548418 2
8.3473358 -2.6078992 -1.5640638 4
7.6760297 -2.3981676 -1.5816998 4
7.0967484 -2.2171869 -1.5940694 4
6.5865459 -2.0577881 -1.6018646 6
6.1934047 -1.9349616 -1.6208049 7
4.6465082 -1.4516757 -1.6746655 6
1.6852691 -0.52651674 -0.8230139 6
6.2360215 -1.9961659 1.728393 19
8.7151022 -2.7897258 1.7682792 32
8.7869473 -2.8127236 1.29074 22
13.784552 -4.4124694 1.2565998 34
13.776282 -4.4098225 0.74414903 32
13.824725 -4.4253287 0.48990631 32
9.3402443 -3.7585413 0.27999669 41
13.787452 -3.3329892 0.31099501 73
13.819394 -4.4236221 0.23250309 26
9.2951374 -3.7403905 0.10142981 16
13.798418 -3.3356402 0.059959423 46
13.81734 -4.4229646 -0.024055162 27
9.2582426 -3.725544 -0.075246722 24
10.500562 -2.5384138 -0.14519097 0
13.810966 -4.4209247 -0.28046447 41
9.2147512 -3.7080429 -0.25073281 20
10.115585 -2.4453492 -0.32396102 0
13.845943 -4.4321208 -0.53892863 45
9.3055849 -3.7445946 -0.43093595 16
9.6696234 -2.3375423 -0.48567557 1
9.6428404 -3.0866971 -0.55454415 1
9.2600517 -3.7262721 -0.60525912 29
8.9614811 -2.1663554 -0.61349714 12
8.9291039 -2.8582282 -0.67943966 9
9.2154198 -3.708312 -0.77829903 22
8.6667805 -2.0951142 -0.75108367 18
8.6317883 -2.7630568 -0.81716394 8
9.1643848 -3.6877751 -0.94875956 24
8.5752678 -2.0729918 -0.89940089 7
8.6547022 -2.7703917 -0.98013586 1
8.5349979 -2.732074 -1.1254408 1
8.6131229 -2.757082 -1.2957977 1
9.1619301 -2.9327567 -1.5503273 3
8.3214254 -2.6637092 -1.5626553 4
7.6516247 -2.4493041 -1.580156 4
7.1034465 -2.2738309 -1.5991006 4
6.5645981 -2.1013441 -1.6000556 10
6.1797452 -1.9781518 -1.6208049 7
4.6218505 -1.4794658 -1.6694607 6
1.6953639 -0.54269016 -0.82977378 6
6.2366338 -2.0444717 1.7324766 22
5.295619 -1.7359916 1.0769048 5
8.7896824 -2.8814034 1.2940652 19
13.795065 -4.5222507 1.2604055 32
13.786917 -4.5195794 0.74640965 29
13.820086 -4.5304527 0.49085078 31
9.1584234 -3.7598789 0.27532637 22
13.767727 -3.4301274 0.31108269 57
13.810978 -4.5274673 0.2328876 29
9.1318941 -3.7489874 0.09993165 22
13.801964 -3.4386573 0.060077686 41
13.850741 -4.5405021 -0.024167912 31
9.0840006 -3.7293253 -0.074040361 21
10.513633 -2.6193938 -0.145621 0
13.810168 -4.5272017 -0.28108326 44
9.0369749 -3.7100196 -0.24659429 20
10.109905 -2.5188081 -0.32433441 0
13.845051 -4.5386372 -0.54011405 50
9.1276426 -3.7472422 -0.42389676 25
9.6685753 -2.408854 -0.48645577 1
13.849009 -4.5399342 -0.79823732 39
9.0934572 -3.7332077 -0.5960592 23
8.957757 -2.2317588 -0.61429393 12
8.950633 -2.9341657 -0.68262005 8
9.0491247 -3.7150075 -0.76642615 23
8.6674128 -2.1594219 -0.75242668 20
8.6350021 -2.8306966 -0.81931907 8
8.9947643 -3.6926904 -0.93384558 22
8.5992002 -2.142427 -0.9034577 8
8.5973587 -2.8183565 -0.97584641 0
8.5873718 -2.8150826 -1.1349109 0
8.6388159 -2.8319468 -1.3026057 1
9.1675005 -3.0052583 -1.5547823 2
8.3026266 -2.7217386 -1.5626553 4
7.641798 -2.5051079 -1.5816998 4
7.0725331 -2.3184934 -1.5957464 4
6.5571728 -2.1495497 -1.6018646 7
6.1694717 -2.022455 -1.6217743 6
4.6329751 -1.5187659 -1.6772679 6
1.6880889 -0.55338347 -0.82808381 7
6.222209 -2.0879614 1.7324766 21
5.2945409 -1.7766675 1.0791816 2
8.7918854 -2.9502573 1.2973905 19
13.800938 -4.6311245 1.2638654 31
13.785326 -4.625886 0.74805373 28
13.810861 -4.6344543 0.49166033 32
8.9844246 -3.7619514 0.27087846 21
13.77056 -3.5331175 0.31169644 86
13.828326 -4.6403151 0.2337207 26
8.9616108 -3.752399 0.098352499 22
13.800868 -3.5408936 0.060179055 48
13.849043 -4.6472669 -0.02422097 31
8.9138517 -3.7324014 -0.07286416 20
10.545454 -2.705651 -0.14631981 0
13.81614 -4.6362262 -0.28185675 44
8.8854485 -3.7205081 -0.24316236 21
10.154037 -2.6052248 -0.32632571 0
13.847135 -4.6466269 -0.5414477 47
8.9611845 -3.7522204 -0.41737264 24
9.6747427 -2.4822521 -0.48762608 1
13.843482 -4.645401 -0.79976863 43
8.9161768 -3.7333748 -0.58613294 21
8.9496899 -2.2962251 -0.61482507 14
8.990448 -3.0168879 -0.68724602 7
8.8831921 -3.7195635 -0.75455326 5
8.6598482 -2.2218604 -0.75309819 19
8.6641293 -2.9073865 -0.82398862 10
8.8145113 -3.6908057 -0.91778433 20
8.584034 -2.2024086 -0.9034577 9
8.618948 -2.8922253 -0.98056483 0
8.6201868 -2.8926411 -1.1418889 12
8.645112 -2.9010053 -1.3065771 0
9.1462965 -3.0691855 -1.5547823 2
8.3095541 -2.7884035 -1.5675849 4
7.6390066 -2.5633905 -1.5847875 4
7.0524664 -2.3665676 -1.5949079 5
6.5604768 -2.2014725 -1.606387 5
6.1404858 -2.0605378 -1.6178968 7
4.6043296 -1.5450562 -1.6707618 6
1.6635617 -0.55823463 -0.81794399 8
6.1891913 -2.1250699 1.7273721 18
8.7216282 -2.9945865 1.7819397 25
8.7748222 -3.0128508 1.2979447 19
13.798423 -4.7377129 1.2666332 33
13.794255 -4.7362823 0.7503143 29
13.8122 -4.7424436 0.49287462 32
8.8145266 -3.7633517 0.26654172 22
13.772625 -3.6363125 0.31231019 66
13.822073 -4.7458334 0.2341693 26
8.7990904 -3.7567611 0.096854337 42
13.799017 -3.6432805 0.060280424 40
13.846527 -4.75423 -0.024274027 29
8.7992907 -3.7568469 -0.072140343 47
10.561112 -2.788394 -0.1468036 0
13.821262 -4.7455549 -0.28263023 44
8.7967386 -3.7557571 -0.24144641 42
11.15612 -2.9454908 -0.3591823 0
13.852164 -4.756165 -0.54292947 43
8.8061333 -3.7597682 -0.41136357 45
9.6958065 -2.5599318 -0.48957658 1
13.844712 -4.7536063 -0.80173743 38
8.7834082 -3.7500656 -0.57911193 15
8.9411592 -2.3606863 -0.61535627 11
9.082366 -3.1184466 -0.69591969 4
8.7909927 -3.753304 -0.74892926 2
8.6479788 -2.2832797 -0.75343394 19
8.6737633 -2.978152 -0.82686216 8
8.8068399 -3.7600698 -0.91969639 9
8.6838751 -2.292757 -0.91562825 3
8.6436825 -2.967824 -0.98571211 0
8.6560879 -2.9720831 -1.1493652 35
8.6508636 -2.9702895 -1.3105484 0
9.1321163 -3.1355283 -1.5560551 3
8.2563686 -2.8348389 -1.5612469 4
7.6246367 -2.6179326 -1.5855595 4
7.0394726 -2.4170156 -1.5957464 5
6.5265212 -2.2408926 -1.6018646 5
6.1479735 -2.1109176 -1.623713 6
4.6041636 -1.5808477 -1.6746655 7
1.6836268 -0.57807624 -0.82977378 8
6.1632581 -2.1643817 1.7243093 18
8.7338591 -3.0671124 1.78877 33
8.7946892 -3.0884743 1.3040409 21
13.795091 -4.8444901 1.2694011 34
13.77593 -4.8377619 0.75113636 33
13.820246 -4.8533239 0.49435878 30
8.755043 -3.8104351 0.26554096 42
13.739185 -3.7302794 0.31213483 60
13.826341 -4.8554645 0.23481017 27
8.7763166 -3.8196938 0.09689483 43
13.723063 -3.7259018 0.060060792 51
13.854514 -4.8653584 -0.024346983 27
8.798522 -3.8293583 -0.072351456 44
10.591567 -2.8756802 -0.14750241 0
13.821756 -4.8538542 -0.28332636 44
8.7886372 -3.8250563 -0.24195109 40
10.197699 -2.7687423 -0.32893932 0
13.833709 -4.8580518 -0.54352218 1
8.7833357 -3.8227489 -0.41153526 51
9.7239666 -2.640121 -0.49191719 1
8.7899628 -3.8256333 -0.58129084 46
8.939867 -2.427233 -0.6164186 12
9.1657715 -3.2187891 -0.70401514 1
8.793828 -3.8273156 -0.75142884 41
8.651062 -2.3488202 -0.75511271 18
8.7091436 -3.0584331 -0.83225006 13
8.8132334 -3.8357613 -0.92313808 47
8.540926 -2.3189175 -0.90224069 3
8.6865425 -3.0504959 -0.99300414 18
8.7250004 -3.0640013 -1.1613274 17
8.7008991 -3.0555375 -1.3213278 8
9.1100044 -3.1992052 -1.5560551 3
8.2623825 -2.9015415 -1.5661764 4
7.591362 -2.6658962 -1.5824717 4
7.0334978 -2.4699881 -1.5982621 4
6.5070424 -2.2851102 -1.60096 8
6.1147795 -2.1473572 -1.6188661 6
4.6037216 -1.6167116 -1.6785691 7
1.6863916 -0.59221846 -0.83315367 8
6.1342058 -2.1999881 1.7202258 18
8.7355061 -3.1329255 1.7933235 33
8.7851982 -3.1507473 1.3057035 20
13.781412 -4.9426031 1.2711309 31
13.811226 -4.9532952 0.75483549 35
13.82162 -4.9570231 0.4955731 29
8.7588234 -3.8813765 0.26643053 40
13.721847 -3.8234644 0.31231019 66
13.816421 -4.9551587 0.23519468 27
8.7763882 -3.8891604 0.097178265 45
13.744288 -3.8297174 0.060263529 48
8.7948723 -3.8973515 -0.072532408 45
10.641614 -2.9651861 -0.14847 5
8.7959785 -3.8978415 -0.24285956 40
10.194516 -2.8406067 -0.32943714 0
12.574579 -4.5097814 -0.49521568 0
8.7833643 -3.8922517 -0.41273707 48
9.7331829 -2.7120605 -0.49328256 0
12.763641 -4.5775867 -0.74267358 2
8.8009005 -3.9000225 -0.58371192 44
8.9620209 -2.4971833 -0.6190744 14
12.554058 -4.5024214 -0.96653908 0
8.8120012 -3.9049418 -0.75517815 45
8.6429729 -2.4082837 -0.75578421 18
8.9661646 -3.2156494 -0.85883033 16
8.8130817 -3.9054205 -0.92581493 46
8.5445251 -2.380852 -0.9042691 4
8.7522192 -3.1389196 -1.0028698 24
8.9062214 -3.1941512 -1.1882422 4
8.8295259 -3.1666453 -1.3440213 0
9.0997372 -3.2635546 -1.5579643 3
8.2466631 -2.9576056 -1.5668806 4
7.5587368 -2.710886 -1.579384 4
7.0095983 -2.5139413 -1.5965849 5
6.5027466 -2.3321626 -1.6036736 10
6.1004028 -2.187865 -1.6188661 6
4.5857768 -1.6446553 -1.6759666 7
1.6619508 -0.59604657 -0.8230139 8
6.1041722 -2.2374344 1.7161422 19
8.7244844 -3.1978884 1.7956003 27
8.7927427 -3.222908 1.3101372 23
13.798953 -5.0578933 1.2759746 27
13.791312 -5.0550928 0.75565755 35
13.820458 -5.0657763 0.4967874 29
8.7606668 -3.9555926 0.26732013 40
13.729422 -3.9290707 0.31309929 63
13.830308 -5.0693865 0.23602779 28
8.7818317 -3.9651487 0.097542681 46
13.744135 -3.9332812 0.060381792 49
13.832065 -5.0700302 -0.024426568 1
8.7893229 -3.9685314 -0.07271336 43
13.750708 -3.9351623 -0.19222617 40
12.564077 -4.6052599 -0.25880697 0
8.8086405 -3.9772534 -0.24396989 43
10.347406 -2.9612093 -0.33503768 0
12.325111 -4.5176687 -0.48662129 0
8.7887583 -3.9682763 -0.41428226 46
9.7601051 -2.7931359 -0.49562314 0
12.472621 -4.5717373 -0.72757947 1
8.7989311 -3.9728694 -0.5854066 45
8.9635534 -2.5651798 -0.62040234 14
12.353757 -4.5281687 -0.95352852 3
8.8026972 -3.97457 -0.75674039 43
8.6451101 -2.4740479 -0.75746298 19
8.8001184 -3.9734056 -0.92734456 40
8.5774307 -2.4546795 -0.90954298 1
8.8719835 -3.2519531 -1.0191697 11
8.9656858 -3.286299 -1.1992075 0
10.052629 -3.6847093 -1.5340792 3
9.0581932 -3.3202066 -1.5547823 2
8.2406025 -3.0205255 -1.5696975 4
7.5654225 -2.7730439 -1.5847875 3
6.9992213 -2.5655074 -1.5982621 5
6.5119152 -2.3868892 -1.610005 4
6.099555 -2.2357421 -1.6227436 6
4.5777345 -1.6779312 -1.6772679 7
1.6747692 -0.61387295 -0.83146369 7
6.0811596 -2.2772825 1.7141004 19
5.6970901 -2.1334555 1.1755642 11
8.788579 -3.2911611 1.3129082 22
13.774502 -5.1582975 1.2770126 25
13.789354 -5.1638594 0.75750715 43
13.822194 -5.1761575 0.49813664 27
8.7582674 -4.0283523 0.2680985 39
13.717006 -4.0293307 0.31345001 104
8.7757397 -4.0363884 0.097785629 45
13.743206 -4.0370269 0.060500056 51
12.492743 -4.6783023 -0.022118546 0
8.7868423 -4.0414948 -0.07292448 42
13.757438 -4.0412078 -0.19270997 37
12.269453 -4.5946846 -0.25339261 0
8.8024578 -4.048677 -0.24457552 41
10.307302 -3.02774 -0.33441541 0
12.106102 -4.5335126 -0.47921231 0
8.7898855 -4.0428948 -0.41565576 48
9.7863674 -2.8747172 -0.49796376 0
12.01774 -4.500423 -0.70286012 1
8.7963734 -4.0458789 -0.58710134 47
8.9837208 -2.638942 -0.62305814 11
12.056578 -4.5149665 -0.9330008 1
8.8037195 -4.0492573 -0.75923991 43
8.654397 -2.5422041 -0.75981325 19
12.151284 -4.5504322 -1.1698914 1
8.8155737 -4.0547099 -0.93193352 42
8.5715389 -2.5178647 -0.91076005 0
12.193535 -4.5662546 -1.404361 2
11.27665 -4.222898 -1.5122176 4
10.048909 -3.7631316 -1.5374832 4
9.0458879 -3.3875184 -1.5566915 2
8.2230015 -3.0793629 -1.5704017 3
7.5642562 -2.8326747 -1.5886472 3
6.999454 -2.6211667 -1.6024548 5
6.4987421 -2.4336593 -1.6109096 5
6.0910668 -2.2809925 -1.6246824 5
4.5659089 -1.7098489 -1.6772679 7
1.6602571 -0.62173575 -0.82639384 8
6.0506639 -2.3141544 1.7100167 18
8.7046614 -3.3292098 1.8009126 23
8.7875881 -3.3609264 1.3162334 19
13.741878 -5.2557583 1.2773585 19
13.786549 -5.2728434 0.75935674 40
13.826797 -5.2882361 0.4996208 29
8.7625189 -4.1046634 0.2690993 40
13.734489 -4.1388416 0.31450215 86
12.499288 -4.7805133 0.2144309 0
8.7763233 -4.1111302 0.098109558 48
13.737667 -4.1397991 0.060601421 50
12.175837 -4.6568055 -0.021614496 0
8.7910118 -4.1180105 -0.073195904 42
13.763355 -4.1475401 -0.19319376 36
12.076457 -4.6187963 -0.25006664 0
8.7993259 -4.1219053 -0.2452821 42
13.773247 -4.1505208 -0.44779554 35
11.876283 -4.5422373 -0.47135881 0
8.7867794 -4.1160278 -0.41685757 49
9.8387403 -2.9648709 -0.5016697 0
11.799505 -4.5128727 -0.69192237 0
8.7968378 -4.1207395 -0.58903819 47
8.9956503 -2.7108085 -0.62518281 12
11.760197 -4.4978385 -0.91247302 0
8.7969027 -4.12077 -0.7611146 45
8.6631536 -2.6106117 -0.76216358 19
12.015034 -4.595304 -1.159834 2
8.815897 -4.1296678 -0.93499279 43
8.645195 -2.6052001 -0.92049646 2
12.161361 -4.651269 -1.404361 2
11.246895 -4.3015199 -1.5122176 5
10.063074 -3.8487525 -1.5437239 3
9.0293961 -3.4534087 -1.5579643 1
8.2049818 -3.1381011 -1.571106 4
7.5516286 -2.8882174 -1.5901911 4
6.9773316 -2.6685703 -1.6016163 5
6.4706759 -2.4747934 -1.608196 5
6.0749946 -2.3234599 -1.6246824 6
4.557394 -1.743034 -1.6785691 6
1.6558763 -0.63331121 -0.82639384 7
6.0407419 -2.3612616 1.7120585 20
5.387979 -2.1061037 1.1178864 1
8.7811632 -3.4324632 1.3190043 20
13.669579 -5.3432927 1.2742448 26
13.781012 -5.3868508 0.76120633 70
13.821171 -5.4025483 0.50083512 32
8.7646694 -4.184289 0.27010006 41
13.726703 -4.2464986 0.31502822 58
12.255307 -4.7904692 0.2108421 0
8.7784367 -4.1908617 0.098473974 47
13.745165 -4.2522101 0.06077037 49
9.4478436 -3.6930614 -0.01681938 1
8.7930765 -4.1978502 -0.073467337 42
13.770793 -4.2601385 -0.19373131 36
11.893284 -4.6489577 -0.24697271 0
8.7941351 -4.1983557 -0.24598867 42
13.799744 -4.2690945 -0.44966239 42
11.626737 -4.5447674 -0.46276438 0
8.7780094 -4.1906576 -0.41788769 48
9.9274292 -3.0711539 -0.50732619 0
9.4634771 -3.6991723 -0.55651295 0
8.7880135 -4.1954336 -0.59049082 47
9.0098534 -2.787292 -0.62757307 10
9.4677324 -3.7008357 -0.73668611 17
8.8132429 -4.207478 -0.76517636 42
8.6818619 -2.6858246 -0.76552111 18
11.828897 -4.6237898 -1.145107 2
8.8105402 -4.2061877 -0.93766963 43
8.6828899 -2.6861424 -0.92658168 1
9.4711609 -3.7021761 -1.0968084 1
9.4629383 -3.6989615 -1.2759649 18
9.4297867 -3.6860032 -1.4506806 16
9.0075159 -3.5209422 -1.5586008 2
8.1817579 -3.1981621 -1.571106 4
7.522943 -2.9406383 -1.5886472 4
6.9539399 -2.7182209 -1.6007776 5
6.459619 -2.524996 -1.610005 4
6.0686426 -2.3721676 -1.6275905 6
4.5444946 -1.7763945 -1.6785691 6
1.6646961 -0.65071195 -0.83315367 7
6.0205178 -2.4019434 1.7110376 17
5.2783027 -2.1058297 1.0981545 5
8.7606649 -3.4951515 1.3195585 28
9.3347149 -3.7241743 0.87256181 20
9.3908491 -3.7465696 0.52014393 12
9.3904905 -3.7464266 0.34122089 18
8.7604179 -4.2576103 0.27087846 43
13.76534 -4.3639793 0.3166064 40
9.3389101 -3.725848 0.16111156 14
8.7849398 -4.2695284 0.098878883 45
13.818093 -4.3807034 0.061226528 41
9.3178043 -3.7174275 -0.016633678 15
8.7959337 -4.2748713 -0.073738769 42
13.843657 -4.3888078 -0.19518268 32
9.4052238 -3.7523046 -0.19584557 16
8.8041716 -4.2788749 -0.247099 43
13.834394 -4.3858709 -0.45177817 34
9.3633995 -3.7356181 -0.37370855 12
8.7808886 -4.2675595 -0.41943288 49
10.04285 -3.1838508 -0.51434797 3
9.3187113 -3.7177894 -0.5495128 18
8.7908297 -4.2723908 -0.59266973 18
9.0282211 -2.8621864 -0.63022888 14
9.2860327 -3.7047522 -0.72454292 29
8.8015881 -4.2776194 -0.76673859 10
8.689496 -2.7548015 -0.76787138 17
9.3652782 -3.7363679 -0.90911734 21
8.8024483 -4.2780375 -0.93996412 4
8.6487522 -2.7418847 -0.92495894 1
9.3231878 -3.7195754 -1.0826534 23
9.2783737 -3.7016964 -1.2545326 18
9.2456837 -3.6886544 -1.4262851 19
9.0010548 -3.5910573 -1.561783 6
8.1702023 -3.2595809 -1.5732186 4
7.4840031 -2.985815 -1.5847875 3
6.9456916 -2.7710505 -1.6032933 5
6.4599285 -2.5772507 -1.6145275 6
6.0591426 -2.4173532 -1.6295294 6
4.5354953 -1.8094794 -1.6798704 7
1.6803168 -0.67037851 -0.84329349 6
6.0179315 -2.449748 1.7151213 22
5.1943603 -2.1144929 1.0837351 5
8.7764111 -3.5726554 1.3256547 23
9.1682339 -3.7321565 0.85941458 19
9.246068 -3.7638409 0.51356763 19
9.2159996 -3.751601 0.33582395 18
8.7519836 -4.3293033 0.27154565 33
13.795395 -4.479733 0.31800926 40
9.1793165 -3.7366681 0.15880448 16
8.780015 -4.3431692 0.099162325 7
13.798588 -4.4807696 0.061277211 43
9.1434336 -3.7220612 -0.016368387 17
13.843114 -4.4952283 -0.19561271 32
9.2417479 -3.7620823 -0.19298369 25
13.849069 -4.4971619 -0.45327163 39
9.1927032 -3.7421176 -0.36792955 24
8.7938652 -4.3500204 -0.42149314 7
10.187575 -3.3081775 -0.5229302 1
9.1482592 -3.7240255 -0.54098135 25
8.7929974 -4.3495908 -0.59484869 14
9.0649595 -2.9436343 -0.63421267 8
9.1121397 -3.709322 -0.71297801 27
9.232604 -4.567049 -0.80704391 1
8.6852169 -2.8203216 -0.76921439 15
9.1913729 -3.7415757 -0.89474958 25
9.2184792 -4.5600624 -0.98776537 2
8.6180458 -2.7985094 -0.92374194 0
9.1459732 -3.7230947 -1.0650667 27
9.1089449 -3.7080214 -1.2350941 22
9.0620117 -3.6889162 -1.4018897 22
8.9794235 -3.6552968 -1.5624193 7
8.1618347 -3.3224771 -1.5760354 4
7.4956927 -3.0513072 -1.591735 4
6.9298 -2.8209467 -1.6041318 5
6.4345613 -2.6193476 -1.6127185 9
6.042119 -2.4595942 -1.6295294 6
4.5227523 -1.8410983 -1.6798704 7
1.7226065 -0.70122963 -0.86695302 3
5.9935384 -2.488735 1.7130795 21
5.1250658 -2.1281135 1.0723513 5
8.7658901 -3.6399162 1.3278716 20
8.9763403 -3.7273028 0.84384549 18
9.0719948 -3.7670219 0.50534725 15
9.0419006 -3.7545259 0.33042705 18
13.80376 -6.9486051 0.42978048 35
13.794144 -4.5860267 0.31871068 41
9.001564 -3.7377763 0.15617695 13
10.482228 -5.2765961 0.11880043 1
13.820108 -4.5946593 0.061513737 39
8.9583759 -3.7198434 -0.016083201 18
10.193074 -5.1310406 -0.086043641 0
13.837961 -4.6005945 -0.195989 31
9.0564375 -3.7605619 -0.18965772 26
9.9079523 -4.987514 -0.28000516 0
13.85148 -4.6050892 -0.45439175 38
9.0223808 -3.7464206 -0.36215055 26
9.3915262 -4.7275534 -0.45171016 0
13.818956 -4.5942764 -0.71095884 40
8.9708033 -3.7250035 -0.5320124 24
9.0934238 -3.023217 -0.63766521 8
8.9386415 -3.7116487 -0.70141304 24
9.1078854 -4.5847726 -0.79892039 0
8.7144861 -2.8972347 -0.77357924 15
9.010499 -3.7414865 -0.87966353 25
9.0690565 -4.5652266 -0.97514588 0
8.6549416 -2.8774381 -0.92982715 1
8.9765158 -3.7273755 -1.0483379 28
8.9178934 -3.7030332 -1.212665 16
8.8861074 -3.6898346 -1.3786288 2
8.9536867 -3.717896 -1.5624193 10
8.1384411 -3.3793766 -1.5760354 4
7.4814577 -3.1065731 -1.5932789 4
6.8991008 -2.8647573 -1.6016163 5
6.4125199 -2.6627111 -1.611814 6
6.0498891 -2.5121338 -1.636315 7
4.5167756 -1.8755294 -1.6824727 7
1.7678933 -0.73409355 -0.89230251 1
5.9510884 -2.5199602 1.7059331 14
5.0775361 -2.1500585 1.065521 1
8.7439127 -3.7025683 1.3284258 22
8.7996473 -3.7261691 0.8296603 25
8.8946552 -3.7663996 0.49692139 16
8.8645372 -3.7536461 0.32489517 18
13.808295 -7.0721445 0.43144846 49
13.795864 -4.6938095 0.31949979 37
8.8242512 -3.7365873 0.15354945 15
10.480736 -5.3678803 0.11920534 0
13.814202 -4.7000489 0.061632 40
8.8290548 -3.7386212 -0.015897498 30
12.075906 -6.1848731 -0.10229935 0
13.835797 -4.707396 -0.19641903 30
8.8826571 -3.7613187 -0.18656379 26
10.061522 -5.1531734 -0.28535491 0
13.860628 -4.7158442 -0.45576078 38
8.8524532 -3.7485292 -0.35637155 28
9.3760786 -4.8021121 -0.45256859 0
13.820586 -4.7022209 -0.71271425 37
8.7974644 -3.7252445 -0.5232622 34
9.118763 -4.6703238 -0.62123799 1
9.230792 -3.1406207 -0.64881974 1
8.7986259 -3.7257361 -0.69245023 18
9.0259657 -4.6227961 -0.79454613 1
8.7431021 -2.9746926 -0.77794403 12
8.8190765 -3.7343962 -0.86349982 4
8.9979811 -4.6084638 -0.97093934 0
8.6384087 -2.9390724 -0.93023282 0
8.8074522 -3.7294738 -1.0316091 32
8.8041124 -3.7280595 -1.2007028 20
8.7981472 -3.7255335 -1.3689841 1
8.8475103 -3.7464364 -1.548418 22
8.1182766 -3.4376457 -1.5767397 4
7.4595876 -3.1587269 -1.5932789 4
6.8933392 -2.9189517 -1.6049703 4
6.4045386 -2.7119713 -1.6145275 6
6.0071888 -2.5437155 -1.6295294 6
4.5000887 -1.9055412 -1.6811715 6
3.3852339 -1.4334612 -1.7136265 8
5.9342442 -2.5593739 1.7059331 17
8.4927006 -3.6628077 1.7872522 21
8.7009764 -3.7526348 1.3256547 22
8.7601032 -3.7781358 0.8282764 33
8.7814455 -3.7873402 0.49198917 31
8.7660284 -3.7806911 0.32219672 36
13.800101 -7.1838789 0.43267164 63
13.805981 -4.7996473 0.32046425 34
8.7956018 -3.7934458 0.15348536 24
10.498121 -5.4649768 0.1198127 0
13.816731 -4.8033848 0.061784055 40
8.8077374 -3.7986796 -0.01590413 31
10.175499 -5.29703 -0.086496025 0
13.838274 -4.8108745 -0.19690283 26
8.7693796 -3.7821364 -0.18470743 51
10.009389 -5.2105589 -0.28485024 0
8.794363 -3.7929113 -0.35503793 50
9.3227549 -4.8531194 -0.45153847 0
13.82306 -4.8055854 -0.71446973 28
8.7872334 -3.7898366 -0.5241372 20
9.0769625 -4.7251682 -0.62051165 3
9.3417053 -3.2476428 -0.65811515 0
8.8103552 -3.7998085 -0.69534147 44
8.9455862 -4.6567779 -0.79017192 1
8.7871838 -3.0548635 -0.78365189 16
8.7867985 -3.789649 -0.86278147 2
8.8895197 -4.6275916 -0.96252632 0
8.7352457 -3.0368073 -0.94280905 0
8.793478 -3.7925298 -1.0328959 20
8.8119917 -3.8005145 -1.2051886 25
8.8168745 -3.8026204 -1.3757921 40
8.8224688 -3.805033 -1.548418 25
8.1025305 -3.4945316 -1.578148 4
7.4276614 -3.2034681 -1.590963 4
6.8846025 -2.9692528 -1.607486 4
6.3864107 -2.7543883 -1.6145275 4
6.0008764 -2.5881116 -1.6324375 7
4.4873514 -1.9353451 -1.6811715 6
3.3656652 -1.4515741 -1.7085565 8
5.9224038 -2.6059198 1.7079749 17
8.4728127 -3.7281263 1.78877 27
8.6079683 -3.7875962 1.3156792 21
8.7613544 -3.8550878 0.8310442 36
8.7607603 -3.854826 0.4924002 31
8.767354 -3.8577275 0.3232761 33
13.807131 -7.3166733 0.434562 46
13.793032 -4.9087658 0.32099032 32
8.7895241 -3.8674827 0.15386987 25
10.489588 -5.5586405 0.12017712 0
13.811296 -4.915266 0.061919212 37
8.8052845 -3.8744173 -0.015950557 33
10.207083 -5.408936 -0.087099209 0
8.7707052 -3.8592019 -0.18532622 48
9.9709253 -5.2837911 -0.28485024 0
8.7955942 -3.8701537 -0.35622337 50
9.2833977 -4.9194565 -0.45136678 0
8.7994308 -3.8718417 -0.5265435 46
9.0279703 -4.7841005 -0.61954325 47
12.792025 -4.5525203 -0.90351403 3
8.8114786 -3.8771429 -0.69765443 50
8.978158 -4.7577043 -0.79610837 10
8.8772097 -3.159287 -0.79372454 8
8.7843094 -3.8651881 -0.86529577 47
8.8412857 -4.685173 -0.96099669 8
8.7877312 -3.1274428 -0.95092273 15
8.8164043 -3.8793101 -1.0389011 54
8.8311214 -3.8857861 -1.2116681 44
8.8213816 -3.8815002 -1.3808982 36
8.8196421 -3.8807349 -1.552873 26
8.098321 -3.5633459 -1.5823734 4
7.4291277 -3.268894 -1.5963666 4
6.8519125 -3.0149133 -1.6049703 4
6.3803148 -2.8074052 -1.6181455 4
5.9746399 -2.6289041 -1.6304986 6
4.4730444 -1.9681864 -1.6811715 6
3.3682084 -1.482047 -1.7153164 8
5.9111252 -2.650367 1.7100167 17
8.4250774 -3.7775464 1.7842165 30
7.2113419 -3.2333443 1.105636 1
8.7633171 -3.9292026 0.83381206 35
8.7518606 -3.9240656 0.49342772 30
8.7730389 -3.9335613 0.32449043 36
13.812035 -7.4432335 0.43634117 74
13.788491 -5.0158749 0.32169175 54
8.7805557 -3.9369318 0.1541903 26
10.4963 -5.6564012 0.1207035 0
13.79544 -5.0184031 0.062003687 8
8.8035707 -3.9472508 -0.015996981 35
11.302883 -6.0910645 -0.096810408 0
12.602819 -4.5845604 -0.18023892 0
8.7727423 -3.9334285 -0.185945 48
9.954916 -5.3646522 -0.28545585 0
12.338609 -4.4884477 -0.40871611 0
8.7902451 -3.9412761 -0.35711247 51
9.2242022 -4.9708743 -0.45016497 0
12.656546 -4.6041045 -0.65751499 2
8.804985 -3.9478853 -0.5285123 48
8.976778 -4.8375387 -0.61833274 9
12.504882 -4.5489335 -0.88545436 3
8.8205996 -3.9548862 -0.70054567 49
8.9692984 -4.833508 -0.7982955 12
12.540749 -4.5619807 -1.1241074 1
8.7898273 -3.9410889 -0.86852854 49
8.808363 -4.7467809 -0.96099669 27
8.8853512 -3.2322474 -0.96390462 6
8.8145094 -3.9521554 -1.0419037 55
8.8218861 -3.9554629 -1.2141603 46
8.8301992 -3.9591901 -1.3865715 43
8.8175583 -3.9535224 -1.557328 24
8.0912104 -3.6278505 -1.5858945 4
7.4132881 -3.3238909 -1.5979105 4
6.8521099 -3.0722759 -1.6100017 4
6.3641152 -2.8534741 -1.61905 5
5.963223 -2.6737263 -1.6324375 6
4.4626465 -2.0009139 -1.6824727 6
3.3610876 -1.5070086 -1.7170064 9
5.8995137 -2.694783 1.7120585 17
8.2877588 -3.7856867 1.76069 31
7.1201305 -3.252337 1.0951061 7
8.7537975 -3.998564 0.83554196 47
8.7387867 -3.9917076 0.49424976 23
8.7708178 -4.0063386 0.32543486 38
13.798307 -7.5606136 0.43756434 58
13.801868 -5.1301274 0.32283157 56
8.7819614 -4.0114293 0.15470299 28
10.505665 -5.7564502 0.12127037 0
13.820059 -5.136889 0.062274002 1
8.8049068 -4.0219102 -0.016050041 34
11.175897 -6.1236959 -0.096086591 0
12.446789 -4.6264472 -0.17846502 1
8.7705326 -4.0062089 -0.18648644 51
9.9522896 -5.4532351 -0.28646526 0
12.130839 -4.5090089 -0.40286663 0
8.7843313 -4.0125117 -0.35800153 55
9.18577 -5.0332303 -0.44999328 0
12.331992 -4.5837774 -0.64230108 0
8.7990074 -4.0192151 -0.52982485 49
8.9077721 -4.8809047 -0.61591166 42
12.181015 -4.5276594 -0.86473888 1
8.8181763 -4.0279713 -0.70256954 49
8.8933706 -4.8730135 -0.79454613 5
12.187287 -4.5299907 -1.0952324 2
8.805584 -4.0222192 -0.87283885 51
8.7750101 -4.8081594 -0.96099669 14
12.111434 -4.5017962 -1.3172551 1
8.8156424 -4.026814 -1.0453353 57
8.8193274 -4.0284967 -1.2176492 47
8.8311567 -4.0339003 -1.3911103 42
8.8256636 -4.0313911 -1.5636922 24
8.0549421 -3.6793408 -1.5837818 4
7.3791919 -3.3706713 -1.5955946 4
6.8340526 -3.1216621 -1.6108402 5
6.3582163 -2.9043093 -1.622668 4
5.9550018 -2.720129 -1.6353456 7
4.4588904 -2.0367343 -1.6863765 7
3.3438895 -1.5274236 -1.7136265 10
5.8630242 -2.727746 1.706954 19
8.1364994 -3.78547 1.7341279 31
6.9859085 -3.2501628 1.0779258 2
8.7726393 -4.0814314 0.84003973 39
8.5984278 -4.0003805 0.48787898 17
8.7643833 -4.07759 0.32624441 37
13.79409 -7.684001 0.4391211 78
13.788149 -5.2348728 0.32335764 38
8.782753 -4.0861368 0.15521567 28
10.549082 -5.8763685 0.12224216 0
12.572257 -4.7732415 0.056800108 0
8.802002 -4.0950918 -0.016096465 32
10.224352 -5.6954775 -0.08824525 0
12.230965 -4.6436648 -0.17583105 0
8.7677336 -4.0791492 -0.18702789 51
9.962882 -5.5498252 -0.28787839 0
11.900964 -4.5183754 -0.39627042 0
8.785099 -4.0872283 -0.35918698 54
9.1643724 -5.1050153 -0.45068005 0
11.959797 -4.5407119 -0.62455148 0
8.8069477 -4.097393 -0.5320124 50
8.8909197 -4.9526887 -0.61712223 3
11.899112 -4.5176721 -0.84694481 0
8.8187799 -4.1028981 -0.7048825 51
8.8974543 -4.9563289 -0.79798305 22
12.024942 -4.5654454 -1.083481 3
8.7989626 -4.093678 -0.87499398 51
8.734272 -4.865428 -0.96023184 9
12.105752 -4.5961261 -1.3200949 2
8.8161621 -4.1016803 -1.0487669 56
8.826973 -4.10671 -1.2226335 47
8.8243198 -4.1054754 -1.3945143 44
8.8259487 -4.1062331 -1.5687835 19
8.0362005 -3.7388065 -1.5851902 4
7.376832 -3.4320383 -1.6002263 4
6.8298235 -3.1775451 -1.6150329 5
6.3342528 -2.9469829 -1.6217635 5
5.9393854 -2.7632725 -1.636315 6
4.4411335 -2.0662174 -1.6850752 7
3.336432 -1.5522602 -1.7153164 9
5.8238301 -2.7566433 1.7008286 21
8.0011711 -3.7872627 1.7106014 25
8.0705938 -3.820123 1.2491747 18
8.7633858 -4.1480484 0.84176958 36
8.596981 -4.0692825 0.48931754 17
8.7660532 -4.1493106 0.32732379 37
13.798506 -7.8068209 0.44090027 60
8.7952232 -4.1631184 0.15592061 25
10.614313 -6.005291 0.12345689 0
12.208351 -4.7279553 0.055296473 0
8.8108025 -4.1704922 -0.016162788 32
10.235091 -5.7907376 -0.088667475 0
12.009683 -4.6510167 -0.17308956 1
8.7694044 -4.150897 -0.18764667 52
9.9989424 -5.6571307 -0.28999811 0
11.661954 -4.5163512 -0.38930085 0
8.8011532 -4.165925 -0.36096513 50
9.1616173 -5.1833944 -0.45222524 0
11.750589 -4.5506768 -0.61518908 0
8.8048487 -4.1676741 -0.53354371 50
8.843976 -5.0036821 -0.61615378 2
11.682796 -4.5244231 -0.83366561 0
8.8202219 -4.1749511 -0.70719552 48
8.8470325 -5.0054111 -0.79642081 5
11.771385 -4.5587311 -1.0633357 0
8.7932234 -4.1621714 -0.87714916 51
8.7260685 -4.9369736 -0.96290874 4
9.4774303 -3.6703458 -1.0361164 3
8.8247108 -4.1770754 -1.0530562 56
8.8354149 -4.1821423 -1.2276177 44
8.8362646 -4.1825447 -1.400755 38
8.8092289 -4.1697478 -1.5706928 16
8.0254622 -3.7987607 -1.5880071 4
7.3645496 -3.4859252 -1.6025422 4
