# .PCD v0.7 - Point Cloud Data file format
VERSION 0.7
FIELDS x y z intensity
SIZE 4 4 4 4
TYPE F F F F
COUNT 1 1 1 1
WIDTH 1387
HEIGHT 1
VIEWPOINT 0 0 0 1 0 0 0
POINTS 1387
DATA ascii
8.8039074 -5.363389 -0.74709451 3
13.917579 -9.9346437 -1.3397616 25
9.0124788 -4.6297956 -0.85348886 0
8.651845 -5.2707515 -0.91342765 1
12.681011 -9.0519571 -1.4963709 5
8.9659042 -4.6058698 -1.027597 1
8.6130733 -5.2471318 -1.0878006 1
8.819211 -5.3727121 -1.2968986 0
9.3768597 -5.7124348 -1.5732254 2
8.451499 -5.1486998 -1.5948769 2
7.6769614 -4.6768475 -1.6077251 4
7.0656056 -4.3044062 -1.6272441 4
6.5432849 -3.9862053 -1.6427048 5
6.062778 -3.6934779 -1.6479939 4
5.663949 -3.4505091 -1.656672 6
4.2025175 -2.5601969 -1.6928825 6
3.1611869 -1.9258126 -1.7254562 9
3.0059257 -1.8601228 0.93310761 5
3.9374206 -2.4365492 0.89476442 4
8.8156357 -5.4552798 1.4503506 25
12.7617 -7.8971772 1.3029611 9
13.791483 -8.5344257 0.83436757 31
13.829059 -8.5576792 0.54886776 26
13.833144 -10.020887 0.47503808 35
11.522473 -6.0212426 0.28504223 1
13.841958 -8.5656614 0.26082897 24
13.837783 -10.024248 0.17297731 32
10.355254 -5.4112945 0.049349528 0
13.881132 -8.5899029 -0.027066205 29
13.88021 -10.054982 -0.12923133 30
10.10273 -5.2793345 -0.15320039 0
10.120701 -6.2628784 -0.23018816 1
13.905329 -10.073179 -0.43343264 29
9.8577976 -5.1513414 -0.34623879 1
9.4018402 -5.8180337 -0.40986434 0
13.877522 -10.053036 -0.73619658 37
9.1320333 -4.7720823 -0.50303507 0
8.7930689 -5.4413152 -0.56635696 1
13.903657 -10.071968 -1.0410457 40
9.0307646 -4.7191625 -0.67803389 2
8.7696438 -5.4268188 -0.74738365 2
13.931849 -10.09239 -1.3478853 29
8.8916216 -4.6464515 -0.84509504 1
8.6453276 -5.3498893 -0.91666037 1
12.711018 -9.2080069 -1.5074607 3
8.8912077 -4.646235 -1.0227288 3
8.6134329 -5.3301525 -1.092519 8
8.8827362 -5.4968023 -1.3118514 1
9.3704224 -5.7985921 -1.5788988 2
8.4119911 -5.2054968 -1.5942405 2
7.6642151 -4.7427588 -1.6119504 4
7.0287094 -4.3494964 -1.6257002 4
6.5219493 -4.0359039 -1.6443819 3
6.0202794 -3.725461 -1.6434715 4
5.6463227 -3.4940498 -1.6586107 6
4.1941915 -2.5954437 -1.6967862 7
3.138417 -1.9421108 -1.7203863 9
3.0059643 -1.889295 0.93719125 10
3.9269643 -2.4681578 0.89628226 4
8.8175831 -5.5419874 1.457001 25
12.621907 -7.933064 1.2943116 5
13.805973 -8.677268 0.83888882 35
13.826517 -8.6901798 0.55116147 28
13.827282 -10.164582 0.47726205 34
11.324781 -6.0189581 0.28118438 2
13.849545 -8.7046537 0.26211068 25
13.848031 -10.179836 0.17398958 32
10.37727 -5.5153694 0.049636737 0
13.881783 -8.7249155 -0.027185583 27
13.87413 -10.199022 -0.12983452 29
10.108009 -5.372261 -0.15384544 0
10.198627 -6.4099946 -0.2329727 2
13.915212 -10.229221 -0.43595612 32
9.8321857 -5.2256651 -0.34661216 0
9.4388313 -5.9324517 -0.41327247 0
13.884278 -10.206481 -0.74031705 40
9.073801 -4.8225942 -0.5016697 0
8.7954454 -5.5280738 -0.56898201 0
13.900558 -10.21845 -1.0461298 40
9.0434151 -4.8064451 -0.68148649 112
8.7011433 -5.4688034 -0.74478155 6
13.931737 -10.241369 -1.354759 26
8.8589668 -4.7084131 -0.84509504 1
8.6313782 -5.4249544 -0.91917473 1
12.70417 -9.3389711 -1.5143441 4
8.8690958 -4.7137966 -1.0239458 5
8.6029472 -5.4070854 -1.0959506 17
8.8811064 -5.581913 -1.3173339 0
9.3364172 -5.8680825 -1.5800334 2
8.3787889 -5.2661982 -1.5948769 2
7.6342506 -4.7982445 -1.6126547 4
7.0181108 -4.4109912 -1.6303319 3
6.4836802 -4.0750933 -1.6418662 3
6.0172162 -3.7819135 -1.6498029 4
5.6250772 -3.5354483 -1.6595801 6
4.179172 -2.6266744 -1.6980873 6
3.1217122 -1.9620444 -1.7186964 8
3.00315 -1.9154289 0.94025397 4
3.9369979 -2.5110433 0.90235364 6
8.8106928 -5.6195183 1.4619888 24
12.521978 -7.9866004 1.2894678 3
13.805374 -8.8051596 0.84238243 32
13.829247 -8.820385 0.55359012 27
13.833301 -10.311023 0.4798196 34
11.1509 -6.0217271 0.27785259 0
13.848833 -8.8328772 0.26320016 25
13.857181 -10.328822 0.17496137 33
10.379177 -5.60498 0.04982258 0
13.880943 -8.8533583 -0.027298333 26
13.889567 -10.352962 -0.13061866 31
10.117907 -5.4638882 -0.15454425 0
13.827789 -8.8194561 -0.31720486 40
13.924012 -10.378637 -0.43837866 30
9.8289719 -5.3078575 -0.34773228 0
9.4700508 -6.0400615 -0.41638422 0
13.893182 -10.355657 -0.74443758 37
9.0240383 -4.8731761 -0.50069445 0
8.8225698 -5.6270933 -0.57313836 0
13.912516 -10.370068 -1.0521824 35
8.923543 -4.8189063 -0.67484689 15
8.8799534 -5.663693 -0.7632854 4
13.943443 -10.393121 -1.3625702 30
8.8240366 -4.7651706 -0.84475929 1
8.6455898 -5.514215 -0.92456263 1
12.699418 -9.4658527 -1.5212275 5
8.8831558 -4.7970967 -1.0292197 44
8.6037807 -5.4875484 -1.100669 19
8.9275446 -5.6940475 -1.3297945 0
9.310647 -5.9383922 -1.5823028 2
8.3569946 -5.3301468 -1.5974226 3
7.6122189 -4.8551235 -1.6147673 4
6.9986281 -4.4637713 -1.6326476 4
6.4532127 -4.1159019 -1.6410277 3
5.9920015 -3.8217382 -1.6498029 4
5.6113214 -3.578938 -1.6624882 6
4.1680374 -2.658402 -1.7006898 7
3.1239142 -1.9924531 -1.7271461 8
3.2851045 -2.1276703 1.0331564 6
3.9259644 -2.5427375 0.90387148 5
8.8144712 -5.7088866 1.4691935 23
13.837268 -8.9620113 1.4313197 30
13.800567 -8.938242 0.8458761 34
13.837796 -8.9623537 0.55642349 27
13.837517 -10.465231 0.48248836 34
10.992912 -6.0359101 0.27495921 0
13.847256 -8.9684801 0.26435369 24
13.864488 -10.485629 0.17597364 32
10.728984 -5.8909941 0.051697895 0
13.882587 -8.9913645 -0.027424345 26
13.890326 -10.505171 -0.13131231 29
11.183881 -6.1407657 -0.17147693 0
13.836373 -8.9614325 -0.31882918 43
13.92138 -10.528656 -0.44059932 33
9.7881737 -5.3744206 -0.34760782 0
9.5786295 -6.2038107 -0.42305231 0
13.887484 -10.50302 -0.748043 38
9.0073099 -4.9456697 -0.5016697 0
8.813241 -5.7080898 -0.57510716 0
13.913022 -10.522335 -1.0577508 38
8.9736481 -4.927187 -0.68122089 168
8.8468943 -5.7298861 -0.76386368 2
13.937337 -10.540725 -1.3691314 26
8.7835684 -4.8228192 -0.84408772 1
8.6336336 -5.5917635 -0.92743617 0
12.687013 -9.5951109 -1.5277286 3
8.9261904 -4.9011292 -1.0381447 5
8.5953026 -5.5669374 -1.1045295 25
8.9675245 -5.8080149 -1.3417567 1
9.2822561 -6.0118575 -1.5845722 3
8.32621 -5.3926535 -1.5986954 3
7.5682235 -4.9017267 -1.6126547 4
6.9771781 -4.5189233 -1.6349635 4
6.4308867 -4.1651058 -1.6427048 3
5.9749861 -3.8698313 -1.6525164 4
5.589457 -3.6201351 -1.6634576 6
4.1493769 -2.6874356 -1.7006898 6
3.1068852 -2.0122428 -1.7254562 10
3.2313943 -2.1250515 1.0209055 7
3.9343686 -2.5873466 0.90994281 1
8.8207397 -5.8007555 1.4769523 24
13.837628 -9.0999956 1.4378933 28
13.797911 -9.0738764 0.84957528 31
13.838356 -9.1004753 0.55898702 27
13.833906 -10.61513 0.48493472 35
13.806855 -7.7069054 0.34668007 37
13.851142 -9.1088829 0.2656354 23
13.857585 -10.633299 0.17682396 34
10.530425 -5.8780212 0.050937634 0
13.886321 -9.1320181 -0.027556989 29
13.886461 -10.655457 -0.13197581 32
10.120958 -5.6494594 -0.15578061 0
13.843646 -9.1039534 -0.32045346 42
13.920503 -10.681578 -0.44292092 31
9.8132534 -5.4777002 -0.34984803 0
13.876807 -9.125761 -0.61568558 38
13.8804 -10.650805 -0.75164849 43
8.9551201 -4.9986954 -0.50069445 0
8.8299074 -5.8067842 -0.57882601 1
13.908911 -10.672683 -1.0630771 36
8.8623619 -4.946918 -0.67537802 13
8.8200111 -5.8002763 -0.76502019 1
13.945667 -10.700887 -1.377255 23
8.7531652 -4.8859653 -0.84442347 1
8.6443148 -5.6847339 -0.93282408 0
12.591287 -9.6616344 -1.5242869 3
8.7562437 -4.8876839 -1.022323 2
8.5961037 -5.6530285 -1.1096768 34
9.168829 -6.0296683 -1.3781416 1
9.2400599 -6.0765119 -1.5845722 2
8.3015585 -5.4593277 -1.6012411 3
7.5436897 -4.9609332 -1.6147673 4
6.9520197 -4.571835 -1.6365074 4
6.4081893 -4.2141972 -1.6443819 3
5.9673576 -3.9242947 -1.6579434 4
5.5575628 -3.6548026 -1.6615189 6
4.1305146 -2.7163374 -1.7006898 6
3.0897326 -2.0318911 -1.7237662 9
3.1875315 -2.128231 1.0117173 7
5.6963053 -3.8032734 1.3235532 20
8.809679 -5.8819914 1.4819402 22
13.840044 -9.240634 1.4448129 30
13.803994 -9.2165642 0.85389096 31
13.831007 -9.2346001 0.56128073 26
13.835184 -10.770399 0.48760346 35
13.811844 -7.836657 0.34817061 42
13.85041 -9.2475548 0.26685303 23
13.865073 -10.793667 0.17787671 33
10.558712 -5.9908733 0.051275529 0
13.882109 -9.2687197 -0.02767637 23
13.890641 -10.813571 -0.13272978 29
10.129972 -5.747612 -0.15653317 0
13.832968 -9.2359095 -0.32169104 38
13.924475 -10.839911 -0.44544441 34
9.8617058 -5.5954013 -0.35295945 0
13.875923 -9.2645893 -0.61850101 37
13.884541 -10.808823 -0.75594068 37
8.9512777 -5.0788364 -0.50244993 0
8.8456221 -5.9059896 -0.5825448 0
13.912826 -10.830842 -1.0691297 36
8.7928953 -4.9889722 -0.67272222 3
8.789257 -5.8683558 -0.76588756 0
13.949286 -10.859226 -1.3850662 25
8.7188416 -4.9469547 -0.84442347 1
8.673996 -5.791399 -0.9403671 0
12.532954 -9.7566404 -1.525434 2
8.7703629 -4.9761872 -1.0280026 2
8.6093483 -5.7482357 -1.1165398 35
9.1859245 -6.1332006 -1.3871133 1
9.2204647 -6.1562624 -1.5885435 2
8.2665272 -5.5193429 -1.6018776 3
7.5186963 -5.0200357 -1.6168799 4
6.9199328 -4.6202574 -1.6365074 3
6.3883705 -4.265347 -1.6468976 2
5.9365754 -3.9636955 -1.6570389 4
5.541595 -3.6999774 -1.664427 6
4.1051588 -2.740907 -1.6980873 6
3.0815024 -2.0574384 -1.7271461 9
3.1693945 -2.1482623 1.0106964 6
4.8471303 -3.2854567 1.1315469 6
8.8208666 -5.9789133 1.4908074 23
13.831271 -9.3750401 1.4506946 29
13.805446 -9.3575354 0.85800117 26
13.839001 -9.3802795 0.56424904 26
13.819279 -10.913806 0.48971623 37
13.808763 -7.9628568 0.34948578 46
13.868278 -9.4001236 0.26845518 22
13.867859 -10.952172 0.17888899 32
10.561677 -6.0904169 0.051495161 0
13.883283 -9.4102945 -0.027809016 24
13.899565 -10.977212 -0.13354407 29
10.113854 -5.8321791 -0.15690945 0
13.83767 -9.3793774 -0.32331535 38
13.933192 -11.003769 -0.44816974 30
9.8016214 -5.6521292 -0.35221273 0
13.870464 -9.4016056 -0.6211682 37
13.884014 -10.964931 -0.76006114 36
8.9467525 -5.1591668 -0.50420535 0
8.8736029 -6.0146589 -0.58713865 0
13.918344 -10.992043 -1.0754244 39
8.7682257 -5.0562186 -0.67351896 1
8.8108187 -5.9721031 -0.7713809 0
13.957635 -11.023073 -1.3935021 21
8.7324333 -5.0355792 -0.84912407 1
8.6762228 -5.8808718 -0.94503659 0
12.473911 -9.8512993 -1.5265813 4
8.749198 -5.0452466 -1.0296254 1
8.6381397 -5.8550587 -1.1255476 3
9.2282991 -6.2550778 -1.4000723 1
9.1870928 -6.2271476 -1.5902456 1
8.2441378 -5.5879984 -1.6050597 3
7.489985 -5.0768228 -1.6182884 4
6.8907571 -4.6706567 -1.6372793 4
6.3681493 -4.3164258 -1.6494131 3
5.902308 -4.0006714 -1.6552299 4
5.5027795 -3.7298651 -1.6605495 6
4.0921855 -2.7737439 -1.7006898 7
3.0730655 -2.0829692 -1.7305261 9
3.131264 -2.1560841 1.0035501 3
5.5119047 -3.7953138 1.2931964 19
8.8159552 -6.0703726 1.4974579 23
13.834387 -9.525897 1.4583062 31
13.795705 -9.4992628 0.86170036 30
13.825844 -9.5200148 0.56654274 28
13.832495 -11.089846 0.49305215 34
13.798317 -8.092185 0.35071328 48
13.858294 -9.5423594 0.26960874 25
13.852737 -11.106075 0.1797393 38
10.489147 -6.1514835 0.05136 1
13.889705 -9.5639877 -0.027961558 28
13.887382 -11.13385 -0.13420758 32
10.150185 -5.9526949 -0.15814582 0
13.83113 -9.5236549 -0.32478496 50
13.920792 -11.160636 -0.4503904 31
9.7357864 -5.7096658 -0.35134152 0
13.870313 -9.5506353 -0.62427998 38
13.874978 -11.123906 -0.76400995 41
8.9121408 -5.2266297 -0.50440043 0
8.9312525 -6.1497631 -0.59392011 0
13.912158 -11.153713 -1.0812349 41
8.7653542 -5.1405449 -0.67617482 3
8.9541016 -6.1654959 -0.78786093 8
13.951129 -11.184958 -1.4010007 24
8.6987257 -5.1014695 -0.84945983 1
8.6886616 -5.9827228 -0.95114291 0
12.435534 -9.9698696 -1.5307878 3
8.7325764 -5.1213222 -1.0320594 1
8.6408443 -5.9497976 -1.1315529 2
9.2181568 -6.3473153 -1.405555 2
9.1444607 -6.2965708 -1.5908129 1
8.2094593 -5.6527596 -1.6063325 3
7.4460826 -5.1271243 -1.6168799 4
6.8692651 -4.7299471 -1.640367 4
6.3331161 -4.3607726 -1.6485746 3
5.8760324 -4.0460401 -1.6561344 4
5.4944682 -3.7833078 -1.6663657 6
4.0717435 -2.8036668 -1.7006898 7
3.0607004 -2.1074963 -1.7322161 8
5.2146921 -3.6445897 1.6793896 17
5.4466453 -3.8067036 1.2840894 28
8.805831 -6.1544652 1.5029999 23
13.836138 -9.670187 1.4655718 30
13.810908 -9.6525536 0.86683804 31
13.844239 -9.675849 0.57005072 27
13.838492 -11.25426 0.4960545 37
13.803322 -8.2251663 0.35229149 57
13.86018 -9.6869898 0.27095452 24
13.852444 -11.265606 0.18075158 34
13.837442 -8.2454977 0.068035103 30
13.894725 -9.711134 -0.028107466 25
13.889997 -11.296146 -0.13499171 29
10.32484 -6.1523972 -0.16153234 0
13.839698 -9.6726751 -0.32656398 61
13.926299 -11.325669 -0.45311576 30
9.7849855 -5.8307071 -0.35457739 0
13.872102 -9.695322 -0.62739176 41
13.889994 -11.296144 -0.76916057 34
8.9028921 -5.3050828 -0.50596082 0
13.900139 -9.7149172 -0.92883414 30
13.908293 -11.311027 -1.0870454 37
8.7978249 -5.242475 -0.68148649 4
9.0056705 -6.2941346 -0.79624546 46
13.956236 -11.350017 -1.4094368 26
8.7039871 -5.1865587 -0.85348886 0
8.7119894 -6.0888786 -0.95832676 0
12.371806 -10.061467 -1.5315526 3
8.8880444 -5.2962351 -1.0547777 2
8.6773291 -6.0646544 -1.1418476 0
10.217851 -7.1413369 -1.565549 1
9.1035252 -6.3625259 -1.5913802 1
8.1859798 -5.7212462 -1.6095146 3
7.4101067 -5.1789827 -1.6168799 4
6.8232083 -4.7687945 -1.6372793 4
6.3185463 -4.4160824 -1.6527673 4
5.8636107 -4.098124 -1.6606569 4
5.4742832 -3.8260202 -1.6683046 6
4.055171 -2.8341911 -1.701991 6
3.0369978 -2.122582 -1.7271461 10
5.2017398 -3.6898556 1.6834731 21
5.3622789 -3.8037341 1.2704289 27
8.8240414 -6.2593365 1.5135298 26
13.8333 -9.8126545 1.4724914 29
13.808352 -9.7949581 0.87094826 29
13.848089 -9.8231459 0.57301903 28
13.833612 -11.411664 0.49872327 34
13.813984 -8.362751 0.35404506 40
13.863982 -9.8344193 0.27236441 26
13.86602 -11.438398 0.1819663 41
13.844555 -8.381258 0.068356104 40
13.895105 -9.8564968 -0.028246744 27
13.894107 -11.461567 -0.13580601 38
10.237157 -6.1974006 -0.16083354 1
13.840336 -9.817646 -0.3281883 37
13.883907 -11.453154 -0.45432705 37
9.8090248 -5.9382167 -0.35694209 0
13.879066 -9.8451195 -0.63079989 37
13.881698 -11.45133 -0.77310944 40
8.8929806 -5.3836589 -0.50752121 0
13.919937 -9.8741112 -0.93474054 37
13.896748 -11.463746 -1.0923717 50
8.8088121 -5.3327045 -0.68520463 4
13.930367 -9.8815098 -1.2377367 33
13.895116 -11.462399 -1.4113114 33
8.6641569 -5.2451329 -0.85315311 1
8.7732487 -6.2233067 -0.96982092 0
12.362693 -10.198269 -1.5392008 3
8.8508539 -5.3581562 -1.0547777 1
8.8423786 -6.2723436 -1.1693 0
10.16451 -7.2101979 -1.5650506 2
9.0750341 -6.4373779 -1.5942169 1
8.1555033 -5.7851081 -1.611424 2
7.4155221 -5.2602024 -1.6260347 4
6.7801476 -4.8094993 -1.6349635 4
6.2939434 -4.4646106 -1.6544443 4
5.8380365 -4.1412129 -1.6615614 4
5.4474406 -3.8641434 -1.6683046 6
4.0414567 -2.8668084 -1.7045934 7
3.0221059 -2.1437316 -1.7271461 9
5.1884079 -3.7351191 1.6875567 22
5.2877827 -3.8066587 1.2590451 28
8.8251381 -6.3531895 1.5212886 23
13.842075 -9.9648676 1.4807949 30
13.807715 -9.9401321 0.87526393 31
13.844062 -9.9662971 0.57571751 28
13.796538 -11.543884 0.50028002 41
13.816581 -8.4966936 0.35562328 43
13.859905 -9.9777031 0.27364612 26
13.810368 -11.555456 0.18229023 41
13.840219 -8.5112314 0.068626426 40
13.894127 -10.002339 -0.028386021 31
13.835225 -11.576255 -0.13601711 38
13.859536 -8.5231104 -0.21867341 30
13.839618 -9.9630985 -0.32981262 38
13.874146 -11.608821 -0.45664865 34
9.8320351 -6.0463438 -0.35930675 0
13.88461 -9.9954882 -0.63420802 40
13.822867 -11.565915 -0.77431124 54
8.8994198 -5.4728193 -0.51005685 0
13.905767 -10.010719 -0.93845934 37
13.868433 -11.60404 -1.0964874 51
8.7543688 -5.3836184 -0.68387669 3
13.938748 -10.034462 -1.2446756 30
13.885098 -11.617984 -1.4184977 31
8.6612797 -5.3263721 -0.8565107 1
12.745199 -9.1752291 -1.4159386 48
12.285087 -10.279218 -1.5384359 3
8.8471279 -5.4406614 -1.0588346 1
11.467579 -8.255475 -1.5240362 4
10.123589 -7.2879405 -1.5665458 2
9.0202303 -6.4936361 -1.5925149 1
8.1213255 -5.8465176 -1.6126968 3
7.3658357 -5.3026423 -1.6232179 4
6.7750726 -4.8773541 -1.6419109 4
6.2657957 -4.5107269 -1.655283 5
5.8153076 -4.1864219 -1.6633704 4
5.4203305 -3.9020793 -1.6683046 6
4.0213442 -2.8949533 -1.7045934 7
3.0100083 -2.1668959 -1.7288362 11
5.1603985 -3.767168 1.6865358 22
5.2211833 -3.811542 1.2491792 28
8.8372002 -6.4512882 1.5307101 24
13.843273 -10.105796 1.4880605 30
13.812469 -10.083308 0.87978512 32
13.855152 -10.114468 0.57895565 28
13.780665 -11.686852 0.50250399 38
13.814205 -8.6220169 0.35702613 46
13.874184 -10.128362 0.27524826 25
13.80359 -11.706293 0.18322152 46
13.847941 -8.6430731 0.06894742 37
13.911483 -10.15559 -0.028558459 27
13.840512 -11.737606 -0.1368314 40
13.863779 -8.6529579 -0.21964099 30
13.844298 -10.106545 -0.33151427 41
13.879193 -11.770411 -0.45937398 38
9.9579105 -6.2151442 -0.36540514 1
13.882583 -10.134493 -0.63717163 42
13.822055 -11.721953 -0.77860343 47
8.8798752 -5.5422974 -0.51103216 0
13.929393 -10.168665 -0.94458449 35
13.864251 -11.757738 -1.1022979 52
8.7116995 -5.4373322 -0.68334556 3
13.929893 -10.169029 -1.2498798 32
13.886816 -11.776875 -1.4266212 32
8.6629591 -5.4069109 -0.86020398 0
12.732332 -9.2947931 -1.4213264 237
12.225755 -10.368193 -1.5395832 3
8.8749914 -5.5392489 -1.0665426 1
11.46718 -8.371213 -1.5313282 3
10.078237 -7.3572636 -1.5670443 1
8.9897566 -6.5626569 -1.5947843 2
8.0823717 -5.9002523 -1.6126968 2
7.3400464 -5.3583436 -1.6253306 4
6.7520857 -4.9291234 -1.6442267 4
6.2231059 -4.5429602 -1.6519288 5
5.7842674 -4.2226019 -1.6624658 4
5.4037356 -3.9448078 -1.6712127 6
4.0203857 -2.9349415 -1.7124008 7
3.0014274 -2.1910868 -1.7322161 9
5.124649 -3.796196 1.6834731 21
5.1313305 -3.8011451 1.2340008 29
8.8269615 -6.538765 1.5368063 22
13.836426 -10.249635 1.4949801 26
13.799516 -10.222293 0.8834843 31
13.845238 -10.256162 0.58151919 34
13.786649 -11.85839 0.50572872 41
13.814473 -8.7567873 0.35860434 53
13.864198 -10.270207 0.27646589 23
13.812499 -11.880625 0.18443625 40
13.841318 -8.7738047 0.069217741 38
13.910955 -10.304844 -0.028704369 25
13.831009 -11.896544 -0.13755523 37
13.870596 -8.7923632 -0.22071607 27
13.847316 -10.257702 -0.33329329 39
13.869439 -11.929601 -0.46179652 38
13.902275 -8.8124447 -0.51238865 32
13.891791 -10.290648 -0.64087611 40
13.824716 -11.891132 -0.78341067 49
8.8848333 -5.6319628 -0.51356781 0
13.909413 -10.303702 -0.94808459 35
13.857503 -11.919333 -1.1083505 47
8.6937542 -5.5108404 -0.68493903 2
13.938704 -10.325399 -1.257108 31
13.885887 -11.943748 -1.4350572 28
8.6620321 -5.4907327 -0.86389726 0
12.740759 -9.4379959 -1.4295878 111
12.180241 -10.476661 -1.5430249 4
8.8428249 -5.6053343 -1.067354 1
11.421242 -8.4605341 -1.533044 2
10.045761 -7.4416175 -1.5700349 2
8.9723577 -6.6464696 -1.5998902 3
8.0631952 -5.9729881 -1.6171517 2
7.2961311 -5.4047685 -1.6239221 4
6.7269711 -4.9831505 -1.6465425 3
6.2132373 -4.6025915 -1.6577985 4
5.7546473 -4.2628803 -1.6624658 4
5.3698268 -3.9778166 -1.669274 6
3.9815617 -2.9494288 -1.7045934 6
2.9947972 -2.2184615 -1.737286 9
5.0812316 -3.8220341 1.6783687 22
5.0719442 -3.8150485 1.2264117 29
8.8231153 -6.6366291 1.5445652 22
13.850094 -10.417855 1.5046675 30
13.807218 -10.385604 0.88882756 29
13.839973 -10.410242 0.5844875 33
13.771645 -12.02224 0.50839752 40
13.82051 -8.9032965 0.36044559 40
13.85886 -10.424449 0.27787578 24
13.803382 -12.049946 0.18548901 36
13.860697 -8.9291859 0.069640107 40
13.905374 -10.459435 -0.028850278 25
13.839856 -12.081786 -0.13852032 39
13.866295 -8.9327917 -0.22168365 26
13.845263 -10.414222 -0.33507228 36
13.917177 -12.149285 -0.46633878 28
13.891082 -8.94876 -0.51437992 30
13.87668 -10.437853 -0.64369148 37
13.812442 -12.057855 -0.78770286 42
8.8836145 -5.7229047 -0.51590842 0
13.916501 -10.467805 -0.95377225 36
13.887063 -12.122996 -1.1177926 42
8.7940435 -5.6652021 -0.69609356 2
13.939162 -10.484851 -1.2640469 31
13.960187 -12.186831 -1.4519292 26
8.6584091 -5.5778251 -0.86759061 0
12.718991 -9.5670547 -1.4349757 77
12.103116 -10.565663 -1.5430249 3
8.8985119 -5.7325015 -1.0791188 3
11.384344 -8.5631514 -1.5364755 2
10.009974 -7.5293689 -1.5730253 2
8.9202328 -6.7096796 -1.5993229 3
8.0255089 -6.0366797 -1.6184245 2
7.2783451 -5.4746733 -1.6288517 4
6.6965361 -5.0370445 -1.6480864 2
6.1762075 -4.6456604 -1.65696 5
5.7388144 -4.316659 -1.6669884 4
5.3405252 -4.0170712 -1.669274 5
3.9719262 -2.9876294 -1.7097983 6
2.9726605 -2.2359953 -1.733906 8
5.0083075 -3.8222189 1.6630551 22
5.0077224 -3.8217723 1.2173046 26
8.8269539 -6.7365174 1.5534325 22
13.84672 -10.567481 1.512279 30
13.813765 -10.542331 0.8939653 31
13.846408 -10.567243 0.58786058 33
13.81611 -12.232063 0.513179 36
13.804871 -9.0302143 0.36167309 39
13.87159 -10.586461 0.2796061 21
13.850691 -12.262679 0.18727061 39
13.841537 -9.0542002 0.069859736 36
13.89243 -10.602365 -0.028976291 29
13.883949 -12.292125 -0.13981715 31
13.873883 -9.0753574 -0.2228125 25
13.838984 -10.561578 -0.33669659 36
13.93082 -12.333622 -0.46966979 30
13.908567 -9.0980463 -0.51736689 32
13.870202 -10.585402 -0.64680326 37
13.874541 -12.283795 -0.79611558 42
8.90697 -5.8263388 -0.51961434 0
13.916107 -10.620436 -0.95880359 35
13.915689 -12.320225 -1.1269925 37
8.8043795 -5.7592311 -0.7000773 2
13.925883 -10.627896 -1.2695403 29
13.967324 -12.365941 -1.461615 21
8.6859694 -5.6817751 -0.87430567 0
12.731065 -9.7160397 -1.4439557 60
12.049927 -10.668377 -1.5457017 3
8.8416243 -5.7835937 -1.0770904 1
11.35906 -8.6689596 -1.541194 1
9.9666309 -7.6062913 -1.5745206 2
8.8763208 -6.7741928 -1.5998902 2
7.9737511 -6.0853734 -1.6165153 2
7.2305565 -5.5181851 -1.626739 4
6.6643276 -5.0860534 -1.6488583 2
6.1591697 -4.7005291 -1.6611527 5
5.705441 -4.3542542 -1.6660838 4
5.3308601 -4.0683832 -1.6750902 6
3.9599922 -3.0221701 -1.713702 7
2.9627421 -2.2610929 -1.737286 8
4.9478636 -3.8310454 1.6518251 21
4.9374447 -3.8229783 1.2066798 15
8.8235607 -6.8319311 1.5611913 23
13.841927 -10.717566 1.5198907 29
13.793526 -10.680089 0.89745891 28
13.835516 -10.712602 0.59055907 34
13.819634 -12.408357 0.51651496 33
13.81811 -9.1772556 0.36368966 40
13.866915 -10.736913 0.28101599 25
13.851054 -12.436567 0.18844485 40
13.844632 -9.1948709 0.070197634 35
13.893978 -10.757868 -0.029135466 24
13.884109 -12.466247 -0.14069176 31
13.870158 -9.2118244 -0.22378008 25
13.853454 -10.72649 -0.33886233 38
13.921737 -12.500032 -0.47229421 31
13.888009 -9.2236795 -0.51898485 30
13.88446 -10.750498 -0.65095228 37
13.883603 -12.465792 -0.80160958 34
8.8993587 -5.9104824 -0.52156484 0
13.9111 -10.771125 -0.96361619 37
13.915495 -12.494428 -1.1340135 37
8.8071795 -5.8492618 -0.70352983 1
13.945981 -10.798133 -1.278214 33
13.957804 -12.532415 -1.4697386 22
8.6826162 -5.7665334 -0.87799901 0
12.738523 -9.8632183 -1.4525763 20
11.963305 -10.741598 -1.5441722 2
8.7645683 -5.820962 -1.0726279 1
11.313986 -8.7602243 -1.5433387 1
9.9352522 -7.6926947 -1.5780096 2
8.8601198 -6.8602376 -1.6055636 2
7.9529305 -6.1578169 -1.6209702 2
7.216763 -5.5878153 -1.6323727 3
6.6131415 -5.1204414 -1.6449987 2
6.1169262 -4.7362304 -1.6586372 5
5.653338 -4.3772821 -1.6597524 4
5.3084645 -4.1102524 -1.677029 6
3.9417875 -3.052058 -1.7150031 6
2.9411511 -2.2772825 -1.733906 9
4.8767123 -3.8279567 1.6365116 21
4.1612821 -3.2663825 1.0222627 4
8.8310289 -6.9318824 1.5706128 22
13.861444 -10.880488 1.529924 29
13.822942 -10.850265 0.90403521 28
13.858502 -10.878179 0.59460676 34
13.819842 -12.575088 0.51962852 34
13.810006 -9.3044491 0.36509252 38
13.880343 -10.895322 0.28274632 24
13.862936 -12.6143 0.18974057 41
13.856327 -9.3356571 0.070569314 33
13.913569 -10.921403 -0.0293278 30
13.901711 -12.649583 -0.14171717 33
13.878419 -9.3505411 -0.22490893 26
13.848071 -10.86999 -0.34048665 36
13.936128 -12.6809 -0.47562519 29
13.889529 -9.3580265 -0.52134949 33
13.888317 -10.901582 -0.65450859 38
13.889296 -12.638286 -0.80676019 33
8.9394855 -6.0229506 -0.52624607 0
13.921043 -10.927269 -0.96930385 36
13.915009 -12.661683 -1.1407924 36
8.7648821 -5.9053121 -0.7032643 1
13.943098 -10.944581 -1.2845746 30
13.968761 -12.710594 -1.4797368 19
8.7235155 -5.8774414 -0.88605708 0
13.092747 -10.277102 -1.5007081 3
11.921251 -10.847504 -1.5479963 1
8.7488718 -5.8945246 -1.0754676 1
11.274405 -8.849802 -1.5459123 2
9.9152327 -7.7829242 -1.5829939 2
8.8113108 -6.9164047 -1.6049963 1
7.9243402 -6.2201805 -1.623516 2
7.1795444 -5.6355557 -1.6323727 4
6.5913844 -5.173882 -1.6480864 3
6.0915332 -4.7815256 -1.6603142 5
5.6456366 -4.4315209 -1.6660838 4
5.2902455 -4.1525578 -1.6799371 6
3.9095576 -3.0687923 -1.7097983 6
2.9402421 -2.3079317 -1.7423559 9
4.8014622 -3.8233612 1.620177 21
4.1045823 -3.2684422 1.0139146 4
8.8258076 -7.0279107 1.5783716 30
12.416611 -9.8872356 1.3780388 1
13.815607 -11.001245 0.90855646 31
13.863535 -11.039408 0.59811479 34
13.834562 -12.766169 0.52352041 32
13.827234 -9.4570742 0.36728448 39
13.875906 -11.049259 0.28422028 25
13.848021 -12.778587 0.19075283 42
13.850244 -9.4728107 0.070873424 37
13.905829 -11.073087 -0.029473709 26
13.913006 -12.838554 -0.14274257 31
13.868924 -9.4855881 -0.22582275 25
13.846933 -11.026189 -0.342343 39
13.93542 -12.859238 -0.47865337 28
13.899761 -9.5066786 -0.524212 31
13.890049 -11.060521 -0.65821308 40
13.885895 -12.813537 -0.81173915 34
8.9631739 -6.1303225 -0.53014708 0
13.919406 -11.083898 -0.97455394 36
13.914302 -12.839749 -1.1480556 38
8.7926235 -6.0136752 -0.7088415 0
13.944377 -11.103783 -1.2918028 31
13.970535 -12.891641 -1.4894226 22
8.7250404 -5.967452 -0.89042193 0
13.011333 -10.360808 -1.4996306 5
11.900827 -10.98177 -1.5552621 1
8.7403536 -5.9779253 -1.0795245 0
11.246572 -8.9555445 -1.5506307 2
9.8917055 -7.8766761 -1.5879781 2
8.7813969 -6.9925475 -1.6084003 1
7.8869023 -6.2802696 -1.6247888 2
7.152348 -5.6953506 -1.6351895 4
6.5612454 -5.2246609 -1.6496303 2
6.0580044 -4.8239346 -1.6603142 4
5.6237063 -4.478107 -1.6687974 4
5.2611275 -4.1893883 -1.6799371 6
3.9057925 -3.1101475 -1.7176056 6
2.8956974 -2.3058176 -1.7254562 9
4.7415586 -3.830056 1.608947 21
4.0327821 -3.2575324 1.0017719 3
8.8381605 -7.1391397 1.5894557 26
13.847681 -11.185645 1.5454931 25
13.819264 -11.16269 0.91389966 30
13.845215 -11.183653 0.60067832 35
13.838526 -12.949866 0.52707875 35
13.826574 -9.5989876 0.36903805 40
13.87621 -11.20869 0.28582242 24
13.866529 -12.976071 0.192251 41
13.852774 -9.617177 0.071228214 36
13.918424 -11.242787 -0.029666046 27
13.904814 -13.011897 -0.14358702 32
13.877931 -9.6346416 -0.22705911 26
13.850508 -11.187928 -0.34435406 37
13.935818 -13.040911 -0.48178247 28
13.898737 -9.649086 -0.52670115 31
13.887122 -11.217504 -0.66176939 37
13.886559 -12.994815 -0.81706142 34
9.0218964 -6.2633791 -0.53619367 0
13.916254 -11.241035 -0.9798041 34
13.917614 -13.023875 -1.1558028 36
8.881568 -6.165957 -0.71946484 1
13.953418 -11.271055 -1.2998983 30
13.97337 -13.076051 -1.4994208 19
8.7355547 -6.0645881 -0.89579397 0
13.016162 -10.513974 -1.5086104 2
11.820965 -11.061865 -1.5548797 1
8.8553114 -6.1477289 -1.0989972 1
11.202338 -9.0488348 -1.5532044 2
9.8519115 -7.9580102 -1.5904702 2
8.7477674 -7.066123 -1.611237 1
7.8397937 -6.3326955 -1.6241524 2
7.1154752 -5.7476182 -1.6358938 4
6.5368233 -5.2802043 -1.6527181 2
6.0272217 -4.868567 -1.6611527 3
5.5801826 -4.5074649 -1.6651794 4
5.2377896 -4.2308927 -1.6818759 7
3.8898692 -3.1420927 -1.720208 7
2.9049115 -2.3464801 -1.7406659 8
4.6714854 -3.8303792 1.5946544 20
4.6678166 -3.8273709 1.1664572 17
8.8223515 -7.2338762 1.5961061 23
13.839271 -11.347494 1.5537966 29
13.817382 -11.329546 0.91924292 27
13.858696 -11.363421 0.6048609 31
13.83891 -13.141816 0.53074831 31
13.827738 -9.7507849 0.37096697 39
13.877176 -11.378574 0.28755274 20
13.852253 -13.154487 0.19338475 37
13.85709 -9.7714825 0.071616791 42
13.909871 -11.405382 -0.02982522 25
13.916378 -13.215382 -0.14470291 32
13.872305 -9.7822113 -0.2281342 26
13.836161 -11.344943 -0.34605572 36
13.932639 -13.230824 -0.48501253 30
13.909318 -9.8083115 -0.52981257 30
13.887978 -11.387431 -0.66577023 39
13.883664 -13.184316 -0.82255542 45
13.85379 -9.7691555 -0.82759899 32
13.923047 -11.416185 -0.986148 37
13.902841 -13.202526 -1.1625817 17
8.9274597 -6.2952981 -0.72690117 0
13.938292 -11.428686 -1.3062589 35
13.961003 -13.257759 -1.5084816 19
8.8048744 -6.2088561 -0.90754539 0
12.957224 -10.624261 -1.5107656 5
11.814631 -11.219503 -1.5648223 1
8.8295212 -6.2262359 -1.1014314 0
11.12033 -9.1181011 -1.5510596 2
9.759553 -8.0023336 -1.5849875 2
8.6987953 -7.1325674 -1.6118044 2
7.814538 -6.4075212 -1.6286074 2
7.0853319 -5.8096094 -1.6387106 4
6.5100818 -5.337934 -1.6558058 2
5.9943957 -4.9150977 -1.6619912 3
5.550004 -4.5507193 -1.6660838 4
5.2126365 -4.2740951 -1.6838146 6
3.8696568 -3.1729205 -1.7215092 6
2.8736155 -2.3562176 -1.7322161 8
4.6089482 -3.8332224 1.5824035 21
4.6198463 -3.8422861 1.1611447 20
8.8173189 -7.3332877 1.6044191 22
13.78116 -11.461671 1.5562185 27
13.802447 -11.479376 0.92355859 30
13.831278 -11.503353 0.60715461 32
13.83611 -13.324091 0.53419542 30
13.811363 -9.8843174 0.37236983 41
13.822002 -11.495639 0.28806543 28
13.86956 -13.356302 0.1949234 39
13.869856 -9.926178 0.072039157 42
13.85451 -11.522676 -0.029878277 32
13.90157 -13.387128 -0.1455172 32
13.881737 -9.9346809 -0.22942431 27
13.82734 -11.500079 -0.34783474 42
13.934981 -13.419303 -0.48834351 30
13.902279 -9.9493828 -0.53217727 32
13.829653 -11.502002 -0.66680747 49
13.843734 -9.9074841 -0.83110988 48
13.864503 -11.530987 -0.98767924 41
12.976304 -12.496102 -1.0923717 0
13.881568 -9.9345598 -1.1358993 33
13.907243 -11.566533 -1.3108848 35
13.977261 -13.460017 -1.5203545 18
13.944202 -9.9793854 -1.4444175 19
12.726526 -10.584541 -1.4924467 3
11.750355 -11.315521 -1.5667343 2
12.216039 -8.7425985 -1.5314562 15
11.068633 -9.2056856 -1.5527754 2
9.7156534 -8.0804253 -1.5869812 2
8.6609669 -7.2032504 -1.6140738 2
7.7787232 -6.4694967 -1.6305166 2
7.0355182 -5.8513794 -1.636598 3
6.4575701 -5.3707047 -1.6519461 3
5.9599357 -4.9568267 -1.6619912 3
5.5240903 -4.5943379 -1.6678928 4
5.1916218 -4.3178267 -1.6867228 6
3.8474114 -3.1998587 -1.7215092 6
2.8654583 -2.3831766 -1.737286 8
4.5554695 -3.8428619 1.5732154 21
4.553885 -3.8415251 1.1512787 27
8.8143559 -7.4355345 1.6132864 23
13.606381 -11.477948 1.5454931 24
13.761663 -11.60894 0.92623025 33
13.805634 -11.646032 0.60958326 37
13.834294 -13.509753 0.53775376 30
13.819677 -10.036898 0.37447411 39
13.827007 -11.664062 0.28985983 28
13.86469 -13.539435 0.19617863 42
13.848766 -10.058024 0.072292581 43
13.850165 -11.683598 -0.030044083 31
13.90507 -13.578869 -0.14654261 33
13.876766 -10.07836 -0.2304994 24
13.792571 -11.635013 -0.34899494 42
13.932507 -13.605662 -0.49157357 17
13.906883 -10.100233 -0.53503978 32
13.828456 -11.665284 -0.67066014 48
12.814748 -12.514124 -0.76950395 0
13.84858 -10.057889 -0.83559608 42
13.86609 -11.697031 -0.99358565 39
12.768774 -12.469229 -1.0822033 2
13.886147 -10.085174 -1.1420077 35
13.887142 -11.71479 -1.3166673 34
12.827321 -12.526402 -1.4047501 4
13.94192 -10.125679 -1.4514683 23
12.710179 -10.721938 -1.4992713 4
11.662526 -11.388933 -1.5655872 2
12.077432 -8.7715464 -1.5217198 2
11.025374 -9.3006859 -1.555778 1
9.6893406 -8.1736469 -1.5919654 2
8.6074409 -7.2609868 -1.6135063 2
7.7394056 -6.5287375 -1.6317894 1
7.0185742 -5.9206653 -1.6422317 2
6.4259181 -5.4207177 -1.6534899 3
5.9461122 -5.0159674 -1.6678611 3
5.4948592 -4.6353035 -1.6687974 4
5.1583848 -4.3514638 -1.6857535 7
3.8220873 -3.2242019 -1.720208 7
2.8542929 -2.4077985 -1.7406659 9
4.4873896 -3.8393698 1.5589226 20
4.5000987 -3.8502433 1.1444485 26
8.8103943 -7.5380931 1.6221536 23
13.429027 -11.489753 1.5344218 25
13.765276 -11.777445 0.93198448 34
13.793861 -11.801902 0.61268646 32
13.827717 -13.693225 0.54120094 31
13.820092 -10.185328 0.37640303 38
13.818177 -11.822707 0.29139787 30
13.863617 -13.728775 0.19751482 39
13.86837 -10.220909 0.072765633 41
13.853366 -11.852814 -0.030229786 31
13.91225 -13.776935 -0.14762834 33
13.88656 -10.234315 -0.23184326 28
13.793057 -11.801214 -0.35108337 42
13.906837 -10.249259 -0.53777778 29
13.831727 -11.834299 -0.67480916 47
12.599288 -12.476745 -0.761778 0
13.855211 -10.211211 -0.84027725 36
13.863001 -11.861057 -0.9992733 40
12.58779 -12.465358 -1.0742139 2
13.886085 -10.233964 -1.1478505 41
13.889902 -11.884074 -1.3247628 37
12.552545 -12.430455 -1.3841288 2
13.931853 -10.267695 -1.4578476 19
12.704642 -10.869976 -1.5075327 3
11.594049 -11.481282 -1.5671167 1
12.112001 -8.9264755 -1.5338902 7
11.011548 -9.42138 -1.5630701 1
9.6229973 -8.2333488 -1.5904702 2
8.586628 -7.3466406 -1.6191797 1
7.702641 -6.5903091 -1.6336987 2
6.9651027 -5.9592781 -1.6394149 3
6.3879189 -5.465445 -1.6534899 4
5.9228377 -5.0675259 -1.6712153 4
5.4623661 -4.6735506 -1.6687974 4
5.133779 -4.3924146 -1.6876922 7
3.810982 -3.2606413 -1.7254128 7
2.8484335 -2.4370937 -1.7474258 9
4.4225025 -3.837652 1.545651 21
4.449379 -3.8609743 1.1383772 25
8.7784967 -7.6175919 1.6260331 24
7.5395613 -6.5424976 0.86668015 9
13.752112 -11.933475 0.93671119 33
13.789637 -11.966037 0.61619449 31
13.838996 -13.89709 0.54542643 32
13.815903 -10.331857 0.37824428 35
13.819883 -11.992284 0.29319227 27
13.869038 -13.927258 0.19897249 40
13.857539 -10.362993 0.073086634 44
13.860912 -12.027887 -0.030428754 33
13.91169 -13.970089 -0.14865375 33
13.878834 -10.378918 -0.23291835 25
13.791888 -11.967991 -0.35317177 47
12.556109 -12.608818 -0.44917914 0
13.918192 -10.408351 -0.54101366 29
13.827265 -11.998689 -0.67866182 45
12.42728 -12.479448 -0.75662738 0
13.853977 -10.36033 -0.84456837 51
13.870354 -12.03608 -1.0058359 42
12.421573 -12.473717 -1.067435 7
13.887814 -10.385633 -1.1539589 39
13.909047 -12.069655 -1.3345931 30
12.400738 -12.452795 -1.3769425 1
13.923673 -10.41245 -1.4645628 19
12.682606 -11.005404 -1.5139983 3
11.530468 -11.578872 -1.5694112 2
11.979278 -8.9583855 -1.5249653 2
10.951512 -9.5032387 -1.5639279 1
9.5832682 -8.3159361 -1.5934608 1
8.5441008 -7.4141932 -1.6208818 3
7.6683745 -6.6542764 -1.6362444 2
6.9530683 -6.0335655 -1.646457 3
6.3614635 -5.5201969 -1.6565777 4
5.8814068 -5.1036248 -1.6695381 4
5.4443192 -4.7243395 -1.6733198 4
5.0912642 -4.417974 -1.6838146 6
3.7852685 -3.2846887 -1.7241117 6
2.8231351 -2.4497919 -1.7423559 8
4.3549566 -3.8326619 1.5313582 20
4.3987303 -3.8711858 1.1323059 24
8.6923904 -7.6499028 1.6199368 24
13.042931 -11.478678 1.5084733 5
13.749433 -12.100449 0.94225997 26
13.825803 -12.16766 0.62159139 32
13.834093 -14.087506 0.54909599 48
13.832641 -10.495739 0.38069928 38
13.855919 -12.194163 0.29575571 21
13.872362 -14.126477 0.20043017 41
13.867707 -10.522346 0.073525898 41
13.908726 -12.240638 -0.030720573 23
13.909112 -14.163899 -0.14967914 33
13.872951 -10.526324 -0.23404719 28
13.80407 -12.148533 -0.35564691 42
12.375323 -12.602015 -0.44584814 1
13.908892 -10.553596 -0.54350281 32
13.884194 -12.219048 -0.68562627 39
12.253056 -12.477508 -0.7513051 0
13.864065 -10.519582 -0.84963971 42
13.914914 -12.246083 -1.0152425 32
12.295025 -12.520247 -1.0640455 1
13.888102 -10.53782 -1.1600673 43
13.953225 -12.2798 -1.3470253 28
12.226886 -12.450859 -1.3672568 1
13.936377 -10.57445 -1.4736282 16
12.674249 -11.154213 -1.5222597 3
11.482833 -11.693176 -1.5740001 2
11.910108 -9.0369854 -1.5241538 3
10.887886 -9.5820904 -1.5643569 1
9.539875 -8.3957481 -1.5959529 1
8.4951038 -7.4762774 -1.6214491 2
7.6217322 -6.7076497 -1.6362444 2
6.9048653 -6.0767574 -1.6450486 2
6.3227706 -5.5644736 -1.6565777 3
5.8368254 -5.1368089 -1.6670226 4
5.4024296 -4.7545104 -1.6706064 4
5.069037 -4.461102 -1.6867228 6
3.7622449 -3.3110349 -1.7241117 6
2.8141284 -2.4766269 -1.7474258 7
4.2976918 -3.8331432 1.5201283 20
4.3407183 -3.8715186 1.1239578 27
8.5705099 -7.6441016 1.6066359 21
7.5063038 -6.6949277 0.87325376 1
13.808993 -12.316343 0.9519189 27
13.840271 -12.34424 0.62590897 33
13.837747 -14.279448 0.55298793 46
13.826119 -10.636016 0.38245285 39
13.879206 -12.378966 0.2979987 25
13.88414 -14.327321 0.20196883 40
13.867364 -10.667744 0.073897578 43
13.91679 -12.412488 -0.030919541 26
13.920644 -14.36499 -0.15082519 32
13.885256 -10.681508 -0.23544481 27
13.839593 -12.343636 -0.35866347 37
12.207989 -12.597668 -0.44281998 0
13.92732 -10.713866 -0.54698759 30
13.886375 -12.385362 -0.68977529 36
12.083817 -12.469533 -0.74598277 0
13.869991 -10.669765 -0.85432088 38
13.919828 -12.415197 -1.0215863 33
12.08946 -12.475355 -1.053393 2
13.900156 -10.69297 -1.1669725 38
13.954842 -12.446426 -1.3551208 25
12.096862 -12.482993 -1.3619453 2
13.925962 -10.712822 -1.4800075 13
12.683239 -11.312275 -1.532317 3
11.449363 -11.814826 -1.5801187 2
11.856217 -9.1206293 -1.5249653 2
10.868615 -9.6937981 -1.570791 1
9.4987917 -8.472043 -1.5984449 1
8.4541969 -7.5403609 -1.6231511 2
7.5888658 -6.7685657 -1.6387901 2
6.8849802 -6.1407647 -1.649978 3
6.2886558 -5.6088986 -1.6573497 4
5.8113847 -5.183217 -1.6695381 4
5.3882246 -4.8057971 -1.6760334 4
5.0393381 -4.4946232 -1.6867228 6
3.7430251 -3.3384318 -1.7254128 6
2.7922294 -2.4904101 -1.7440459 8
4.2392774 -3.8345141 1.5088984 19
4.2961097 -3.8859203 1.1194042 27
8.4640551 -7.6559138 1.5966603 20
7.4918923 -6.7765718 0.87705958 1
13.808591 -12.490157 0.95787865 25
13.851598 -12.529058 0.63036144 31
13.837171 -14.479774 0.55699104 48
13.830343 -10.793792 0.38464481 32
13.866603 -12.54263 0.29960087 24
13.886024 -14.530896 0.203467 39
13.855618 -10.813517 0.074235477 44
13.918795 -12.589839 -0.031118507 23
13.922265 -14.56882 -0.15194108 35
13.892325 -10.842165 -0.23684242 29
13.836131 -12.515067 -0.36082923 38
12.031338 -12.590077 -0.43958992 0
13.93098 -10.872333 -0.55009902 31
13.894437 -12.567806 -0.69451702 37
11.927446 -12.481361 -0.74169058 0
13.864454 -10.820414 -0.858612 39
13.936491 -12.605845 -1.0292428 34
11.91656 -12.46997 -1.0458878 0
13.89124 -10.841318 -1.1725497 40
13.956375 -12.623831 -1.3637944 24
11.984625 -12.541195 -1.3591332 0
13.923105 -10.866187 -1.4877298 11
12.615776 -11.411231 -1.5337539 3
11.377604 -11.905984 -1.5816483 2
11.804803 -9.2129736 -1.526588 1
10.818374 -9.7854433 -1.5733647 3
9.4629641 -8.5594473 -1.6024324 1
8.4160347 -7.6124778 -1.6259878 1
7.5443583 -6.8240285 -1.6394266 2
6.8448639 -6.1913214 -1.6506823 3
6.2639003 -5.6658278 -1.6612093 4
5.7779598 -5.2262845 -1.6703767 4
5.3314266 -4.8223863 -1.6687974 4
5.0049601 -4.5270901 -1.6857535 6
3.7168233 -3.3619437 -1.7241117 6
2.7693982 -2.5049782 -1.7406659 8
4.1782031 -3.8326442 1.4966475 19
4.2457228 -3.8945799 1.1133329 24
8.3520155 -7.6612606 1.5855763 23
7.4767032 -6.8583412 0.88086534 2
13.809372 -12.667266 0.96404392 28
13.846279 -12.70112 0.6341393 31
13.834467 -14.680777 0.56099415 65
13.84244 -10.959589 0.38709977 37
13.884805 -12.73646 0.30190793 24
13.891226 -14.741007 0.20504615 41
13.864459 -10.977022 0.074691631 46
13.927835 -12.775932 -0.031337373 23
13.929948 -14.782098 -0.15314743 29
13.894689 -11.000957 -0.2381863 29
13.836837 -12.692459 -0.36314967 35
11.863623 -12.589367 -0.43666267 0
13.917428 -11.01896 -0.55258816 30
13.891783 -12.742861 -0.69881427 33
11.771502 -12.491611 -0.73739839 0
13.866885 -10.978943 -0.86348826 39
13.930557 -12.778428 -1.0353678 33
11.738853 -12.456965 -1.0378983 0
13.905959 -11.00988 -1.1802517 40
13.967864 -12.81265 -1.3736247 20
11.770975 -12.491053 -1.3447608 0
13.90628 -11.010133 -1.4941092 9
12.544612 -11.507108 -1.5348314 3
11.324247 -12.016996 -1.5858549 2
11.768275 -9.3173933 -1.5302391 1
10.776171 -9.8849268 -1.5772252 3
9.4234505 -8.644083 -1.6059214 1
8.3831091 -7.6897831 -1.6299591 1
7.4994435 -6.8792009 -1.6400629 2
6.8043752 -6.2416186 -1.6513865 3
6.2299771 -5.714726 -1.6627532 3
5.744215 -5.2691388 -1.6712153 4
5.323472 -4.8831935 -1.6769378 4
4.9818125 -4.5697913 -1.6886616 7
3.7044113 -3.3980374 -1.7293166 6
2.7464993 -2.5193498 -1.737286 9
4.1245189 -3.8394525 1.4874593 20
4.1998124 -3.9095418 1.1087793 25
8.2347412 -7.6655965 1.573938 21
7.4699802 -6.953692 0.88605505 3
13.798014 -12.844363 0.96979821 29
13.855217 -12.897613 0.6388616 33
13.835313 -14.898993 0.56544209 46
13.824072 -11.110869 0.38885334 37
13.873036 -12.914201 0.30370235 20
13.880777 -14.947954 0.20650381 43
13.870919 -11.148523 0.075164683 42
13.901148 -12.94037 -0.031489912 22
13.924644 -14.995193 -0.15429348 27
13.882261 -11.157639 -0.23936889 28
13.840023 -12.88347 -0.36570215 35
11.711158 -12.61153 -0.43444201 0
13.92042 -11.188308 -0.5559485 32
13.885775 -12.926058 -0.70325965 37
11.606195 -12.498498 -0.73276281 0
13.873227 -11.150377 -0.86894965 42
13.924213 -12.961841 -1.0419306 30
11.592887 -12.484166 -1.0330563 0
13.887099 -11.161527 -1.1855633 39
13.95533 -12.990807 -1.3817201 23
11.592262 -12.483494 -1.3347626 0
13.874907 -11.151728 -1.4994812 7
12.486167 -11.623184 -1.5380641 2
11.241273 -12.10552 -1.5866196 2
11.749288 -9.4432955 -1.5367301 1
10.700511 -9.9609442 -1.5767963 3
9.3453074 -8.6994057 -1.6034292 1
8.3265152 -7.7510276 -1.6299591 2
7.4632673 -6.947443 -1.6432451 2
6.7613211 -6.2940121 -1.6520908 3
6.1879187 -5.7602401 -1.6627532 4
5.7168865 -5.3217635 -1.6745694 4
5.2989411 -4.9327044 -1.6805558 4
4.9424996 -4.6008983 -1.6867228 7
3.6766343 -3.4225235 -1.7280153 6
2.7253039 -2.5369444 -1.7355961 11
4.0666776 -3.8389494 1.4762293 20
4.1438575 -3.9118075 1.1011902 26
8.1205311 -7.6657925 1.5622997 23
7.4994931 -7.0795321 0.89539653 5
13.803867 -13.03087 0.97658002 30
13.857862 -13.081842 0.64317912 33
13.836272 -15.110228 0.5697788 60
13.823656 -11.270281 0.3910453 38
13.88724 -13.109574 0.30600944 25
13.884131 -15.162493 0.20812345 40
13.860957 -11.300692 0.07553637 45
13.91518 -13.13595 -0.031728674 24
13.890829 -11.325046 -0.24087402 27
13.839894 -13.06488 -0.36809996 35
11.552615 -12.616305 -0.43181762 0
13.907047 -11.338268 -0.5585621 30
13.888208 -13.110488 -0.70800138 38
11.459283 -12.51438 -0.72898567 0
13.860074 -11.299972 -0.87304574 39
13.926324 -13.146469 -1.0489306 28
11.42995 -12.482346 -1.0262774 0
13.889268 -11.323773 -1.1924685 40
13.974539 -13.191985 -1.3927068 22
11.437502 -12.490593 -1.3269515 0
13.809074 -11.258392 -1.5008243 5
12.413408 -11.718275 -1.5391418 2
11.15111 -12.177832 -1.5858549 2
11.68616 -9.5276022 -1.5371357 1
10.642277 -10.046325 -1.5785121 3
9.3045492 -8.7835073 -1.6069182 2
8.2693205 -7.8062501 -1.6293918 2
7.4289417 -7.0129313 -1.6464272 2
6.7143526 -6.3383584 -1.6513865 3
6.1532617 -5.8086877 -1.6642971 3
5.6625299 -5.3454361 -1.6695381 3
5.2700419 -4.9749274 -1.6823648 4
4.9102588 -4.6352911 -1.6867228 5
3.6554012 -3.4507041 -1.7293166 6
2.7180719 -2.5658638 -1.7423559 13
4.0062537 -3.8351529 1.4639785 24
4.0511975 -3.8781772 1.0837351 10
8.0153084 -7.672987 1.5523241 22
7.495945 -7.1758051 0.90093219 3
13.810673 -13.220841 0.9835673 25
13.849946 -13.258437 0.64709193 31
13.856389 -15.345936 0.57500511 45
13.824763 -11.432774 0.39332494 37
13.873388 -13.280878 0.30773973 22
13.88516 -15.377801 0.20974308 37
13.8742 -11.473658 0.076043211 41
13.921379 -13.326819 -0.031954169 23
11.676667 -12.931896 -0.13137263 0
13.873072 -11.472724 -0.24194911 31
13.843684 -13.252442 -0.37065244 34
11.389221 -12.61355 -0.42899132 0
13.867606 -11.468204 -0.56018001 35
11.299326 -12.513991 -0.72435009 0
13.857819 -11.46011 -0.877922 45
11.278311 -12.490717 -1.0204669 0
13.865238 -11.466246 -1.1972491 48
13.971442 -13.374744 -1.4016696 25
11.26183 -12.472465 -1.3166407 0
12.784081 -10.572153 -1.3974118 13
12.385977 -11.856992 -1.5459664 2
11.041804 -12.228786 -1.5824132 2
11.662293 -9.6444588 -1.5428153 1
10.597738 -10.145125 -1.5823725 3
9.2716732 -8.8756943 -1.6119025 2
8.2289248 -7.87748 -1.6322285 2
7.3940659 -7.0782771 -1.6496093 2
6.6727848 -6.3878007 -1.6520908 3
6.1239014 -5.8623595 -1.6673849 4
5.6448517 -5.403769 -1.675408 4
5.2351832 -5.0115972 -1.6823648 4
4.8749762 -4.6667738 -1.6857535 6
3.6284904 -3.4735234 -1.7280153 6
2.7053308 -2.5897906 -1.7457359 13
3.9599562 -3.8441708 1.4568322 22
4.0634751 -3.944663 1.0943599 18
7.8933282 -7.6625347 1.5390232 26
7.5028524 -7.2834759 0.90785182 2
13.812626 -13.408757 0.99034911 26
13.845968 -13.441125 0.6512745 32
13.849953 -15.555778 0.57923067 43
13.778315 -11.557282 0.3942894 45
13.89225 -13.486053 0.31023908 26
13.881194 -15.590867 0.21132223 40
13.806018 -11.58052 0.076110788 41
13.922714 -13.515627 -0.032173034 23
11.543545 -12.965302 -0.13089009 0
13.832474 -11.602712 -0.24264792 30
13.842653 -13.437907 -0.37312758 37
11.223771 -12.606143 -0.42606407 0
13.857657 -11.623835 -0.56304252 33
12.923681 -12.545805 -0.66769654 0
11.139935 -12.511982 -0.71971458 0
13.808084 -11.582253 -0.8798725 45
12.830095 -12.454955 -0.97936654 0
11.113838 -12.482671 -1.0134459 0
13.839891 -11.608933 -1.2020295 45
13.969332 -13.560881 -1.4109216 12
11.110839 -12.479302 -1.3091421 1
12.774092 -10.714937 -1.4044626 34
12.391511 -12.029195 -1.5571014 3
10.985287 -12.338286 -1.5866196 1
11.622117 -9.7486591 -1.5464665 2
10.520947 -10.213324 -1.5815146 3
9.2379599 -8.9678507 -1.6168866 2
8.1879339 -7.9485259 -1.6350652 2
7.3614707 -7.1462283 -1.6534278 2
6.6393275 -6.4452 -1.6549076 3
6.0828252 -5.9049692 -1.6673849 3
5.6182137 -5.4539423 -1.6787621 4
5.2056594 -5.0534511 -1.6841738 4
4.858984 -4.7169118 -1.6915697 5
3.6068661 -3.5014048 -1.7293166 7
2.6923876 -2.6136646 -1.7491157 12
3.8902605 -3.8269544 1.4404976 22
4.0008273 -3.9357221 1.084494 18
7.8027983 -7.6758237 1.5312643 22
7.471427 -7.3498449 0.90992767 2
13.825911 -13.600922 0.99774748 28
13.859117 -13.633587 0.65613174 30
13.857319 -15.773453 0.58390099 45
13.780575 -11.715755 0.39656904 45
13.890887 -13.664842 0.31222576 21
13.888365 -15.808791 0.21302286 39
13.820333 -11.749557 0.076617636 47
13.924018 -13.697433 -0.032385267 24
11.415065 -12.993494 -0.13040754 0
13.825303 -11.753782 -0.24388427 30
13.847308 -13.621972 -0.37568009 37
11.084497 -12.617217 -0.42394435 0
13.859457 -11.782818 -0.5662784 34
12.709109 -12.502295 -0.66088033 0
10.990771 -12.51053 -0.71542239 0
13.810104 -11.74086 -0.88494384 41
12.718737 -12.511765 -0.97717899 3
10.970201 -12.487115 -1.0078775 0
13.850778 -11.775439 -1.2097315 46
12.639068 -12.433393 -1.2848638 3
10.948874 -12.462839 -1.2997688 0
12.781702 -10.866549 -1.4131923 44
12.317138 -12.116701 -1.5578197 2
10.950521 -12.464714 -1.593503 1
11.572364 -9.8384132 -1.5484949 2
10.486999 -10.316344 -1.5866619 3
9.1924267 -9.0428381 -1.6193788 3
8.1406822 -8.0082092 -1.6361998 2
7.3139133 -7.1948943 -1.6534278 2
6.6104708 -6.5028987 -1.6584287 3
6.0379324 -5.9396772 -1.665841 3
5.5874949 -5.4965696 -1.6804392 4
5.1692519 -5.0851326 -1.6832693 4
4.8137612 -4.7354269 -1.6867228 6
3.5889575 -3.5305545 -1.7319189 7
2.6698248 -2.6263788 -1.7457359 12
3.8415432 -3.8321688 1.4323304 22
3.9704726 -3.9607837 1.0837351 26
7.6845155 -7.6657629 1.5185176 16
7.4904647 -7.4721856 0.91857719 3
13.818294 -13.784574 1.0041182 26
13.873978 -13.840121 0.66139376 26
13.848962 -15.987679 0.5882377 45
13.768109 -11.871737 0.39858565 42
13.897085 -13.863173 0.31453285 24
13.892888 -16.038389 0.21480446 35
13.807647 -11.905828 0.077006213 49
13.921504 -13.887532 -0.032604132 24
11.269078 -13.009379 -0.1297742 0
13.833785 -11.928367 -0.24549691 31
13.856631 -13.822817 -0.37854195 37
10.935925 -12.624778 -0.42162275 0
13.861643 -11.952387 -0.56976318 37
12.5253 -12.494735 -0.65584219 0
10.842982 -12.517481 -0.71147352 0
13.815552 -11.912643 -0.89060026 44
12.481214 -12.450756 -0.96558499 2
10.814788 -12.484932 -1.0015829 0
13.846824 -11.939609 -1.2166365 42
12.475698 -12.445253 -1.2770575 0
10.817213 -12.487732 -1.2944572 0
12.784016 -11.023188 -1.4219218 51
12.173018 -12.143312 -1.5502768 3
10.871053 -12.549887 -1.5946503 1
11.500387 -9.9163618 -1.5480893 2
10.4288 -10.40335 -1.5888066 3
9.1234522 -9.1011877 -1.618382 3
8.0873795 -8.0676441 -1.6367671 2
7.2663012 -7.2485695 -1.6540643 2
6.5732732 -6.5572329 -1.6605413 3
6.0102115 -5.9955449 -1.6697006 4
5.5379095 -5.5243955 -1.677085 4
5.1419001 -5.1293526 -1.6859828 4
4.7998161 -4.7881031 -1.6935085 5
3.5615444 -3.5528533 -1.7306178 6
2.6539907 -2.6475143 -1.7474258 12
3.7983835 -3.8423908 1.4262049 22
3.9289203 -3.9744401 1.0799404 27
7.5639734 -7.6516085 1.5052167 5
7.4857445 -7.572473 0.92445886 3
13.82002 -13.980136 1.0113111 27
13.855714 -14.016244 0.66517162 30
13.856462 -16.223833 0.59335279 59
13.772192 -12.043911 0.40112832 44
13.895565 -14.056557 0.31671175 19
13.88189 -16.253607 0.21638361 43
13.8085 -12.075663 0.077479266 50
13.925449 -14.086787 -0.032842893 22
11.157201 -13.063404 -0.12953293 0
13.86157 -12.122073 -0.24748583 27
13.849765 -14.010225 -0.38101709 20
