# .PCD v0.7 - Point Cloud Data file format
VERSION 0.7
FIELDS x y z intensity
SIZE 4 4 4 4
TYPE F F F F
COUNT 1 1 1 1
WIDTH 1323
HEIGHT 1
VIEWPOINT 0 0 0 1 0 0 0
POINTS 1323
DATA ascii
0.081401229 -6.9608436 -0.87423527 22
0.081396431 -6.9604335 -0.99737841 28
0.081457332 -6.965641 -1.1226507 38
0.081403792 -6.9610629 -1.2450539 64
0.081599876 -6.9778299 -1.3725047 10
0.081132337 -6.9378495 -1.4875745 2
0.094313227 -8.0649843 -1.8723092 3
0.087354831 -7.4699526 -1.8660582 4
0.062673084 -5.3593483 -1.8438236 5
0.046082169 -3.9406133 -1.8369941 8
0.015564683 -3.30283 0.87185329 7
0.035330866 -7.4972196 1.4487747 23
0.028338185 -6.0133705 0.84128094 11
0.046722807 -9.9145927 0.86079854 2
0.065285146 -13.853526 0.71270609 2
0.08941076 -18.972988 0.64034575 6
-1.1895363 -17.448738 0.48638028 13
1.6315577 -21.059816 0.46311688 1
0.11598744 -24.612568 0.39438367 3
-1.4880991 -21.828213 0.22148547 5
2.131835 -27.517296 0.11657368 6
0.17013903 -36.10355 -0.05986267 43
-2.2909632 -33.605042 -0.25396898 42
3.3139615 -42.775948 -0.57662475 36
0.16614972 -35.257019 -0.68190151 42
-2.2799637 -33.443695 -0.84617275 31
3.3046269 -42.655457 -1.3318121 33
0.036826275 -7.8145456 -0.28969082 1
-0.52078909 -7.6392059 -0.3289535 1
0.5573259 -7.19385 -0.3522611 22
0.034029629 -7.221097 -0.39550921 0
-0.49152818 -7.2099915 -0.4382076 0
0.55151755 -7.1188774 -0.47512832 0
0.033615477 -7.1332135 -0.5169524 0
-0.57582146 -8.4464493 -0.66331953 0
0.54678422 -7.0577807 -0.59630066 0
0.033379734 -7.083189 -0.63864505 0
-0.48394671 -7.0987825 -0.68336689 0
0.54435444 -7.0264173 -0.71846592 0
0.033153202 -7.0351186 -0.75880104 49
0.03282376 -6.9652114 -0.87473369 26
0.032840442 -6.968751 -0.9985131 27
0.032846276 -6.9699893 -1.1232872 37
0.03276898 -6.9535866 -1.2436454 62
0.032829627 -6.9664559 -1.370189 9
0.032678258 -6.9343357 -1.4867359 2
0.038100455 -8.0849276 -1.8768317 3
0.035204384 -7.4703803 -1.8660582 4
0.025293179 -5.3672194 -1.846426 5
0.018588403 -3.9444644 -1.838684 8
-0.0075376718 -3.3221958 0.87695783 6
-0.016974812 -7.4815741 1.445739 23
-0.013688688 -6.0332294 0.84405196 11
-0.022522362 -9.9266319 0.86183643 2
-0.031205703 -13.753777 0.70756841 1
-0.043002494 -18.953161 0.63967115 11
-1.3125217 -17.455957 0.48682508 13
1.7315333 -24.57716 0.54018611 15
-0.042014204 -18.517576 0.29671699 7
-1.5261905 -20.297659 0.20605841 0
2.6888409 -38.165058 0.16159816 4
-0.081343658 -35.85186 -0.059444837 41
-2.4226468 -32.220127 -0.24362445 14
2.9913557 -42.458912 -0.57205564 39
-0.080103591 -35.305305 -0.68282968 49
-2.3748724 -31.584751 -0.79953885 11
2.9817479 -42.322544 -1.3207355 37
-0.017821129 -7.8545847 -0.29117259 1
-0.58189875 -7.7389956 -0.33341739 1
0.50680894 -7.1935802 -0.35206604 29
-0.016356774 -7.2091761 -0.39485294 0
-0.54274952 -7.218328 -0.43893391 1
0.50264651 -7.1344986 -0.47592506 0
-0.016184561 -7.1332746 -0.5169524 0
-0.53849709 -7.1617727 -0.56271237 0
0.49861878 -7.0773301 -0.59764367 0
-0.016062021 -7.0792656 -0.63828588 0
-0.53438938 -7.1071415 -0.68451416 0
0.4961265 -7.041955 -0.71968299 0
-0.015952971 -7.0312018 -0.75837207 56
-0.015794376 -6.9613018 -0.87423527 24
-0.015811412 -6.9688106 -0.9985131 28
-0.0157963 -6.9621506 -1.1220144 37
-0.015785938 -6.9575834 -1.2443497 56
-0.015806204 -6.9665155 -1.370189 6
-0.015724452 -6.9304838 -1.4858973 2
-0.018326227 -8.0772038 -1.8750226 3
-0.016984779 -7.4859672 -1.8699358 4
-0.012212022 -5.3823953 -1.8516309 5
-0.0089825056 -3.9589999 -1.8454438 8
-0.030730786 -3.3220623 0.87695783 7
-0.069241956 -7.4851999 1.4464979 23
-0.055698302 -6.0211029 0.84238935 11
-0.091785908 -9.9222488 0.86149049 1
-0.091196574 -9.8585405 0.50719684 2
-0.11030962 -11.9247 0.40247604 2
-1.4274708 -17.362684 0.48448992 21
1.558138 -24.560711 0.53957236 13
-0.16973642 -18.34886 0.29402539 1
-2.0375402 -24.78311 0.2517322 12
2.1901031 -34.522289 0.14610569 2
-0.3294518 -35.614426 -0.059053537 41
-2.467587 -30.013878 -0.22706716 25
2.6730862 -42.135483 -0.56743276 36
-0.32731903 -35.383869 -0.68437666 49
-2.4190347 -29.423323 -0.7452336 22
2.6672237 -42.043076 -1.3114012 30
-0.073691331 -7.966187 -0.29532161 1
-0.64409733 -7.8343167 -0.33770958 13
0.45657596 -7.1969428 -0.35206604 27
-0.066648968 -7.2048922 -0.39463419 0
-0.59410942 -7.2263012 -0.43966022 8
0.45206797 -7.1258841 -0.47512832 0
-0.065909997 -7.1250086 -0.51637417 0
-0.58848083 -7.1578393 -0.56271237 0
0.44844052 -7.0687051 -0.59663641 0
-0.065926433 -7.1267848 -0.64259619 0
-0.58562309 -7.1230793 -0.68642622 2
0.4461965 -7.0333328 -0.71846592 0
-0.065113202 -7.0388727 -0.75922996 40
-0.064466462 -6.9689593 -0.8752321 23
-0.064499117 -6.9724894 -0.99908042 29
-0.064400889 -6.9618702 -1.1220144 45
-0.064285792 -6.9494286 -1.2429413 48
-0.06451387 -6.9740839 -1.3717328 5
-0.063999437 -6.9184723 -1.4833817 2
-0.074859455 -8.0924635 -1.8786407 3
-0.069318064 -7.4934268 -1.8718746 4
-0.049717948 -5.3746142 -1.8490285 6
-0.036386561 -3.9334633 -1.8336141 9
-0.055240646 -3.4029741 0.89839685 5
-0.12156057 -7.4884615 1.4472568 23
-0.097796462 -6.0245285 0.84294355 11
-0.097020492 -5.9767265 0.51897013 2
-0.13946633 -8.5915051 0.44205043 3
-0.18122855 -11.164172 0.37684062 3
-1.5461625 -17.324417 0.48371154 29
1.1906085 -21.097355 0.46329224 1
-0.33385947 -20.56665 0.32959297 24
-2.0700634 -23.194614 0.23573828 31
2.006067 -35.547123 0.15038006 0
-0.57398915 -35.359295 -0.058635704 40
-2.5170584 -28.203096 -0.2134956 16
2.360616 -41.829662 -0.56307864 44
-0.57608962 -35.488686 -0.68646502 39
-2.470118 -27.677139 -0.70142603 14
2.3556311 -41.741333 -1.3014446 34
-0.12936889 -7.9694753 -0.29546982 1
-0.69948602 -7.8375902 -0.33805296 23
0.40632239 -7.199955 -0.35206604 36
-0.11727111 -7.2242193 -0.39572796 0
-0.6452539 -7.2299309 -0.44014445 20
0.40523404 -7.1806698 -0.47858089 0
-0.11603885 -7.1483088 -0.5181089 0
-0.64021009 -7.1734161 -0.56427461 1
0.39953154 -7.0796227 -0.59730792 0
-0.11542052 -7.110218 -0.64115942 0
-0.63462943 -7.1108856 -0.68566138 2
0.3975338 -7.0442228 -0.71927732 0
-0.11418765 -7.0342703 -0.75880104 42
-0.11324622 -6.9762759 -0.87622899 28
-0.11323897 -6.9758286 -0.99964774 29
-0.11306643 -6.9651999 -1.1226507 41
-0.11280039 -6.9488106 -1.2429413 45
-0.11307318 -6.9656153 -1.370189 6
-0.1126788 -6.9413204 -1.488413 2
-0.13148017 -8.0995359 -1.8804497 4
-0.12163036 -7.4927607 -1.8718746 4
-0.087361403 -5.3817 -1.8516309 5
-0.064199492 -3.9548635 -1.8437539 9
-0.081095345 -3.4411423 0.90860587 16
-0.17608026 -7.471664 1.4442211 23
-0.14204907 -6.0276093 0.84349775 16
-0.13219187 -5.6093354 0.48714 3
-0.19284162 -8.1829042 0.42108849 2
-0.51585573 -21.889456 0.73897463 0
-1.8319647 -18.956322 0.52963632 32
1.0349451 -21.085543 0.46285385 5
-0.53935742 -22.886707 0.3668268 3
-2.1157572 -21.892876 0.22265971 25
1.8099555 -36.875278 0.15593843 8
-0.82789248 -35.130199 -0.058264297 42
-2.6294625 -27.20846 -0.20610665 56
2.0403969 -41.570198 -0.55936956 39
-0.84300268 -35.771374 -0.69203413 10
-2.6294692 -27.208529 -0.69001991 55
2.0329292 -41.418053 -1.2908659 28
-0.1876903 -7.9643164 -0.29532161 1
-0.75768834 -7.8402081 -0.33839631 30
0.35333744 -7.19875 -0.35187098 41
-0.17022404 -7.2231655 -0.39572796 0
-0.69900262 -7.2329555 -0.44062865 21
0.34965137 -7.123651 -0.47459716 0
-0.16890533 -7.1672087 -0.5195545 0
-0.69622892 -7.2042542 -0.56708664 0
0.34801552 -7.090323 -0.59797943 0
-0.16744396 -7.1051979 -0.64080018 0
-0.68635464 -7.1020799 -0.68527895 2
0.34569141 -7.042973 -0.71887159 3
-0.16584198 -7.03722 -0.75922996 45
-0.16447526 -6.9792261 -0.8767274 28
-0.1644645 -6.9787693 -1.0002151 35
-0.16412076 -6.9641838 -1.1226507 41
-0.1637346 -6.9477968 -1.2429413 44
-0.16440795 -6.9763703 -1.3725047 8
-0.16374239 -6.9481277 -1.49009 2
-0.19075729 -8.0944586 -1.8795452 3
-0.17655167 -7.4916677 -1.8718746 4
-0.12698704 -5.3884773 -1.8542333 5
-0.09335915 -3.9615357 -1.8471339 9
-0.11184841 -3.6608381 0.96679753 5
-0.22835617 -7.4741783 1.44498 23
-0.12097558 -3.9595735 0.55420351 3
-0.16635832 -5.4449668 0.47295481 4
-0.24825451 -8.1254578 0.41821134 1
-0.56488365 -18.488842 0.62428987 24
-1.9675592 -18.974886 0.53052592 34
0.88754696 -21.088259 0.46276617 11
-0.57722431 -18.892757 0.30286923 52
-2.2701969 -21.893486 0.22282167 42
1.5617242 -37.106819 0.15686764 12
-0.99457419 -32.552765 -0.053999763 31
-2.8222373 -27.217291 -0.20631775 57
1.7361732 -41.251755 -0.55490792 36
-0.99768716 -32.654655 -0.63185722 17
-2.8222437 -27.217352 -0.69072646 56
0.66104263 -15.70648 -0.48936412 0
-0.24487217 -8.0147524 -0.29724795 0
-2.8188922 -27.185032 -1.1741717 76
0.30307207 -7.2010412 -0.35187098 38
-0.2205234 -7.2178092 -0.39550921 1
-0.75030476 -7.2358418 -0.44111285 20
0.30108517 -7.1538324 -0.47645622 0
-0.21844871 -7.1499038 -0.51839805 0
-0.76254779 -7.3539119 -0.57927197 0
0.29867482 -7.0965624 -0.59831518 1
-0.21655518 -7.0879278 -0.63936341 0
-0.73509842 -7.0891938 -0.68451416 1
0.29651377 -7.0452147 -0.71887159 5
-0.21545111 -7.0517912 -0.76094574 38
-0.21319377 -6.9779081 -0.8767274 28
-0.21342166 -6.9853663 -1.0013498 35
-0.21309607 -6.97471 -1.1245601 44
-0.21223371 -6.9464846 -1.2429413 39
-0.21274698 -6.963284 -1.370189 11
-0.21224383 -6.9468155 -1.49009 2
-0.24797463 -8.1162977 -1.8849722 3
-0.22932135 -7.5057688 -1.8757521 4
-0.16460133 -5.3874598 -1.8542333 5
-0.12045908 -3.9426684 -1.838684 8
-0.13406602 -3.5710776 0.9433167 17
-0.27994084 -7.4567032 1.4419444 3
-0.14073904 -3.7488251 0.5248307 3
-0.20137729 -5.3640285 0.46603522 3
-0.52003086 -13.851911 0.71311712 5
-0.65675187 -17.49371 0.5908289 10
-2.0916181 -18.88518 0.52841318 19
0.73960024 -21.073957 0.46232778 23
-0.70685595 -18.828318 0.30190793 18
-2.2530301 -20.342566 0.20719215 3
1.3379859 -38.124187 0.16112511 10
-1.2134076 -32.321186 -0.053628355 27
-3.0130618 -27.204876 -0.20637807 60
1.4364958 -40.931103 -0.55044633 40
-1.2185836 -32.459061 -0.62822187 33
-3.0148289 -27.220833 -0.6913321 52
0.5485701 -15.6308 -0.48687497 0
-0.30156952 -8.0328197 -0.29798886 0
-3.0103705 -27.180578 -1.1748585 72
0.25321233 -7.2149596 -0.35245612 19
-0.27150717 -7.232058 -0.39638424 1
-0.80431831 -7.2621746 -0.44304967 16
0.25043473 -7.1358156 -0.47512832 0
-0.26835912 -7.1482043 -0.51839805 0
-0.79850489 -7.2096853 -0.56833643 0
0.24898441 -7.094491 -0.59797943 1
-0.26618242 -7.0902243 -0.63972265 0
-0.78676397 -7.1036763 -0.68642622 3
0.24746123 -7.0510898 -0.71927732 3
-0.26452744 -7.0461407 -0.76051682 47
-0.26205245 -6.9802151 -0.87722582 28
-0.26203498 -6.9797497 -1.0007824 36
-0.26163536 -6.9691057 -1.1239237 41
-0.26101959 -6.952703 -1.2443497 36
-0.26209089 -6.9812388 -1.3740486 31
-0.26103002 -6.9529815 -1.4917672 2
-0.3040463 -8.098793 -1.8813542 3
-0.28215265 -7.5156183 -1.8786602 5
-0.20192508 -5.3786201 -1.8516309 5
-0.14866123 -3.9598458 -1.8471339 8
-0.16948989 -3.8057401 1.0055919 8
-0.13000093 -2.9190516 0.5646351 3
-0.16109113 -3.6171536 0.50654203 3
-0.24130252 -5.4182267 0.47087893 3
-0.61583412 -13.82799 0.7120896 6
-0.68602014 -15.403953 0.52039897 2
-2.2322958 -18.945564 0.53052592 15
0.59279537 -21.090601 0.46259081 35
-0.83881903 -18.834911 0.30210021 16
-2.3973284 -20.346201 0.20739461 8
0.9696402 -34.49807 0.14576779 2
-1.4488106 -32.531712 -0.053993132 22
-3.2061841 -27.210985 -0.20658919 75
1.142617 -40.652271 -0.54657602 37
-1.4382216 -32.293945 -0.62520528 40
-3.2066579 -27.215006 -0.69173586 53
0.43954551 -15.638246 -0.48699942 0
-0.3567526 -8.0105524 -0.29724795 0
-3.2047234 -27.198587 -1.1765753 82
0.20272399 -7.2125583 -0.3522611 15
-0.32145676 -7.2180166 -0.39572796 3
-0.85593098 -7.2643132 -0.4435339 10
0.20072339 -7.1413803 -0.47539389 0
-0.31878898 -7.158114 -0.51926541 0
-0.846017 -7.1801724 -0.56646174 0
0.1992255 -7.088088 -0.59730792 1
-0.31656125 -7.1080928 -0.64151859 0
-0.83819979 -7.1138282 -0.68795586 16
0.19845293 -7.0606012 -0.72008866 4
-0.31388927 -7.0480957 -0.76094574 41
-0.31077716 -6.9782157 -0.87722582 26
-0.31075642 -6.9777503 -1.0007824 37
-0.31045824 -6.9710546 -1.1245601 40
-0.30937707 -6.9467783 -1.2436454 35
-0.30994964 -6.9596348 -1.370189 24
-0.30991265 -6.9588041 -1.4934442 2
-0.36109921 -8.1081514 -1.8840677 3
-0.33478737 -7.517343 -1.8796296 5
-0.23997487 -5.3884153 -1.8555346 5
-0.17646383 -3.9623334 -1.8488238 8
-0.19665197 -3.8160512 1.0086546 5
-0.14390877 -2.7925644 0.54034966 4
-0.18144675 -3.5209925 0.49324113 4
-0.38371724 -7.4460716 0.64732879 3
-0.71215105 -13.819364 0.71188408 6
-0.86143786 -16.716288 0.56492364 7
-2.1935244 -17.56069 0.49216259 20
0.43650985 -20.666422 0.45320925 27
-0.97049689 -18.83259 0.30216429 21
-2.5422878 -20.352783 0.20763756 12
0.76282305 -36.11562 0.15257637 52
-1.6870058 -32.736519 -0.05435127 20
-3.4030151 -27.243504 -0.20701142 61
0.77737266 -36.804466 -0.49475664 49
-1.6774305 -32.550709 -0.6303876 35
-3.4015326 -27.231636 -0.69274527 58
0.33095399 -15.668914 -0.48787063 0
-1.6825584 -32.650219 -1.2119596 28
-3.3970037 -27.195377 -1.1774337 69
0.15236762 -7.2137976 -0.3522611 14
-0.37225127 -7.2235737 -0.39616549 10
-0.92543006 -7.4087114 -0.45273381 1
0.15052684 -7.1266465 -0.47433156 0
-0.36813828 -7.1437607 -0.51839805 0
-0.8990891 -7.1978335 -0.56833643 0
0.14973815 -7.0893059 -0.59730792 1
-0.36617738 -7.1057091 -0.64151859 0
-0.88981736 -7.1236072 -0.68948549 30
0.14865328 -7.0379434 -0.71765459 2
-0.36329129 -7.0497041 -0.76137471 38
-0.3594867 -6.9758759 -0.87722582 25
-0.35946274 -6.9754109 -1.0007824 37
-0.35932103 -6.972661 -1.1251965 42
-0.35867774 -6.9601779 -1.2464623 31
-0.35873145 -6.9612203 -1.3709608 25
-0.35929185 -6.9720945 -1.4967984 2
-0.41909966 -8.1326714 -1.8903992 3
-0.38666096 -7.5031953 -1.8767215 4
-0.27758723 -5.3866086 -1.8555346 5
-0.2033755 -3.9465222 -1.8420639 8
-0.12814161 -2.1891396 0.57885343 9
-0.15789251 -2.6973965 0.52213567 5
-0.20324484 -3.4721844 0.48659068 4
-0.43755239 -7.4750366 0.6500966 35
-0.66037852 -11.281744 0.58138567 3
-0.90219206 -15.412827 0.52107358 6
-2.1376271 -16.193203 0.45424405 2
0.40568262 -28.694235 0.62917966 13
-1.1014776 -18.817371 0.30203611 19
-3.2397087 -24.541821 0.25059846 4
0.51796442 -36.636009 0.15475579 35
-1.9851553 -33.913902 -0.056327682 41
-3.5952218 -27.234945 -0.20713206 60
0.51679146 -36.553043 -0.49131635 52
-1.9852543 -33.915592 -0.65707272 39
-3.5952258 -27.234974 -0.69345182 57
0.22149977 -15.666844 -0.48774618 0
-1.9828612 -33.87471 -1.2578952 38
-3.592011 -27.210621 -1.1791507 66
0.10211506 -7.2226748 -0.35265118 14
-0.42383748 -7.2407351 -0.39725927 20
-0.99959892 -7.5722785 -0.46314427 1
0.10093907 -7.1394954 -0.47512832 0
-0.4182336 -7.1449995 -0.51868713 0
-0.95192701 -7.2111487 -0.56989861 3
-0.41577396 -7.1029797 -0.64151859 0
-0.94317549 -7.1448531 -0.69216233 22
0.097884156 -6.9234195 -0.70588976 0
-0.41296175 -7.0549359 -0.7622326 37
-0.40887284 -6.9850821 -0.87872106 26
-0.40861261 -6.9806366 -1.0019171 40
-0.407989 -6.9699826 -1.1251965 40
-0.40725854 -6.9575043 -1.2464623 28
-0.4075489 -6.9624643 -1.3717328 25
-0.40818435 -6.9733205 -1.4976369 2
-0.47586426 -8.1295471 -1.8903992 3
-0.44061935 -7.527432 -1.8835071 4
-0.31540585 -5.3883152 -1.8568357 4
-0.23176895 -3.9594834 -1.8488238 7
-0.13687095 -2.0994771 0.5553726 8
-0.172713 -2.6492617 0.51302862 6
-0.22523801 -3.4549479 0.48437387 3
-0.48271215 -7.4043694 0.64421499 0
-0.74740183 -11.46447 0.5910446 33
-1.0041343 -15.402515 0.52093869 9
-2.2548699 -16.249958 0.4562456 48
0.12953143 -17.259365 0.37841964 2
-1.2272961 -18.825617 0.30229247 23
-3.4123011 -24.591108 0.25132728 6
0.27308157 -36.386654 0.15369143 39
-2.1959863 -33.684448 -0.05596954 37
-3.7774217 -27.222389 -0.20722254 78
0.26474479 -35.275822 -0.47411489 33
-2.1989608 -33.730076 -0.65374678 38
-3.7796235 -27.238256 -0.69415843 52
0.1313301 -17.499031 -0.54474741 5
-2.1767993 -33.390137 -1.2404101 39
-3.7740479 -27.198074 -1.1796657 69
0.054120068 -7.2112083 -0.35206604 15
-0.47237039 -7.2457356 -0.39769676 20
-3.7766399 -27.216755 -1.6661574 55
0.053615671 -7.1439996 -0.47539389 0
-0.54996204 -8.4359217 -0.61265218 0
-1.0008286 -7.2125769 -0.5705235 22
0.053185649 -7.0867019 -0.59697217 0
-0.46416959 -7.1199431 -0.64331454 0
-0.99218309 -7.1502724 -0.69330961 21
0.053009201 -7.0631909 -0.72008866 0
-0.45974293 -7.0520425 -0.7622326 35
-0.45570722 -6.9901381 -0.87971795 28
-0.45490113 -6.9777732 -1.0019171 43
-0.45446378 -6.9710646 -1.1258329 44
-0.453906 -6.9625087 -1.2478708 27
-0.45397225 -6.9635253 -1.3725047 10
-0.4546788 -6.9743629 -1.4984754 2
-0.52977121 -8.1262131 -1.8903992 3
-0.49028119 -7.5204716 -1.8825377 4
-0.3518739 -5.3974285 -1.8607394 5
-0.25778839 -3.9542415 -1.8471339 8
-0.14818227 -2.0521805 0.5431217 8
-0.18837567 -2.6088197 0.50543946 6
-0.25106442 -3.4769981 0.48769909 3
-0.69539922 -9.6306028 0.83830982 0
-1.1122155 -15.403104 0.52120852 12
-2.3659484 -16.217995 0.45580083 16
0.015018167 -28.689102 0.6290043 13
-1.3592699 -18.824566 0.30242062 21
-3.5908191 -24.614182 0.25181317 10
0.018916296 -36.135674 0.15262705 40
-2.3754954 -32.898304 -0.054689515 11
-3.9737227 -27.238892 -0.20755428 60
0.018493917 -35.328804 -0.4748137 36
-2.4214265 -33.534405 -0.65026611 55
-3.9743018 -27.242861 -0.6949659 55
0.0091711115 -17.519512 -0.54536968 5
-2.4182017 -33.489742 -1.2447073 50
-3.9713273 -27.222471 -1.1818976 63
0.0037771193 -7.2154055 -0.3522611 16
-0.52323133 -7.2462449 -0.39791551 19
-3.9677026 -27.197626 -1.6666416 63
0.003750291 -7.1641555 -0.47672182 0
-0.51890963 -7.1863942 -0.5221566 0
-1.0517313 -7.2093601 -0.57083595 21
0.0037119358 -7.0908861 -0.59730792 0
-0.51415181 -7.1205029 -0.64367372 0
-1.0420755 -7.1431713 -0.69330961 21
0.0036871261 -7.0434918 -0.71806026 0
-0.50982356 -7.0605607 -0.76351941 43
-0.50563985 -7.0026202 -0.8817116 20
-0.50445962 -6.9862757 -1.0036191 46
-0.50340432 -6.9716606 -1.1264694 45
-0.50221884 -6.9552431 -1.2471665 39
-0.50285846 -6.9641008 -1.3732767 2
-0.5205403 -7.2089777 -1.5496266 12
-0.5039885 -6.9797511 -1.624477 0
-0.54389006 -7.5323486 -1.8864152 4
-0.38927409 -5.3910675 -1.8594382 6
-0.28512684 -3.9487293 -1.8454438 7
-0.15884005 -2.0048306 0.53087085 9
-0.20379238 -2.5722055 0.49860919 6
-0.28315425 -3.5738869 0.50155419 2
-0.67354494 -8.5012798 0.74039745 3
-0.89604098 -11.309557 0.5836463 7
-1.2194065 -15.390979 0.52107358 13
-2.4821379 -16.220844 0.45635682 22
-0.1080744 -16.735628 0.36693376 2
-1.4912887 -18.822594 0.3025488 18
-3.767411 -24.620142 0.25213709 11
-0.22495528 -34.834961 0.14713627 17
-2.420927 -30.556206 -0.050822917 24
-4.1704445 -27.253979 -0.20788603 67
-0.22852708 -35.388065 -0.47562003 38
-2.5405066 -32.065502 -0.62211138 23
-4.1668153 -27.230263 -0.69536966 63
-0.1132891 -17.543137 -0.54611641 2
-2.4786217 -31.284409 -1.1633568 14
-4.1643014 -27.213835 -1.1827561 66
-0.046568476 -7.2112608 -0.35206604 18
-0.57538408 -7.2623234 -0.39900929 18
-0.046031363 -7.128087 -0.47433156 0
-0.56843722 -7.1746421 -0.52157837 0
-1.1080686 -7.241261 -0.57396042 18
-0.045996096 -7.1226254 -0.59999394 0
-0.56447899 -7.1246824 -0.64439213 0
-1.0949302 -7.1554012 -0.6952216 20
-0.045561217 -7.0552835 -0.71927732 0
-0.55941719 -7.0607939 -0.76394832 41
-0.554515 -6.99892 -0.8817116 40
-0.55322069 -6.9825835 -1.0036191 48
-0.55237526 -6.9719129 -1.1271057 54
-0.55107433 -6.9554925 -1.2478708 4
-0.5722338 -7.2225614 -1.4249965 4
-0.55232149 -6.9712343 -1.4993141 2
-0.64471883 -8.1374445 -1.8949217 3
-0.59615594 -7.5244994 -1.8854458 7
-0.42749882 -5.3957601 -1.8620406 5
-0.31297353 -3.9502568 -1.8471339 8
-0.17249969 -1.9998196 0.52984995 9
-0.22005667 -2.5511563 0.4948146 6
-0.51848805 -6.0109243 0.84405196 9
-0.69143832 -8.0159683 0.69853383 4
-0.97531545 -11.307006 0.58385181 13
-1.3285403 -15.402006 0.52174819 18
-2.5978496 -16.218914 0.45680159 23
-0.20878603 -15.534863 0.34063026 0
-2.1141598 -24.509832 0.39419141 5
-4.3617773 -27.231478 0.27918506 60
-0.39562955 -29.437078 0.12434527 1
-2.4743381 -28.685442 -0.047738921 12
-4.3637743 -27.243948 -0.20803683 56
-0.4774043 -35.521584 -0.47744769 27
-2.5797353 -29.907333 -0.58057541 14
-4.3650384 -27.251839 -0.69668192 53
-0.23747984 -17.669844 -0.55009902 1
-2.5186744 -29.199444 -1.0864516 23
-4.358613 -27.211723 -1.1839579 63
-0.097018823 -7.21875 -0.35245612 20
-0.62606895 -7.2581296 -0.39900929 20
-2.9994948 -18.726467 -1.1499923 0
-0.096061863 -7.1475463 -0.47565949 0
-0.61953872 -7.1824231 -0.52244574 1
-1.1585951 -7.2333488 -0.57396042 30
-0.095613152 -7.1141601 -0.59932244 0
-0.61351854 -7.1126304 -0.64367372 1
-1.1467469 -7.1593785 -0.69636887 19
-0.094815277 -7.0547938 -0.71927732 0
-0.6090374 -7.060679 -0.7643773 34
-0.6037026 -6.9988322 -0.88221008 36
-0.60229349 -6.9824958 -1.0041864 51
-0.60103333 -6.9678869 -1.1271057 44
-0.60570872 -7.0220895 -1.2605467 4
-0.60240364 -6.9837732 -1.3786802 1
-0.59996647 -6.9555182 -1.4967984 3
-0.59938198 -6.9487424 -1.61905 2
-0.64867061 -7.520154 -1.8854458 5
-0.4654817 -5.3964124 -1.8633418 5
-0.3421008 -3.9660358 -1.8555837 7
-0.18178645 -1.9485064 0.5165782 9
-0.23859134 -2.5573785 0.49633244 6
-0.56080753 -6.0111027 0.84460616 12
-0.73553783 -7.8839769 0.68746245 4
-1.0520029 -11.276056 0.58261877 14
-1.4349201 -15.380414 0.52134341 20
-2.7116756 -16.204325 0.45691279 26
-0.42061159 -20.594753 0.45163104 32
-2.0385296 -21.850296 0.35163847 4
-4.5557432 -27.224031 0.27942801 76
-0.72192699 -35.348312 0.14933258 38
-2.5389178 -27.213785 -0.045318149 51
-4.5617886 -27.260157 -0.20839873 60
-0.73077017 -35.781307 -0.48099548 7
-2.6194332 -28.076801 -0.54538196 14
-4.5591455 -27.244364 -0.6972875 55
-0.36720046 -17.97954 -0.55980664 27
-0.73222828 -7.8485031 -0.29220986 1
-4.5544167 -27.216105 -1.1855031 65
-0.14741284 -7.2178965 -0.35245612 36
-0.67709601 -7.2575588 -0.39922804 14
-3.1176364 -18.630249 -1.1453924 0
-0.14612179 -7.1546822 -0.47619066 0
-0.67003697 -7.1818953 -0.52273488 0
-1.216305 -7.2683473 -0.57739729 8
-0.14543979 -7.1212893 -0.59999394 0
-0.66426927 -7.1200733 -0.64475131 1
-1.1980152 -7.1590519 -0.69713366 20
-0.14414597 -7.0579381 -0.71968299 0
-0.65868473 -7.060215 -0.76480621 27
-0.6518116 -6.9865441 -0.88121319 32
-0.65102577 -6.9781208 -1.0041864 49
-0.64893001 -6.9556575 -1.1258329 255
-0.67483437 -7.2333169 -1.2992785 6
-0.65078026 -6.9754896 -1.3779083 3
-0.65032703 -6.9706311 -1.5009911 6
-0.64787871 -6.9443884 -1.61905 2
-0.64924461 -6.9590292 -1.745855 3
-0.50490117 -5.4118619 -1.8698479 5
-0.36944383 -3.9599411 -1.8538938 8
-0.19577129 -1.9510379 0.51759911 8
-0.25800782 -2.571281 0.4993681 4
-0.60355026 -6.0149236 0.84571457 19
-0.78578603 -7.831068 0.68331069 5
-1.1314967 -11.276387 0.58302975 14
-1.5466511 -15.413776 0.52282757 27
-2.9759722 -17.051559 0.48137638 22
-0.57829487 -21.099005 0.46276617 23
-2.0484695 -20.41485 0.32875988 4
-4.752562 -27.230967 0.2798329 70
-0.86851972 -31.687817 0.13389079 2
-2.7316394 -27.223255 -0.045364577 66
-4.7554216 -27.247351 -0.20854953 63
-0.89529699 -32.66478 -0.43917444 16
-2.7275388 -27.18239 -0.52836537 62
-4.7581673 -27.263083 -0.69859976 53
-0.89395845 -32.615944 -1.0156919 33
-2.7269747 -27.176767 -1.0125102 64
-4.7690382 -27.325371 -1.1916839 6
-0.19779965 -7.216692 -0.35245612 38
-0.73213321 -7.2963691 -0.40163437 8
-3.0814977 -17.656195 -1.0868033 0
-0.19584863 -7.1455088 -0.47565949 0
-0.72294796 -7.2048297 -0.52475876 0
-1.2999258 -7.4482422 -0.59239459 2
-0.19482459 -7.1081471 -0.59898669 0
-0.71714258 -7.1469736 -0.64762485 0
-1.254125 -7.1858153 -0.70057535 20
-0.19363421 -7.0647159 -0.72049433 0
-0.70835531 -7.059401 -0.76523519 25
-0.7025522 -7.0015678 -0.88370532 31
-0.69972634 -6.9734054 -1.0041864 34
-0.69905096 -6.9666743 -1.1283786 6
-0.70290786 -7.0051117 -1.2591382 2
-0.69789505 -6.9551554 -1.3748206 3
-0.69858485 -6.9620295 -1.5001526 9
-0.69945598 -6.9707112 -1.626286 11
-0.69626212 -6.9388814 -1.7419775 3
-0.54078257 -5.3893871 -1.8633418 5
-0.39635649 -3.9500506 -1.8505138 8
-0.20841049 -1.9341693 0.51351547 9
-0.2827397 -2.6239872 0.50999296 3
-0.65059632 -6.0379086 0.849594 15
-0.83036184 -7.7062354 0.67293131 5
-1.2132703 -11.259846 0.58261877 20
-2.1118653 -19.599325 0.66530657 12
-3.1101985 -17.080427 0.48282194 26
-0.68544507 -19.727352 0.43278018 4
-2.0455265 -18.983664 0.30594534 4
-4.9577794 -27.226879 0.28015685 64
-1.0720197 -30.853106 0.13039358 1
-2.9341218 -27.230339 -0.045411002 62
-4.9636254 -27.258982 -0.20891143 63
-1.1277652 -32.457481 -0.43648672 27
-2.9292929 -27.185522 -0.52882946 66
-4.9593205 -27.23534 -0.69880164 48
-1.1250997 -32.380768 -1.0085979 28
-2.9308271 -27.199762 -1.0141401 63
-3.2252288 -17.712145 -0.77345276 0
-0.25110969 -7.227026 -0.35304129 30
-0.79715151 -7.3980246 -0.40754074 1
-3.219424 -17.680267 -1.0897086 1
-0.24822074 -7.1438808 -0.47565949 0
-0.77446032 -7.1874371 -0.52389139 0
-1.3916376 -7.6425233 -0.60864174 0
-0.24747652 -7.1224618 -0.6003297 0
-0.76993996 -7.1454854 -0.64798409 0
-1.3096191 -7.1920986 -0.70210499 19
-0.24541417 -7.063107 -0.72049433 0
-0.76051027 -7.0579729 -0.7656641 27
-0.75428253 -7.0001755 -0.88420373 31
-0.75040096 -6.9641528 -1.0036191 41
-0.74798501 -6.9417315 -1.1251965 4
-0.75170791 -6.9762816 -1.254913 3
-0.74886012 -6.9498525 -1.3748206 57
-0.75253326 -6.9839416 -1.5060223 2
-0.78309441 -7.2675662 -1.6968367 0
-0.74918664 -6.9528828 -1.7468244 6
-0.58230031 -5.4040818 -1.8698479 5
-0.42491272 -3.9434342 -1.8488238 8
-0.22190845 -1.9326673 0.51351547 9
-0.30911559 -2.6921804 0.52365351 1
-0.69182926 -6.0253487 0.84848559 16
-0.88005006 -7.6646199 0.66981751 6
-1.2959503 -11.286819 0.58446836 15
-2.0411532 -17.777014 0.60391647 0
-3.2330854 -17.077942 0.48337793 30
-0.75677884 -18.131853 0.39788422 6
-2.1223483 -18.484167 0.29812688 25
-4.6574421 -24.60174 0.25347331 8
-1.2243372 -29.334198 0.12400737 0
-3.1246102 -27.213167 -0.045417633 50
-5.1590161 -27.251175 -0.20912255 60
-1.3488295 -32.31694 -0.43471283 33
-3.1222057 -27.192225 -0.5293709 68
-5.1612387 -27.262915 -0.70041662 57
-1.3526331 -32.408073 -1.0097179 24
-3.1247497 -27.21438 -1.0154737 66
-3.2878494 -17.367218 -0.75937438 0
-0.30172437 -7.2290888 -0.35323635 28
-3.1831021 -16.813919 -1.0376563 1
-0.29941988 -7.1738753 -0.47778416 0
-0.82552934 -7.1897821 -0.52446961 1
-3.107996 -16.417189 -1.3091421 2
-0.29636359 -7.1006484 -0.59865093 0
-0.82116938 -7.1518097 -0.64906162 0
-1.3627599 -7.1984291 -0.70363468 18
-0.29538175 -7.0771246 -0.72211707 0
-0.80976564 -7.0524917 -0.7656641 31
-0.80403996 -7.002625 -0.88520056 30
-0.79990494 -6.9666114 -1.0047538 30
-0.79687971 -6.9402637 -1.1258329 3
-0.80039322 -6.9708643 -1.254913 3
-0.80273342 -6.9912457 -1.3840839 40
-0.80841035 -7.040688 -1.5194391 2
-0.82981229 -7.2270837 -1.6886963 3
-0.798594 -6.9551945 -1.7487632 8
-0.61785638 -5.3810964 -1.8633418 5
-0.45284629 -3.9439738 -1.8505138 7
-0.23165129 -1.9003581 0.50534821 9
-0.90291959 -7.4071269 1.4419444 17
-0.73339647 -6.0164394 0.84793139 15
-0.93353593 -7.658289 0.66981751 8
-1.3742296 -11.273532 0.58426285 15
-2.1323121 -17.492483 0.5947417 4
-3.357631 -17.082417 0.48415631 31
-0.88295525 -18.118139 0.39770886 3
-2.2464964 -18.429199 0.29748604 7
-4.8367949 -24.60787 0.25387821 7
-1.4316297 -29.376875 0.124227 0
-3.3217714 -27.250248 -0.045517117 43
-5.3553104 -27.245892 -0.20936382 85
-1.5864818 -32.55442 -0.43804562 26
-3.3153479 -27.197552 -0.52991235 96
-5.3606982 -27.273302 -0.70162791 50
-1.5915006 -32.657406 -1.0178076 23
-3.3185284 -27.223644 -1.0166591 76
-3.3573754 -17.081116 -0.74787134 1
-0.35218555 -7.2268062 -0.35323635 24
-3.3168049 -27.209505 -1.5013162 58
-3.2488151 -16.528801 -1.0214353 2
-0.34891284 -7.1596508 -0.47698739 0
-0.87859809 -7.2076049 -0.52620435 16
-3.1763878 -16.160316 -1.2903955 3
-0.3470923 -7.1222935 -0.60066545 0
-0.8701126 -7.1379938 -0.64834327 0
-1.4160529 -7.2043672 -0.70516431 19
-0.34420109 -7.0629663 -0.72090006 0
-0.85994238 -7.0545621 -0.76652199 33
-0.85434699 -7.0086603 -0.88669586 30
-0.84947813 -6.9687185 -1.0058885 26
-0.8739816 -7.169733 -1.1640183 2
-0.84808493 -6.9572892 -1.2535045 3
-0.85531956 -7.0166388 -1.3902593 14
-0.85186309 -6.9882836 -1.5093765 22
-0.85007048 -6.9735775 -1.6308085 1
-0.85182512 -6.9879723 -1.7584569 10
-0.65769559 -5.3954248 -1.8698479 5
-0.4821232 -3.9551115 -1.8572737 8
-0.24144924 -1.8718444 0.49820188 8
-0.95159459 -7.3772731 1.4373909 24
-0.75764382 -5.873662 0.82853425 2
-0.98799771 -7.6594896 0.67050946 10
-1.4564775 -11.291397 0.58570141 21
-2.1311262 -16.521637 0.56222516 4
-3.4791985 -17.070314 0.48448992 33
-1.0074193 -18.075598 0.39691976 6
-2.3612871 -18.305967 0.29575571 17
-5.0140581 -24.600939 0.25416166 8
-1.8267735 -32.77684 0.13865511 23
-3.5119331 -27.226395 -0.045517117 58
-5.5294094 -27.129456 -0.20876063 34
-1.8916152 -33.940258 -0.45685971 25
-3.5066767 -27.185644 -0.53014439 77
-5.5581522 -27.270479 -0.70253634 53
-1.8879778 -33.874996 -1.0561403 27
-3.51055 -27.215672 -1.0172518 70
-3.4773362 -17.061176 -0.748043 1
-0.40418586 -7.2520952 -0.35460168 22
-3.509748 -27.209454 -1.5026288 57
-3.3306348 -16.341404 -1.0112669 2
-0.39977655 -7.1729808 -0.47804973 0
-0.93144721 -7.2210793 -0.52764994 20
-3.2851448 -16.118212 -1.2888333 6
-0.39636323 -7.1117377 -0.59999394 0
-0.9224723 -7.1515012 -0.65013921 0
-1.4710838 -7.2177148 -0.70745873 18
-0.39416581 -7.0723109 -0.72211707 0
-0.90917158 -7.0483871 -0.76652199 31
-0.90376359 -7.0064611 -0.88719428 29
-0.89962792 -6.9743991 -1.0075904 27
-0.94220173 -7.3044548 -1.1869296 10
-0.89462042 -6.9355788 -1.2506876 3
-0.90378207 -7.0066047 -1.3894874 1
-0.89812803 -6.9627714 -1.5051838 5
-0.89873451 -6.9674735 -1.6308085 4
-0.8971144 -6.9549131 -1.7516713 14
-0.69631451 -5.3982043 -1.8724504 5
-0.51018715 -3.955245 -1.8589636 9
-0.26181284 -1.9237639 0.51249456 7
-0.72185344 -5.3040771 1.0344054 4
-0.72651398 -5.3383222 0.75371677 3
-1.0387601 -7.6326628 0.66877955 12
-1.5352708 -11.280953 0.58570141 20
-2.1445274 -15.757687 0.53672469 5
-3.6065454 -17.08473 0.4856019 35
-1.1348339 -18.088079 0.39735815 6
-2.4879508 -18.281111 0.29562753 6
-5.1964231 -24.616211 0.25468802 12
-2.0532925 -32.72736 0.13850306 30
-3.7078569 -27.24481 -0.045590073 49
-5.7550249 -27.26239 -0.21008764 59
-2.1167378 -33.738613 -0.45433325 29
-3.7012365 -27.196165 -0.53084052 69
-5.7574859 -27.274048 -0.70364672 58
-2.0988808 -33.453987 -1.0434457 25
-3.705317 -27.226149 -1.0185854 73
-3.5955355 -17.032576 -0.74787134 1
-0.45480344 -7.2490969 -0.35460168 18
-3.7060833 -27.231777 -1.5052538 62
-3.4372163 -16.282593 -1.009088 1
-0.53256285 -8.4885015 -0.56595778 0
-0.98452711 -7.2341666 -0.52909559 21
-3.3761761 -15.993438 -1.2807096 23
-0.44749865 -7.1326656 -0.60200846 0
-0.97506273 -7.1646237 -0.65193516 0
-1.5288388 -7.2423315 -0.71090043 14
-0.44327942 -7.0654154 -0.7217114 1
-0.96050155 -7.0576301 -0.76823777 26
-0.95372629 -7.0078464 -0.8881911 29
-0.95043224 -6.9836421 -1.0098598 27
-0.99051076 -7.2781339 -1.1837474 3
-0.94779688 -6.9642777 -1.2570256 3
-0.97807997 -7.1867938 -1.4265404 13
-0.95146221 -6.99121 -1.5127307 3
-0.95891422 -7.0459666 -1.6507074 3
-0.94931018 -6.9753976 -1.7584569 2
-0.73551428 -5.4044552 -1.876354 4
-0.53583193 -3.9372175 -1.8522037 9
-0.27742997 -1.937203 0.5165782 5
-1.0539485 -7.3593788 1.4366319 37
-0.72613811 -5.0703855 0.71658516 3
-1.0948454 -7.644948 0.67050946 10
-1.6162544 -11.285778 0.58652341 23
-2.2074454 -15.413871 0.52552605 6
-3.7334099 -17.094294 0.48660269 35
-1.2602501 -18.067749 0.39709511 8
-3.0260155 -21.129681 0.34202561 14
-5.3749771 -24.610596 0.25501198 11
-2.0370734 -29.204781 0.12365258 1
-3.9002395 -27.2341 -0.045616601 53
-5.9520402 -27.252811 -0.21032891 62
-2.3435986 -33.599323 -0.45266685 42
-3.8978145 -27.217167 -0.53176868 67
-5.9528732 -27.256628 -0.7042523 55
-2.3337734 -33.458462 -1.044068 28
-3.898701 -27.223356 -1.0194745 73
-3.7237372 -17.050005 -0.74975991 1
-0.50567859 -7.2497301 -0.35479674 17
-3.8983715 -27.221056 -1.5061288 58
-3.5422873 -16.219194 -1.006667 2
-0.50016481 -7.1706815 -0.47831532 0
-1.0384005 -7.2508121 -0.53083032 16
-3.4843457 -15.953894 -1.27946 54
-0.49700579 -7.1253915 -0.60167271 0
-1.0239279 -7.149755 -0.6512168 1
-1.5844599 -7.2548218 -0.71319491 14
-0.4928714 -7.0661182 -0.72211707 4
-1.0120049 -7.0664997 -0.76995355 22
-1.0031896 -7.0049458 -0.88868958 29
-1.0014094 -6.9925151 -1.0121292 26
-1.0368189 -7.239768 -1.1786561 7
-0.99862635 -6.9730821 -1.2598424 3
-1.0504854 -7.335197 -1.4574178 8
-1.0013558 -6.9921403 -1.5144078 1
-0.99813825 -6.9696736 -1.6344265 47
-0.99853462 -6.9724417 -1.7594264 13
-0.77376276 -5.4029331 -1.8776553 4
-0.56433374 -3.9405582 -1.8555837 8
-0.29658175 -1.9773927 0.52780813 4
-1.1009856 -7.3405762 1.4343553 38
-0.76268715 -5.0850468 0.71935618 1
-1.1461141 -7.6414604 0.6708554 8
-2.0762081 -13.842654 0.72010446 7
-2.1548569 -14.367027 0.49031109 8
-3.8510971 -17.088659 0.48715866 37
-1.380967 -18.070955 0.39735815 10
-3.1726077 -21.152655 0.34273055 11
-5.5477562 -24.617327 0.25545737 13
-2.2444382 -29.370102 0.12441284 4
-4.0872979 -27.251146 -0.045689557 44
-6.1458478 -27.271267 -0.21078129 72
-2.4453976 -31.9998 -0.4313263 14
-4.0782347 -27.19072 -0.53176868 70
-6.1449442 -27.267258 -0.70556456 54
-2.3862479 -31.225784 -0.97487009 10
-4.0797548 -27.200855 -1.0196227 76
-3.8472788 -17.071716 -0.75182015 1
-0.55557626 -7.2701187 -0.35596704 9
-4.0811868 -27.210402 -1.5070039 56
-3.6611905 -16.245977 -1.0098144 1
-0.54801595 -7.171186 -0.47858089 0
-1.0906078 -7.2713838 -0.5328542 5
-3.590956 -15.934322 -1.2797723 27
-0.545771 -7.1418095 -0.60335153 0
-1.0736866 -7.158566 -0.65265357 22
-1.6465468 -7.3063016 -0.71931344 10
-0.54033148 -7.0706296 -0.72292846 14
-1.0612075 -7.0753646 -0.77166933 21
-1.0496247 -6.9981384 -0.88868958 25
-1.047762 -6.9857202 -1.0121292 23
-1.0479083 -6.9866948 -1.1385614 3
-1.0466024 -6.9779878 -1.261955 3
-1.0484622 -6.9903874 -1.3902593 5
-1.0442252 -6.9621387 -1.5093765 0
-1.0426056 -6.9513407 -1.6317129 13
-1.0436029 -6.9579902 -1.7574877 26
-0.80845618 -5.3902011 -1.8750528 4
-0.59099305 -3.9403143 -1.8572737 8
-0.31037933 -1.9752741 0.52780813 1
-1.1528152 -7.3365908 1.4351141 41
-0.81477177 -5.1852603 0.73431963 0
-1.198815 -7.6293359 0.67050946 8
-1.1738315 -7.4703388 0.38902903 1
-2.2631724 -14.402974 0.4920651 16
-3.9757383 -17.084726 0.48782587 34
-1.5067599 -18.05689 0.39727047 10
-3.3245494 -21.157648 0.34317917 12
-5.7285423 -24.616955 0.25586227 14
-2.3276861 -27.8948 0.11822937 0
-4.2824144 -27.253563 -0.045742612 50
-6.3460536 -27.270554 -0.21111304 65
-2.4841487 -29.769838 -0.40149254 20
-4.271687 -27.185291 -0.53223276 66
-6.3433061 -27.258747 -0.70647299 50
-2.4339654 -29.168447 -0.91114819 22
-4.2794809 -27.234892 -1.0219936 74
-3.9717987 -17.067797 -0.75285029 1
-0.61130118 -7.3257837 -0.3588928 3
-4.2766314 -27.216757 -1.5089726 23
-3.1799684 -13.665107 -0.85075223 4
-0.59906256 -7.1791172 -0.47937766 0
-1.1679742 -7.4330635 -0.54528648 0
-3.1109996 -13.368731 -1.0754337 13
-0.59462261 -7.1259093 -0.60234421 1
-1.1285838 -7.1823802 -0.65552711 23
-3.0881915 -13.270719 -1.3086075 6
-0.59166604 -7.0904784 -0.72536254 25
-1.1124289 -7.0795693 -0.77295613 18
-1.1009196 -7.0063233 -0.89068323 25
-1.0977353 -6.9860582 -1.0132638 21
-1.0911421 -6.944098 -1.1328336 3
-1.0952923 -6.9705114 -1.261955 2
-1.0954111 -6.9712663 -1.3879435 3
-1.0994829 -6.9971795 -1.5186005 1
-1.0947387 -6.9669876 -1.6371399 13
-1.0915511 -6.9467015 -1.7565182 3
-0.84959 -5.4068456 -1.8828601 4
-0.62073833 -3.9504185 -1.8640335 8
-0.62888634 -3.827811 1.0239682 12
-1.2001859 -7.3051109 1.4305606 34
-0.84131837 -5.12081 0.72600663 1
-1.2552788 -7.6404424 0.67223936 7
-1.2259556 -7.4619622 0.38902903 2
-2.3610764 -14.371045 0.49152541 15
-4.0977154 -17.068216 0.48815945 33
-1.9084531 -21.092749 0.46434438 17
-3.4741216 -21.145761 0.34337142 11
-5.9077315 -24.607477 0.25618622 19
-2.577873 -28.49136 0.12083116 23
-4.4790606 -27.262472 -0.045808937 47
-6.5474882 -27.272257 -0.21147496 62
-2.5318909 -27.983154 -0.37762552 12
-4.4704485 -27.210054 -0.53331566 75
-6.539988 -27.241016 -0.70717955 50
-2.4793751 -27.402735 -0.85651165 16
-4.4766402 -27.24774 -1.0236236 70
-4.1132474 -17.132912 -0.75697076 0
-0.67394859 -7.4486651 -0.36513442 2
-3.2109787 -13.374691 -0.83404708 2
-0.65168345 -7.2025847 -0.48123673 0
-1.2534713 -7.6294403 -0.56032091 1
-3.1390901 -13.075253 -1.0535625 22
-0.64650965 -7.1454024 -0.60435879 1
-1.1786988 -7.1743259 -0.65552711 23
-3.1212749 -13.001048 -1.2841332 20
-0.64294374 -7.1059914 -0.72739094 23
-1.1637608 -7.0834041 -0.774243 18
-1.1504495 -7.0023832 -0.89118165 24
-1.1490481 -6.9938531 -1.0155332 21
-1.1440759 -6.9635887 -1.1372886 3
-1.1866987 -7.2230186 -1.3091376 4
-1.1434166 -6.9595761 -1.3871715 2
-1.1470374 -6.9816151 -1.5169234 3
-1.1439825 -6.9630203 -1.6380445 11
-1.1425382 -6.9542298 -1.7603958 3
-0.88670295 -5.3970504 -1.8815589 4
-0.6477145 -3.9424114 -1.8623435 8
-0.65624785 -3.8271387 1.0249891 18
-1.2524836 -7.304296 1.4320785 23
-0.871692 -5.0835767 0.721573 0
-1.3058947 -7.6157818 0.6708554 4
-1.2773451 -7.4492841 0.38882351 3
-2.464726 -14.373911 0.49220002 24
-4.2283006 -17.08577 0.48949382 34
-2.0579906 -21.102791 0.46487045 45
-3.6257184 -21.144644 0.34375593 11
-6.0889883 -24.60446 0.25659111 13
-2.6532559 -27.206686 0.11545864 61
-4.6740117 -27.258133 -0.045855362 54
-6.7444506 -27.253059 -0.21168606 58
-2.6526518 -27.200493 -0.36730465 52
-4.6636815 -27.197889 -0.53370237 85
-6.7492185 -27.272327 -0.70919836 50
-2.6516068 -27.189777 -0.85041326 57
-4.6694589 -27.231581 -1.0242163 74
-4.2682781 -17.247313 -0.76332319 0
-0.75269085 -7.7181487 -0.37859288 3
-3.0577979 -17.832617 -0.9909606 0
-3.2515199 -13.138783 -0.8207314 1
-0.70233846 -7.2018318 -0.48150232 1
-2.967392 -17.305384 -1.2724315 1
-3.1967669 -12.917536 -1.042627 4
-0.69560444 -7.1327806 -0.60368729 0
-1.2321228 -7.185555 -0.65732306 22
-3.1737027 -12.824338 -1.2688369 27
-0.69292349 -7.1052899 -0.72779667 21
-1.2152004 -7.0868659 -0.7755298 18
-1.2033319 -7.0176511 -0.89417219 23
-1.2005233 -7.0012708 -1.0178025 21
-1.1960002 -6.9748931 -1.1404706 18
-1.2404233 -7.2339621 -1.3126587 5
-1.205242 -7.0287905 -1.4026103 2
-1.1931064 -6.9580169 -1.5135692 2
-1.1892731 -6.9356623 -1.6335219 2
-1.2074569 -7.041707 -1.7846303 6
-0.92435998 -5.390728 -1.8815589 4
-0.67644745 -3.9449399 -1.8657235 8
-0.5897581 -3.300873 0.88512504 11
-0.74462825 -4.1676807 0.81811374 9
-0.89949536 -5.034471 0.71547675 0
-1.3492167 -7.551559 0.66601169 5
-1.3321283 -7.455915 0.38964555 5
-2.5650113 -14.356355 0.49220002 20
-4.3593302 -17.102329 0.49082822 34
-2.2065134 -21.099842 0.46513349 6
-3.7788696 -21.150314 0.34426862 12
-6.2764187 -24.623365 0.25723895 9
-2.8460419 -27.215349 0.1155769 65
-4.8677063 -27.244528 -0.045888525 60
-6.945416 -27.247946 -0.2120178 68
-2.8441463 -27.197222 -0.36751968 59
-4.8611755 -27.207975 -0.53455323 73
-5.0944619 -19.986364 -0.52064407 3
-2.8463526 -27.218321 -0.85190678 52
-4.8643718 -27.225864 -1.0252535 73
-3.5317931 -13.855773 -0.61429834 0
-2.8401883 -27.159374 -1.3331697 46
-3.1583302 -17.677158 -0.98352289 0
-3.2978022 -12.937791 -0.80959463 0
-0.75384498 -7.2086616 -0.48229906 3
-3.0242763 -16.926859 -1.2461213 1
-3.2573209 -12.778976 -1.0332537 5
-0.75118756 -7.1832504 -0.60838783 0
-1.2871604 -7.2042308 -0.65983742 21
-3.2356191 -12.693836 -1.2581294 32
-0.74002755 -7.0765324 -0.72536254 45
-1.2660435 -7.0860395 -0.77638769 19
-1.2543875 -7.0208001 -0.89566749 25
-1.2528524 -7.0122089 -1.0206392 22
-1.2460524 -6.9741492 -1.1417435 21
-1.239646 -6.938292 -1.2605467 2
-1.2929381 -7.2365685 -1.4458388 2
-1.2877407 -7.2074785 -1.5697516 3
-1.2438302 -6.9617119 -1.6416625 0
-1.2750151 -7.1362529 -1.8108035 2
-0.9646315 -5.3990378 -1.8867637 4
-0.7007826 -3.9222767 -1.8572737 9
-0.71244574 -3.832813 1.0290728 17
-0.70408684 -3.7878437 0.74449867 4
-0.92014164 -4.9501743 0.70439267 1
-1.3931645 -7.4949408 0.66185993 4
-1.3826878 -7.4385786 0.38923454 6
-2.6746726 -14.389193 0.493954 25
-4.4897814 -17.114021 0.49205139 34
-2.8560193 -25.582888 0.56438535 4
-3.9330127 -21.158808 0.34484538 15
-5.2149682 -19.878269 0.20804247 19
-3.0390778 -27.222641 0.11569516 94
-5.0665627 -27.257074 -0.045968112 51
-5.1673818 -19.69688 -0.15353949 15
-3.0361681 -27.196577 -0.36778846 51
-5.0561209 -27.200899 -0.53509468 104
-5.117177 -19.50551 -0.50903606 20
-3.0376337 -27.209705 -0.85228014 54
-5.0616307 -27.230541 -1.0267353 68
-3.58179 -13.652966 -0.60640073 1
-3.0337167 -27.17462 -1.3349252 61
-3.1736367 -17.073519 -0.95114714 0
-3.3586626 -12.802455 -0.80257362 0
-0.80459529 -7.2071896 -0.48256466 21
-3.0789435 -16.564089 -1.2209675 2
-3.3282406 -12.686494 -1.0276297 3
-0.81281573 -7.2808242 -0.61711746 0
-1.3417923 -7.2185693 -0.66199261 19
-3.3140559 -12.632425 -1.2543052 43
-0.79029602 -7.0791035 -0.72617394 44
-1.3191165 -7.0965776 -0.77853245 18
-1.3077232 -7.035284 -0.89865804 24
-1.3046708 -7.0188627 -1.0229086 23
-1.2975974 -6.9808097 -1.1442891 21
-1.2974087 -6.9797945 -1.2697015 3
-1.2975228 -6.9804082 -1.3964348 3
-1.3015743 -7.0022044 -1.5269859 2
-1.5152788 -8.1518917 -1.92477 4
-1.4028176 -7.5468726 -1.9174354 4
-1.0023004 -5.3921719 -1.8867637 5
-0.73079836 -3.9315462 -1.8640335 9
-0.74419576 -3.8464732 1.0341773 26
-0.71392995 -3.6900403 0.72628462 8
-0.95414603 -4.9316287 0.70273006 4
-1.4321715 -7.4023662 0.65459436 4
-1.4386957 -7.4360871 0.38964555 8
-2.7793193 -14.365275 0.49381909 6
-4.6140661 -17.076792 0.4919402 51
-2.1493914 -18.05212 0.39858565 7
-4.0948462 -21.164749 0.34542215 11
-5.253077 -19.44179 0.20387191 53
-3.2399666 -27.21155 0.11574584 87
-5.2723088 -27.25062 -0.046021167 54
-5.2531972 -19.442234 -0.1518506 54
-3.2406487 -27.217278 -0.36837974 55
-5.2652531 -27.214149 -0.53610021 77
-5.2558455 -19.452038 -0.5086323 49
-3.2384269 -27.198618 -0.8526535 53
-5.2694564 -27.235876 -1.0283654 65
-3.5910823 -13.2907 -0.59146392 2
-3.2347243 -27.167521 -1.3357054 65
-3.2387714 -16.740013 -0.93386549 0
-3.4451261 -12.750511 -0.80087888 1
-0.86118001 -7.2328033 -0.48468933 20
-3.1517808 -16.290392 -1.2024636 0
-3.4107432 -12.62326 -1.0245053 26
-0.85438353 -7.1757221 -0.60872358 0
-1.3999681 -7.235919 -0.66450691 15
-3.4055254 -12.603949 -1.2539228 47
-0.84546047 -7.10078 -0.72901368 35
-1.3748788 -7.1062407 -0.78067714 20
-1.3630286 -7.044992 -0.90115017 22
-1.3613514 -7.0363231 -1.0268799 20
-1.3547355 -7.0021276 -1.1493806 20
-1.3515301 -6.9855599 -1.2725183 22
-1.3546211 -7.0015364 -1.4026103 2
-1.3580686 -7.0193553 -1.5328557 2
-1.5742542 -8.1367388 -1.9238656 3
-1.4595754 -7.5440068 -1.9193742 5
-1.0396445 -5.373539 -1.8828601 3
-0.75408906 -3.8976083 -1.8505138 8
-0.7435385 -3.7042191 0.73007923 22
-0.99167055 -4.9403834 0.70494688 8
-1.4814621 -7.3804655 0.65355641 5
-1.4945053 -7.4454451 0.3906731 10
-3.5593004 -17.732006 0.61039281 7
-4.7513599 -17.109659 0.49383056 34
-2.265352 -17.957325 0.39683208 12
-4.2456527 -21.151329 0.34567851 12
-5.4025917 -19.454744 0.20439829 52
-3.4343596 -27.223984 0.11589789 72
-5.4380221 -27.091572 -0.045815568 20
-5.4027147 -19.455187 -0.15224266 51
-3.4325783 -27.209866 -0.36859477 56
-5.4621992 -27.212017 -0.53679633 96
-5.4043574 -19.461103 -0.50984353 48
-3.4332278 -27.215014 -0.85389805 53
-5.4665504 -27.233696 -1.029699 52
-3.6217613 -13.04197 -0.58150601 1
-3.4303048 -27.191843 -1.338046 63
-3.3217604 -16.548611 -0.92445904 2
-3.5415356 -12.753078 -0.80257362 33
-0.91265088 -7.2345352 -0.48522049 18
-3.2481589 -16.181936 -1.196103 12
-3.500921 -12.606824 -1.0251302 49
-0.90645254 -7.185401 -0.61006659 0
-1.4629948 -7.2884641 -0.67025399 4
-3.4945002 -12.583703 -1.2543052 40
-0.89700335 -7.1104975 -0.73063642 28
-1.4260215 -7.1042671 -0.78153503 18
-1.4145221 -7.0469785 -0.90264541 23
-1.4127787 -7.0382938 -1.028582 20
-1.4066954 -7.007987 -1.1519263 23
-1.4041401 -6.9952569 -1.2760394 20
-1.4073302 -7.0111489 -1.4064699 2
-1.4155067 -7.0518837 -1.5420797 1
-1.6363888 -8.1522923 -1.930197 3
-1.5137345 -7.5412431 -1.9213129 5
-1.0801111 -5.3809838 -1.888065 4
-0.7855621 -3.9135759 -1.8606535 9
-0.80019146 -3.8470669 1.03724 19
-0.76858085 -3.6950927 0.72932029 13
-1.0237164 -4.9217038 0.70328426 9
-1.5321398 -7.3660417 0.65321046 8
-1.5472611 -7.4387407 0.39087862 12
-3.6952176 -17.765434 0.61241663 6
-4.8783693 -17.102985 0.49460894 36
-2.3943601 -17.968821 0.39744583 13
-4.3997288 -21.152498 0.3461912 14
-5.5470567 -19.447323 0.20472221 51
-3.6280332 -27.227098 0.11601616 82
-5.6693816 -27.256588 -0.046160445 52
-5.5482802 -19.451614 -0.1525141 51
-3.6272097 -27.220919 -0.36907855 58
-5.6618142 -27.220205 -0.53772449 115
-5.5532522 -19.469044 -0.51105481 27
-3.625253 -27.206234 -0.85439587 55
-5.6638699 -27.230089 -1.0310326 64
-3.6677804 -12.858804 -0.57446682 14
-3.6242774 -27.198912 -1.3396064 60
-3.4640508 -16.654057 -0.93167794 0
-3.631578 -12.731882 -0.80281574 49
-0.96577108 -7.2477679 -0.48654839 15
-3.3391151 -16.053406 -1.1882967 10
-3.5954111 -12.605085 -1.0270048 45
-0.95712042 -7.1828485 -0.61040235 0
-1.5527834 -7.4652896 -0.68749529 1
-3.5844502 -12.566658 -1.2550701 42
-0.9492501 -7.1237845 -0.73266488 27
-1.4844923 -7.1369681 -0.78625339 17
-1.4667188 -7.0515189 -1.031986 20
-1.4612153 -7.0250592 -1.1563812 22
-1.4585549 -7.0122685 -1.2809689 19
-1.4650346 -7.0434213 -1.4149613 2
-1.4710753 -7.072463 -1.5487881 0
-1.6956429 -8.152113 -1.9329106 4
-1.5687162 -7.5418897 -1.9242212 5
-1.1184214 -5.3770151 -1.8893661 4
-0.81507975 -3.9186449 -1.8657235 9
-0.83191276 -3.8640723 1.0433654 23
-0.80179727 -3.7241919 0.73615056 10
-1.0613855 -4.9299283 0.70550108 11
-1.581848 -7.3473749 0.65251851 7
-1.6016763 -7.4394741 0.39149514 15
-3.5221329 -16.359619 0.5647887 1
-5.0100112 -17.110723 0.49583212 32
-2.5191915 -17.947706 0.39735815 13
-4.5565486 -21.164278 0.34689614 13
-5.6939287 -19.44651 0.20512712 51
-3.8219175 -27.228836 0.11613443 80
-5.8729944 -27.278912 -0.046266563 53
-5.6996784 -19.466148 -0.15293632 49
-3.8216066 -27.22662 -0.36950859 57
-5.8609619 -27.223024 -0.53857535 71
-5.6957779 -19.452827 -0.51166046 47
-3.8212125 -27.223814 -0.85576493 52
-5.8656063 -27.244595 -1.033107 64
-3.7608311 -12.844391 -0.57498187 23
-3.8146286 -27.176907 -1.3398014 63
-3.5642579 -16.555283 -0.92752159 0
-3.7259843 -12.725378 -0.80402625 46
-1.0202298 -7.2685161 -0.48840749 3
-3.4401884 -15.979003 -1.184538 74
-3.6878057 -12.594986 -1.0282546 43
-1.0089049 -7.1878333 -0.6114096 1
-1.626662 -7.5555277 -0.69683433 1
-3.6799264 -12.568076 -1.2577469 11
-0.99840713 -7.1130428 -0.73225915 33
-1.5384651 -7.1458702 -0.78839815 17
-1.5336574 -7.1235394 -0.915106 2
-1.5209106 -7.064333 -1.03539 28
-1.5185338 -7.0532932 -1.1627455 21
-1.5149312 -7.0365596 -1.2873069 18
-1.5149957 -7.036859 -1.4157332 2
-1.9188319 -8.9125996 -1.9546427 3
-1.7533325 -8.1438866 -1.933815 3
-1.6213286 -7.5307546 -1.9242212 4
-1.1551354 -5.3653784 -1.888065 4
-0.84089017 -3.9057708 -1.8623435 9
-0.85970914 -3.8619454 1.0443863 28
-0.83204436 -3.7376709 0.73994517 23
-1.1009417 -4.9455986 0.7088263 13
-2.1448557 -9.6350212 0.85699272 2
-1.6535746 -7.4281106 0.39149514 13
-3.6406021 -16.354143 0.56546336 2
-5.1339417 -17.090649 0.49627692 24
-4.0144906 -27.218935 0.60322684 52
-4.7111444 -21.163183 0.34740883 10
-5.8433561 -19.452255 0.20561302 50
-4.0148358 -27.221275 0.11621889 73
-6.0702472 -27.26848 -0.046319619 47
-5.8480926 -19.468021 -0.15326807 39
-4.0168438 -27.234888 -0.36999238 53
-6.0586925 -27.216576 -0.53927147 71
-5.8291402 -19.404932 -0.51145858 2
-4.0158448 -27.228115 -0.85676056 50
-6.0626144 -27.234194 -1.0342925 62
-3.8573055 -12.840788 -0.57601202 21
-4.0106788 -27.193089 -1.341947 70
-3.7023134 -16.631359 -0.93320924 0
-3.819325 -12.714352 -0.80499464 43
-1.104143 -7.4862785 -0.5035457 1
-3.5559933 -15.974067 -1.1859837 34
-3.782526 -12.591849 -1.0301292 42
-1.0619688 -7.2003307 -0.61308837 21
-1.694086 -7.6100941 -0.70294058 1
-3.7652845 -12.534453 -1.2569821 1
-1.0521057 -7.1334572 -0.73509896 17
-1.5969567 -7.1737742 -0.79268754 17
-1.5868013 -7.1281548 -0.91709971 0
-1.5753541 -7.0767322 -1.038794 20
-1.5711704 -7.0579386 -1.1652912 20
-1.5708634 -7.0565596 -1.2929406 16
-1.5743192 -7.0720835 -1.4249965 1
-1.9852562 -8.9180746 -1.9588354 4
-1.8160712 -8.1580706 -1.9401466 3
-1.6747068 -7.5230398 -1.9251904 4
-1.1580453 -5.202117 -1.8334138 5
-0.86971265 -3.9068828 -1.8657235 9
