# .PCD v0.7 - Point Cloud Data file format
VERSION 0.7
FIELDS x y z intensity
SIZE 4 4 4 4
TYPE F F F F
COUNT 1 1 1 1
WIDTH 1321
HEIGHT 1
VIEWPOINT 0 0 0 1 0 0 0
POINTS 1321
DATA ascii
-17.406065 -4.0345106 -1.6109803 45
-17.777534 -2.7775333 -1.7281114 41
-7.9635239 -2.4666457 -0.84990746 4
-8.1347456 -1.8855336 -1.0486835 0
-7.6875978 -1.7818902 -1.1307026 0
-7.2478528 -1.6799626 -1.1990216 8
-7.1499853 -1.6572783 -1.3126587 3
-7.0618987 -1.636861 -1.4257684 16
-7.0753694 -1.6399832 -1.5571735 10
-7.0107746 -1.625011 -1.6706064 12
-7.1754522 -1.6631812 -1.839885 2
-5.589766 -1.2956387 -1.9739453 6
-1.5681341 -0.3634741 -0.75034529 7
-2.6830616 -0.60219425 0.72586381 5
-2.8356898 -0.63645059 0.56159937 13
-3.1772451 -0.71311027 0.45555529 4
-6.2601261 -1.4050412 0.557028 11
-10.726607 -2.4075115 0.56556147 12
-17.233217 -3.8678741 0.59609091 28
-15.368121 -2.2912991 0.43211564 3
-12.311351 -3.7193599 0.28197348 58
-17.502279 -3.9282632 0.28742456 25
-16.362291 -2.4395242 0.16747054 16
-17.10816 -5.1685147 0.075485684 45
-17.508404 -3.9296377 -0.029752264 29
-17.885786 -2.6666684 -0.13634886 37
-17.095282 -5.1646242 -0.24001394 28
-17.466131 -3.92015 -0.34621042 42
-17.89642 -2.6682537 -0.45674959 34
-17.092375 -5.1637464 -0.55582404 34
-17.480808 -3.923444 -0.66414028 46
-17.850048 -2.6613402 -0.77534133 37
-17.06119 -5.154325 -0.87011999 42
-17.462738 -3.9193888 -0.9802416 39
-17.865349 -2.6636212 -1.095277 52
-17.055279 -5.1525393 -1.1855633 46
-17.466524 -3.9202383 -1.297296 35
-17.847424 -2.6609488 -1.413811 36
-17.059383 -5.1537795 -1.50116 34
-17.437693 -3.9137673 -1.6113396 45
-17.827995 -2.6580522 -1.7311707 38
-7.9767418 -2.4098389 -0.84950179 4
-8.5756807 -1.924751 -0.94796509 0
-8.3258448 -1.8686773 -1.071611 0
-7.9471111 -1.783673 -1.1670122 0
-7.3595877 -1.6518075 -1.2155685 6
-7.2343779 -1.6237051 -1.3260387 8
-7.1842103 -1.6124455 -1.4481546 11
-7.2469254 -1.6265213 -1.5923922 1
-7.158813 -1.6067451 -1.7031683 3
-7.2020345 -1.6164459 -1.8437625 1
-5.5986748 -1.2565831 -1.9739453 6
-1.567096 -0.35172364 -0.74865532 8
-2.6758621 -0.58098656 0.72280109 7
-2.8784432 -0.62497121 0.56918859 5
-3.1976311 -0.69427371 0.45777211 3
-6.386611 -1.386669 0.56740737 4
-10.81342 -2.3478236 0.56926066 3
-17.271521 -3.7500143 0.59649569 30
-17.644196 -2.5048587 0.49560973 28
-17.143694 -5.048913 0.39183441 25
-17.541 -3.8085241 0.28761682 26
-16.367044 -2.3235478 0.16734907 17
-17.151501 -5.0512118 0.075519472 41
-17.543228 -3.8090079 -0.02976553 31
-17.682196 -2.5102534 -0.13465996 44
-17.134756 -5.0462809 -0.24006771 28
-17.512615 -3.802361 -0.34659716 43
-17.665192 -2.5078394 -0.4503904 50
-17.116503 -5.0409045 -0.55545068 35
-17.519493 -3.8038545 -0.66458482 45
-17.83654 -2.5321648 -0.77396786 21
-17.10059 -5.0362182 -0.87031502 41
-17.505289 -3.8007705 -0.98111659 41
-17.658188 -2.506845 -1.081477 42
-17.090834 -5.0333452 -1.1855633 49
-17.501263 -3.7998965 -1.2978743 40
-17.644466 -2.5048971 -1.3963141 47
-17.09877 -5.0356822 -1.5014958 38
-17.476271 -3.7944698 -1.6124171 46
-17.593821 -2.4977071 -1.7066964 52
-8.0048227 -2.3574646 -0.85071886 5
-8.8259783 -1.9163074 -0.97413063 0
-8.5481243 -1.8559796 -1.098526 0
-8.1954031 -1.7793964 -1.2016197 1
-7.5021501 -1.6288763 -1.2372069 4
-7.4417787 -1.6157683 -1.3619537 1
-7.3755579 -1.6013905 -1.4844357 0
-7.6059122 -1.6514052 -1.6686996 0
-7.3754706 -1.6013715 -1.7520111 0
-7.3913865 -1.6048272 -1.8893234 3
-5.6073108 -1.2174665 -1.9739453 5
-1.5588845 -0.33846697 -0.74358547 8
-2.6079361 -0.54720157 0.70340389 3
-5.3003912 -1.1121371 1.0465481 16
-3.2683091 -0.68576223 0.46719357 3
-6.3571353 -1.333865 0.56394756 3
-10.684894 -2.2419226 0.56165683 3
-12.668761 -2.6581812 0.43688148 2
-17.681067 -2.3842897 0.49616572 31
-16.063787 -4.6092482 0.36640769 1
-17.578905 -3.688436 0.28780907 29
-16.414577 -2.2135041 0.16767299 12
-17.182501 -4.9302454 0.075502582 43
-17.577225 -3.6880832 -0.029778793 32
-17.723076 -2.3899548 -0.13484092 50
-17.165726 -4.9254317 -0.24001394 26
-17.55439 -3.6832922 -0.34690654 43
-17.706045 -2.3876584 -0.45099604 45
-17.166649 -4.9256968 -0.5559485 35
-17.557358 -3.6839149 -0.66502935 46
-17.663679 -2.3819454 -0.76572686 60
-17.143013 -4.9189153 -0.87070513 42
-17.543125 -3.6809285 -0.9817729 38
-17.675259 -2.3835065 -1.081477 47
-17.140903 -4.9183097 -1.1866257 50
-17.546888 -3.6817181 -1.29932 39
-17.673378 -2.3832531 -1.3972515 46
-17.133509 -4.9161878 -1.5014958 36
-17.510136 -3.6740065 -1.6131355 50
-17.658182 -2.3812039 -1.7112854 45
-7.998136 -2.2949378 -0.84828472 5
-8.9714756 -1.8824104 -0.98871475 0
-8.9065714 -1.8687921 -1.1428857 0
-8.4943905 -1.7823075 -1.2436026 3
-7.7375031 -1.6234961 -1.2741195 2
-7.8266773 -1.6422069 -1.4302627 1
-7.8090868 -1.6385159 -1.5693488 2
-7.8469224 -1.6464547 -1.7190121 2
-7.7067928 -1.6170524 -1.8279889 2
-7.6302938 -1.6010014 -1.9474863 1
-5.615674 -1.1782904 -1.9739453 7
-1.5399202 -0.3231087 -0.73344564 8
-1.9635077 -0.39769575 0.52882904 4
-5.2964783 -1.0727674 1.0442713 22
-3.3157256 -0.67157871 0.47328979 3
-6.374104 -1.2910334 0.56463951 4
-10.919538 -2.2116816 0.5731653 8
-17.353542 -3.5148475 0.59757507 25
-17.467239 -2.2314074 0.48971623 26
-12.37884 -3.4585602 0.28179812 0
-17.608149 -3.5664163 0.28787315 36
-16.457405 -2.1024029 0.16795644 9
-17.204945 -4.8069396 0.075451896 67
-17.610384 -3.566869 -0.029792057 32
-17.755198 -2.2681935 -0.13496155 50
-17.222805 -4.8119302 -0.24033648 32
-17.579678 -3.5606496 -0.34690654 42
-17.742115 -2.2665222 -0.45150074 49
-17.216022 -4.8100348 -0.55644631 33
-17.578732 -3.5604579 -0.66488117 47
-17.723486 -2.2641423 -0.76761538 54
-17.184631 -4.8012643 -0.87109524 39
-17.576223 -3.5599504 -0.9822104 44
-17.719191 -2.2635934 -1.0831717 57
-17.18251 -4.8006716 -1.1871568 46
-17.572165 -3.5591278 -1.29932 35
-17.701454 -2.2613277 -1.3981888 50
-17.163576 -4.7953815 -1.50116 38
-17.55488 -3.5556271 -1.6149315 49
-17.705971 -2.2619047 -1.7143446 46
-8.0216274 -2.2411859 -0.84909612 5
-17.547838 -3.5542006 -1.9311036 50
-9.152792 -1.8538386 -1.1727911 0
-8.6152868 -1.7449706 -1.2594881 2
-8.0582848 -1.6321533 -1.3250334 1
-8.0154734 -1.6234821 -1.4626566 0
-8.2857857 -1.6782322 -1.6627532 1
-8.3680515 -1.6948947 -1.8305383 1
-8.8177223 -1.7859725 -2.088484 1
-8.1205301 -1.6447606 -2.0696282 2
-5.6163492 -1.1375551 -1.9713428 7
-1.5776715 -0.31954715 -0.75034529 8
-1.8941156 -0.36989406 0.50943184 5
-5.2730021 -1.029743 1.0382 6
-3.3786528 -0.65980327 0.48160285 4
-6.3946948 -1.2487938 0.56567746 4
-10.832774 -2.1154881 0.5678221 11
-17.397276 -3.3974428 0.59824967 34
-16.942518 -2.0442679 0.47459328 19
-12.406541 -3.3731105 0.2818858 0
-17.652243 -3.4472342 0.28819358 32
-16.475653 -1.9879363 0.16799693 14
-17.253521 -4.6909156 0.075519472 60
-17.658411 -3.4484386 -0.029831851 33
-17.794428 -2.1470585 -0.13514251 45
-17.255978 -4.6915832 -0.24033648 33
-17.615881 -3.4401331 -0.34713861 43
-17.793236 -2.1469147 -0.45240918 50
-17.245321 -4.6886864 -0.55632186 35
-17.622776 -3.4414797 -0.66562206 49
-17.750761 -2.1417897 -0.76813048 52
-17.221584 -4.6822329 -0.87129027 41
-17.624168 -3.4417515 -0.98352289 45
-17.762308 -2.143183 -1.0848664 50
-17.227158 -4.6837478 -1.1879536 47
-17.600498 -3.4371293 -1.2996091 39
-17.756399 -2.1424701 -1.4013132 51
-17.196632 -4.6754484 -1.50116 37
-17.579273 -3.4329844 -1.6149315 45
-17.74505 -2.1411006 -1.7166392 50
-8.0217171 -2.1809576 -0.84747338 4
-17.568319 -3.430845 -1.9306747 50
-8.9707479 -1.7518606 -1.1478699 8
-8.9070625 -1.7394236 -1.3003364 2
-8.3020325 -1.6212698 -1.3632188 5
-8.5676451 -1.6731402 -1.5612469 3
-8.7441368 -1.7076066 -1.752298 2
-8.8172817 -1.7218908 -1.9261322 2
-8.8452721 -1.727357 -2.0921021 2
-8.128005 -1.5872848 -2.0686588 3
-5.6278658 -1.0990429 -1.972644 6
-1.5763057 -0.30783027 -0.74865532 8
-1.9004524 -0.35737726 0.51045275 8
-5.2839217 -0.99363369 1.0389589 20
-3.4571469 -0.65011138 0.49213272 4
-6.3915071 -1.2019135 0.56463951 2
-10.862982 -2.0427675 0.56864411 7
-17.448069 -3.2810836 0.59919417 31
-16.324684 -1.8541881 0.45691279 26
-12.43752 -3.2884588 0.28206116 0
-17.687668 -3.3261399 0.28838584 34
-16.505026 -1.8746717 0.16815889 15
-17.289717 -4.5713716 0.07553637 49
-17.654535 -3.3199093 -0.029785426 9
-17.832829 -2.025486 -0.13532346 49
-17.284443 -4.5699773 -0.24028271 33
-17.651258 -3.319293 -0.34737065 42
-17.81971 -2.0239959 -0.452712 47
-17.266039 -4.5651107 -0.5559485 36
-17.662083 -3.3213284 -0.66621476 50
-17.793077 -2.0209711 -0.76933229 53
-17.242266 -4.5588255 -0.87070513 42
-17.65954 -3.3208504 -0.9841792 44
-17.804607 -2.0222805 -1.0865612 55
-17.24786 -4.5603046 -1.1871568 49
-17.659351 -3.3208148 -1.3022112 41
-17.790737 -2.0207052 -1.4028754 48
-17.240414 -4.5583358 -1.5021673 40
-17.618471 -3.3131275 -1.6163682 46
-7.7542319 -0.88074017 -0.74952388 2
-8.0367479 -2.1249022 -0.84747338 3
-17.627016 -3.3147342 -1.9345351 54
-9.0295649 -1.6979963 -1.153851 9
-9.2108383 -1.7320846 -1.3428866 1
-8.8409662 -1.6625307 -1.4497724 2
-8.9080391 -1.6751436 -1.6211052 2
-9.1145639 -1.7139802 -1.8240881 2
-9.7362108 -1.8308799 -2.1240282 2
-8.8417978 -1.6626869 -2.088484 2
-8.1198177 -1.5269197 -2.063812 3
-5.6354008 -1.0597289 -1.972644 6
-1.5677271 -0.29480878 -0.74358547 9
-1.9067069 -0.34478909 0.51147366 9
-5.2830009 -0.9553231 1.037441 34
-3.5746491 -0.64640242 0.50820464 4
-6.4664068 -1.169318 0.57052118 9
-10.904495 -1.9718558 0.57008266 5
-17.45875 -3.157059 0.59878939 32
-15.967465 -1.7007892 0.44657138 27
-17.332695 -4.453506 0.39236048 28
-17.730137 -3.2061341 0.28870627 31
-16.553505 -1.7632118 0.16852331 25
-17.336706 -4.4545364 0.075603947 41
-17.712708 -3.2029822 -0.029845115 36
-17.862444 -1.9026346 -0.13544409 49
-17.323673 -4.4511881 -0.24039023 33
-17.693678 -3.1995411 -0.3477574 39
-17.869192 -1.9033535 -0.45362046 48
-17.320723 -4.4504299 -0.55669522 35
-17.704508 -3.2014995 -0.66695565 47
-17.842518 -1.900512 -0.77087748 51
-17.29302 -4.4433117 -0.87168038 41
-17.701946 -3.2010362 -0.98527294 41
-17.834173 -1.8996233 -1.0875297 46
-17.287008 -4.4417672 -1.187688 47
-17.689957 -3.198868 -1.3027894 38
-17.824238 -1.8985649 -1.4044377 45
-17.275679 -4.4388561 -1.502503 36
-17.652933 -3.1921735 -1.6174458 43
-7.7205987 -0.8223666 -0.74569976 0
-8.0822201 -2.0766659 -0.85071886 3
-17.657555 -3.1930089 -1.935393 50
-9.1310253 -1.6511599 -1.1653148 0
-9.5889654 -1.7339691 -1.3962163 3
-9.2137585 -1.6661205 -1.5089598 2
-9.3379831 -1.688584 -1.6971606 2
-9.4661779 -1.7117655 -1.8920187 2
-9.7372093 -1.7607759 -2.1215127 2
-8.8493567 -1.6002259 -2.0875795 2
-8.134099 -1.470886 -2.0647814 3
-5.642662 -1.0203605 -1.972644 7
-1.5768824 -0.28514704 -0.74696535 8
-1.890015 -0.3281613 0.50636911 19
-5.2818027 -0.91707379 1.0359232 23
-3.6766505 -0.6383729 0.52205968 10
-10.561656 -1.8338091 0.93068647 23
-10.898317 -1.8922632 0.56905514 5
-17.488241 -3.0364649 0.59905922 30
-15.740222 -1.5655373 0.4398995 23
-17.367245 -4.3333607 0.39244816 37
-17.756029 -3.0829604 0.28877038 28
-16.585312 -1.6495908 0.16872576 10
-17.375145 -4.3353319 0.075637735 43
-17.762224 -3.0840361 -0.029891541 36
-17.903154 -1.7806647 -0.13565521 48
-17.354326 -4.3301377 -0.24039023 29
-17.731344 -3.0786746 -0.34806678 44
-17.90592 -1.7809397 -0.45422611 46
-17.355249 -4.3303676 -0.55681968 36
-17.718552 -3.0764532 -0.6666593 47
-17.863302 -1.776701 -0.77122086 61
-17.335247 -4.325377 -0.87226552 41
-17.739603 -3.0801084 -0.986148 42
-17.874811 -1.7778457 -1.0892243 54
-17.317596 -4.3209729 -1.187688 48
-17.719721 -3.0766561 -1.3033677 40
-8.0990953 -0.80554366 -0.63769907 1
-17.325581 -4.3229651 -1.5041819 35
-17.70619 -3.074307 -1.6203194 47
-7.6667194 -0.76253915 -0.73996359 1
-8.1351309 -2.0298243 -0.85477567 4
-17.702927 -3.0737405 -1.9379667 49
-17.678562 -3.0695097 -2.2533739 33
-9.9636488 -1.7299777 -1.4489787 1
-9.5909042 -1.6652585 -1.5687835 4
-9.7297335 -1.6893632 -1.7661737 1
-9.8568592 -1.711436 -1.9676685 2
-9.7415581 -1.6914164 -2.1198354 2
-8.8603134 -1.5384067 -2.0875795 2
-8.1365232 -1.4127358 -2.0628426 3
-5.6421947 -0.97964829 -1.9700416 6
-1.5681186 -0.27227077 -0.7418955 9
-1.8884449 -0.31432348 0.50534821 9
-3.9232926 -0.65301514 0.55642033 3
-10.589925 -1.7626473 0.93207043 16
-10.89156 -1.812853 0.56802762 4
-13.849473 -2.3051848 0.47385046 4
-15.587526 -1.4405258 0.43534037 21
-17.412622 -4.2157731 0.39279887 33
-17.773174 -2.9582682 0.28870627 21
-16.620321 -1.535972 0.16896871 8
-17.420538 -4.2176895 0.07570532 47
-17.79516 -2.9619277 -0.029911438 33
-18.237764 -1.6854484 -0.13809809 39
-17.388021 -4.2098169 -0.24044399 26
-17.776077 -2.9587512 -0.34853086 41
-18.236456 -1.6853274 -0.46230122 38
-17.377287 -4.2072182 -0.55657077 34
-17.790855 -2.9612112 -0.66858566 48
-17.907106 -1.6548904 -0.77259433 53
-17.368906 -4.2051888 -0.8724606 42
-17.764612 -2.9568431 -0.98636675 44
-18.093525 -1.6721184 -1.1018137 38
-17.34734 -4.1999679 -1.187688 46
-17.76438 -2.9568043 -1.3051025 39
-7.9456868 -0.734303 -0.62520128 2
-17.351467 -4.2009668 -1.503846 35
-17.723293 -2.9499655 -1.6199602 47
-7.7194333 -0.71339369 -0.74455255 2
-8.2573967 -1.9991999 -0.86613482 4
-17.739647 -2.9526875 -1.9396825 49
-17.707388 -2.9473183 -2.2543707 37
-16.291206 -2.711601 -2.3663626 1
-10.221673 -1.7013534 -1.6699749 1
-10.296715 -1.7138437 -1.8668766 2
-10.774509 -1.7933706 -2.1483018 1
-9.7376966 -1.6207975 -2.1164813 2
-8.8862104 -1.4790714 -2.0911975 2
-8.1232185 -1.3520746 -2.0570264 3
-5.6563587 -0.94147652 -1.972644 6
-1.5699811 -0.2613166 -0.7418955 8
-1.9096901 -0.30417377 0.51045275 9
-3.5992069 -0.57327849 0.70427603 3
-5.6295223 -0.89666539 0.79749882 20
-4.6949344 -0.747805 0.41275427 2
-10.931564 -1.7411699 0.56946617 5
-14.437682 -2.2996213 0.49341431 5
-9.0674925 -0.77417094 0.25308678 9
-17.449415 -4.0959349 0.39297423 37
-17.856588 -2.8441815 0.28973165 34
-11.832343 -1.0102303 0.12021761 39
-17.465136 -4.0996251 0.075772896 47
-17.827255 -2.8395095 -0.029931335 33
-18.269012 -1.5597849 -0.13824888 37
-17.440351 -4.0938072 -0.24076651 25
-17.804199 -2.8358371 -0.34868556 44
-18.271683 -1.5600128 -0.46290687 37
-17.421804 -4.0894542 -0.55706859 36
-17.815042 -2.8375645 -0.66873384 42
-18.220842 -1.5556722 -0.78564262 42
-17.39784 -4.0838284 -0.8724606 41
-17.804544 -2.8358922 -0.98746049 41
-18.224104 -1.5559506 -1.1090769 50
-17.395668 -4.0833187 -1.189016 47
-17.804287 -2.8358514 -1.306548 38
-7.8393664 -0.6693151 -0.61645281 13
-17.380373 -4.0797286 -1.503846 36
-17.755257 -2.8280418 -1.6210377 51
-7.7480288 -0.66151679 -0.74684697 2
-8.445487 -1.9824255 -0.88439059 1
-17.771608 -2.8306463 -1.9409692 49
-17.758888 -2.8286202 -2.258358 38
-16.274548 -2.5921957 -2.3612566 2
-13.801698 -2.1983223 -2.2523022 2
-12.081587 -1.9243445 -2.187999 2
-10.78289 -1.7174894 -2.1475298 1
-9.7487745 -1.5527762 -2.1164813 2
-8.8770809 -1.4139336 -2.0866752 2
-8.147789 -1.2977728 -2.0609038 5
-5.6403813 -0.898395 -1.9648367 6
-1.5717672 -0.2503497 -0.7418955 9
-1.9117671 -0.29083422 0.51045275 8
-2.4887941 -0.37861642 0.4864665 5
-5.6513109 -0.8597253 0.79971564 19
-4.688221 -0.71321195 0.41171634 4
-10.935555 -1.6636094 0.56905514 6
-17.603331 -2.6779678 0.60094815 25
-9.0128822 -0.70616412 0.2514188 7
-17.493181 -3.9775615 0.39332494 30
-17.895781 -2.7224576 0.29005209 29
-11.847083 -0.92822522 0.12029859 57
-17.485529 -3.9758213 0.075739108 39
-17.886189 -2.7209983 -0.029997658 32
-18.311359 -1.4347047 -0.13849016 33
-17.484106 -3.9754977 -0.24098153 30
-17.851238 -2.7156818 -0.34922701 49
-18.302063 -1.4339763 -0.46341157 39
-17.457727 -3.9694998 -0.5573175 34
-17.862082 -2.7173312 -0.66977108 46
-18.259146 -1.4306138 -0.78684443 37
-17.433718 -3.9640408 -0.87285072 39
-17.835754 -2.713326 -0.98811674 42
-18.270346 -1.4314914 -1.1112558 49
-17.431534 -3.9635444 -1.1895471 46
-17.83943 -2.7138851 -1.3077046 36
-7.8160191 -0.61238927 -0.61426574 10
-17.416203 -3.9600585 -1.5045176 31
-17.798199 -2.7076128 -1.6231929 68
-8.6841803 -1.9745899 -0.90792024 0
-17.810595 -2.7094986 -1.943114 50
-17.793898 -2.7069585 -2.2603517 39
-16.257017 -2.473155 -2.3561504 1
-13.812804 -2.1013207 -2.2516658 1
-12.094728 -1.8399523 -2.187999 2
-10.763577 -1.6374465 -2.1413543 2
-9.7671108 -1.4858557 -2.1181583 2
-8.8674755 -1.3489954 -2.0821526 2
-8.1451406 -1.2391078 -2.0579958 5
-5.6577344 -0.86070246 -1.9687403 6
-1.5698924 -0.23882532 -0.74020553 9
-1.9443709 -0.28192014 0.51862001 7
-2.4913764 -0.3612321 0.4864665 7
-5.5787663 -0.808882 0.78863162 8
-4.7601299 -0.69018549 0.41759798 4
-10.954809 -1.5883704 0.56946617 7
-17.645332 -2.5584495 0.60175771 31
-9.3765421 -0.66882902 0.26142663 6
-17.540052 -3.8596365 0.39376333 39
-17.775816 -2.5773685 0.28780907 12
-11.849284 -0.84520978 0.1202581 77
-17.512857 -3.8536525 0.075739108 42
-17.70286 -2.5667903 -0.029659413 26
-18.332897 -1.307686 -0.13858064 36
-17.515339 -3.8541985 -0.24103528 30
-17.885593 -2.5932856 -0.34953639 43
-18.355501 -1.3092984 -0.46452188 38
-17.496727 -3.8501027 -0.55769092 35
-17.896439 -2.5948579 -0.67036378 46
-18.304565 -1.305665 -0.78838962 41
-17.468771 -3.8439512 -0.87324077 49
-17.850309 -2.5881696 -0.98789799 26
-18.307772 -1.3058939 -1.1129504 50
-17.474371 -3.8451836 -1.1906095 46
-17.660526 -2.5606525 -1.2932484 23
-7.8479476 -0.55979431 -0.61645281 9
-17.462889 -3.8426569 -1.5061964 35
-17.840322 -2.5867217 -1.6253481 66
-8.8687544 -1.9515432 -0.92577034 0
-17.844822 -2.587374 -1.9448297 50
-17.824144 -2.5843759 -2.261847 27
-16.297398 -2.3630083 -2.3595545 1
-13.831046 -2.0054045 -2.2523022 1
-12.091689 -1.7532101 -2.1851823 2
-10.751441 -1.5588834 -2.1367228 1
-9.7695045 -1.4165095 -2.1164813 2
-8.8728199 -1.2864966 -2.081248 4
-8.1535931 -1.1822137 -2.0579958 4
-5.6636052 -0.82118297 -1.9687403 5
-1.5858732 -0.22994049 -0.74696535 9
-2.03058 -0.27996001 0.54107994 6
-2.5093999 -0.34597582 0.48950219 9
-5.6941576 -0.78506452 0.80414927 18
-4.8911581 -0.67435348 0.42866936 6
-10.961674 -1.5113072 0.56926066 6
-17.690487 -2.4390218 0.60270214 31
-10.294741 -0.66212183 0.28689098 6
-17.550922 -3.7337697 0.39341262 39
-17.670555 -2.4362736 0.28582242 35
-11.850905 -0.76220888 0.12021761 137
-17.554985 -3.7346337 0.075806685 39
-17.70846 -2.4414997 -0.029639516 52
-18.345573 -1.1799233 -0.1386108 38
-17.549643 -3.7334974 -0.24114279 28
-17.661596 -2.4350383 -0.34481815 52
-18.356213 -1.1806077 -0.46432 39
-17.54664 -3.7328589 -0.55843765 34
-17.676533 -2.4370975 -0.66147304 58
-18.341152 -1.1796389 -0.78959143 42
-17.502996 -3.7235737 -0.87363088 62
-17.670113 -2.4362128 -0.97696024 53
-18.33238 -1.1790748 -1.1139189 53
-17.504692 -3.7239344 -1.1908751 49
-17.658213 -2.434572 -1.2918028 53
-7.8357463 -0.50396788 -0.61520308 7
-17.489288 -3.7206578 -1.5061964 37
-17.629049 -2.4305511 -1.6045148 68
-7.6171389 -0.48990783 -0.73308021 0
-17.491865 -3.7212059 -1.8231428 43
-17.618191 -2.429054 -1.9182353 60
-17.605856 -2.4273534 -2.2319415 49
-16.305653 -2.2480919 -2.3584199 2
-13.840797 -1.9082575 -2.2516658 1
-7.5945144 -1.0470704 -1.3711085 1
-7.5038948 -1.0345764 -1.4898392 17
-7.4660988 -1.0293655 -1.6158714 20
-8.8622866 -1.2218606 -2.0767255 5
-8.1539593 -1.1242021 -2.056057 3
-5.6654534 -0.78110701 -1.9674392 6
-1.5910316 -0.21935859 -0.74865532 9
-2.2127242 -0.28934598 0.58906245 3
-2.5273309 -0.33048537 0.49253786 8
-4.6271615 -0.60506886 0.65285176 6
-5.0458989 -0.65982485 0.4418166 16
-10.991763 -1.4373333 0.57028818 6
-17.469246 -2.2843587 0.59460676 25
-18.087317 -1.0365713 0.50383836 29
-17.600065 -3.615979 0.39393869 38
-16.271368 -2.1277187 0.2629438 3
-11.851945 -0.67922652 0.12017712 206
-17.615892 -3.6192305 0.075958736 48
-17.733007 -2.3188493 -0.02965278 44
-18.345375 -1.0513605 -0.13855048 39
-17.587034 -3.6133015 -0.24130405 33
-17.694027 -2.3137519 -0.34512755 55
-18.360016 -1.0521995 -0.46421906 37
-17.584023 -3.6126828 -0.55881101 34
-17.724821 -2.3177791 -0.66265845 58
-18.34096 -1.0511074 -0.78924805 42
-17.544218 -3.6045048 -0.87441111 43
-17.706491 -2.315382 -0.97805405 53
-18.332193 -1.0506049 -1.1134347 52
-17.530262 -3.6016378 -1.1908751 49
-17.698515 -2.3143389 -1.2935375 53
-7.79528 -0.44674197 -0.61176616 5
-17.542168 -3.6040838 -1.5085466 36
-17.66534 -2.3100009 -1.6063108 77
-7.6124234 -0.43626258 -0.73231542 0
-17.5525 -3.6062064 -1.8267939 38
-17.662321 -2.3096061 -1.9212378 59
-17.649921 -2.3079846 -2.2354305 47
-7.6638184 -1.002156 -1.1074418 0
-7.6082244 -0.99488628 -1.2365706 7
-7.5040321 -0.98126167 -1.3535031 22
-7.4564509 -0.97503966 -1.4790322 43
-7.4459562 -0.97366738 -1.6100017 255
-7.5376925 -0.98566324 -1.7646741 3
-7.5844088 -0.99177206 -1.9106498 3
-5.6745186 -0.74202609 -1.9687403 6
-1.5781446 -0.20636542 -0.7418955 9
-2.7290201 -0.33749977 0.72586381 12
-2.5646551 -0.31717265 0.4993681 19
-3.3692701 -0.41667992 0.4749524 0
-5.3153586 -0.657354 0.46499726 6
-10.969812 -1.3566442 0.56864411 5
-16.861868 -2.0853188 0.5734238 20
-18.130053 -0.91208088 0.50483918 13
-17.632725 -3.4945738 0.39411405 38
-15.809515 -1.9551734 0.25525352 5
-11.856398 -0.59646779 0.12017712 217
-17.636806 -3.4953825 0.075941846 39
-17.7964 -2.2008927 -0.029732367 48
-18.36026 -0.92366201 -0.1386108 40
-17.6236 -3.4927654 -0.24146532 29
-17.741499 -2.1941032 -0.34574634 53
-18.362921 -0.92379588 -0.46411812 37
-17.616659 -3.4913898 -0.55905992 35
-17.748505 -2.1949697 -0.66295481 58
-18.343861 -0.92283696 -0.78907639 39
-17.596388 -3.4873722 -0.87577647 44
-17.746006 -2.1946607 -0.97936654 54
-18.339081 -0.92259651 -1.1134347 52
-17.582386 -3.4845972 -1.1927341 47
-17.745913 -2.194649 -1.2958505 53
-7.7663469 -0.39070687 -0.60926664 4
-17.586451 -3.4854028 -1.5102254 34
-17.696848 -2.1885812 -1.6077476 81
-7.6311898 -0.38390744 -0.73384506 0
-17.569441 -3.4820316 -1.8259826 36
-17.705643 -2.1896689 -1.9242405 45
-7.7003903 -0.95231247 -0.97441846 2
-7.6509795 -0.9462018 -1.1046051 3
-7.5483575 -0.93351048 -1.2257514 2
-7.448175 -0.92112082 -1.3422357 33
-7.4513903 -0.92151845 -1.4767163 161
-7.4331641 -0.91926444 -1.605809 26
-7.4670506 -0.92345518 -1.7465841 12
-7.5795932 -0.9373734 -1.9077417 3
-5.6645451 -0.7005381 -1.9635355 6
-1.5903409 -0.19667853 -0.74696535 10
-2.7774079 -0.32381392 0.73811466 5
-2.5941136 -0.30244389 0.50468051 50
-3.2501194 -0.37892663 0.45777211 4
-5.7908444 -0.67514598 0.5061689 12
-11.04647 -1.2878916 0.57213777 2
-16.252598 -1.8948663 0.55224085 22
-9.0160589 -0.39049432 0.250974 10
-17.668476 -3.3736393 0.39437708 38
-17.824959 -2.0781856 0.28755274 37
-11.864268 -0.51385307 0.12021761 255
-17.684353 -3.3766706 0.076043211 48
-17.82325 -2.0779865 -0.029752264 37
-18.354269 -0.79494143 -0.13852032 44
-17.659342 -3.3718951 -0.24162658 29
-17.792133 -2.0743587 -0.34644246 57
-18.360931 -0.79522991 -0.46391624 35
-17.668095 -3.3735664 -0.5599311 36
-17.80707 -2.0761001 -0.66458482 59
-18.337879 -0.79423147 -0.78856128 43
-17.628153 -3.3659399 -0.87616652 42
-17.780733 -2.0730295 -0.98046035 52
-18.337097 -0.79419762 -1.1129504 53
-17.610203 -3.3625126 -1.1929997 47
-17.768728 -2.07163 -1.2964287 55
-7.7569327 -0.33596036 -0.6083293 4
-17.622099 -3.364784 -1.5112327 38
-17.731483 -2.0672874 -1.6095436 76
-7.6177721 -0.32993317 -0.73231542 0
-17.620684 -3.3645136 -1.8288224 37
-9.658185 -1.1260337 -1.0487669 5
-7.5925298 -0.88520187 -0.95996416 19
-7.5944724 -0.88542837 -1.0955276 2
-7.5507689 -0.88033301 -1.2251149 4
-7.4387803 -0.86727643 -1.3394189 35
-7.4303532 -0.86629397 -1.4713128 33
-7.4083223 -0.86372542 -1.5991006 30
-7.4578352 -0.86949801 -1.7429662 19
-7.5782437 -0.88353628 -1.9058028 3
-5.6768112 -0.66185111 -1.9661379 6
-1.5592655 -0.18179247 -0.73175567 10
-2.7719119 -0.30357397 0.73607284 4
-2.717186 -0.29758048 0.528207 4
-3.2448099 -0.35536474 0.4566637 5
-5.8746428 -0.64337856 0.51308852 9
-6.5759335 -0.72018236 0.34032333 4
-15.768684 -1.7269531 0.53537548 26
-9.3701973 -0.34031606 0.26075944 16
-17.695532 -3.2509305 0.39446476 32
-17.874815 -1.957612 0.28812951 36
-11.867567 -0.43101799 0.12021761 191
-17.699625 -3.2516825 0.076009423 42
-17.857204 -1.9556835 -0.029785426 41
-18.347382 -0.66635829 -0.13842984 38
-17.698187 -3.2514184 -0.2418416 28
-17.81811 -1.9514019 -0.3466745 55
-18.362041 -0.66689074 -0.4638153 38
-17.691216 -3.2501376 -0.5599311 36
-17.837023 -1.9534732 -0.66517752 58
-18.319014 -0.66532797 -0.7875312 56
-17.666941 -3.2456779 -0.87694675 44
-17.814623 -1.9510201 -0.98155409 54
-18.322245 -0.66544533 -1.11174 17
-17.660728 -3.2445364 -1.1948588 49
-17.818451 -1.9514394 -1.2990308 51
-7.7471337 -0.28136805 -0.60739195 3
-17.653002 -3.2431173 -1.5119042 32
-17.777164 -1.9469177 -1.6124171 52
-7.6278481 -0.27703571 -0.73308021 1
-17.663313 -3.2450113 -1.8308508 37
-7.7168355 -0.84513164 -0.83729768 0
-7.5511818 -0.82698953 -0.95398307 21
-7.4981322 -0.82117969 -1.0807769 37
-7.5410285 -0.82587755 -1.2225692 7
-7.4368258 -0.81446546 -1.3380104 31
-7.4167128 -0.81226277 -1.467453 34
-7.3986206 -0.81028134 -1.5957464 31
-7.4404845 -0.81486619 -1.7375392 34
-7.9159884 -0.86694241 -1.9891696 2
-5.6888137 -0.62302691 -1.9687403 7
-1.6001399 -0.17524394 -0.75034529 10
-2.8124378 -0.28815693 0.74628192 4
-2.8246834 -0.2894116 0.54869777 4
-3.278738 -0.33593318 0.46109733 4
-5.8670988 -0.60113162 0.51205057 12
-6.6483574 -0.68117785 0.343817 6
-15.311081 -1.5687438 0.51945454 22
-10.671284 -0.31298944 0.29689881 2
-17.725674 -3.1287034 0.39464012 33
-17.896004 -1.83359 0.28825769 33
-11.874284 -0.34827352 0.1202581 127
-17.741592 -3.1315131 0.076093897 42
-17.898277 -1.8338228 -0.029831851 38
-18.355583 -0.53837049 -0.13846 41
-17.73621 -3.1305633 -0.24205662 32
-17.855169 -1.8294061 -0.34713861 55
-18.354258 -0.53833157 -0.46351251 35
-17.729223 -3.1293299 -0.56042892 35
-17.878061 -1.8317517 -0.66621476 62
-18.331202 -0.53765535 -0.78787452 52
-17.708841 -3.1257324 -0.877922 39
-17.847675 -1.8286384 -0.9826479 55
-18.322453 -0.5373987 -1.1114979 46
-17.690809 -3.1225498 -1.1953899 51
-17.86339 -1.8302486 -1.3013438 55
-7.7210069 -0.22645763 -0.60520482 5
-17.694839 -3.1232612 -1.5135829 35
-7.7557726 -0.79464149 -0.70294058 20
-7.6136761 -0.22330962 -0.73155057 0
-17.697294 -3.1236942 -1.8320678 36
-7.6394672 -0.7827251 -0.82828987 1
-7.5330825 -0.77182508 -0.95099252 2
-7.4721708 -0.76558417 -1.0762383 38
-7.4758978 -0.76596606 -1.2111137 38
-7.4384131 -0.76212549 -1.3373061 32
-7.4065852 -0.7588644 -1.4643654 34
-7.3924246 -0.75741357 -1.5932308 31
-7.445992 -0.76290196 -1.7375392 14
-7.8562188 -0.80493301 -1.9726901 8
-5.6704483 -0.58098322 -1.9609331 6
-1.5905045 -0.16296002 -0.74527544 10
-2.7142797 -0.25896493 0.71973836 6
-4.4295673 -0.42261767 0.85985422 14
-3.348043 -0.31943122 0.47051877 3
-6.6486835 -0.63433987 0.57986265 3
-6.8915505 -0.65751141 0.35614756 5
-14.915735 -1.4230856 0.50569236 14
-18.296358 -0.40881386 0.50895351 28
-17.774685 -3.0095518 0.39525387 35
-17.976051 -1.7150652 0.28934714 25
-11.860432 -0.26500952 0.12009614 121
-17.782742 -3.010916 0.076178372 42
-18.15752 -1.7323788 -0.03024305 25
-18.350899 -0.41003251 -0.13839968 38
-17.777351 -3.0100033 -0.2423254 28
-17.895374 -1.707368 -0.34768003 55
-18.353573 -0.41009226 -0.46341157 39
-17.778231 -3.0101523 -0.56130016 34
-17.910311 -1.7087929 -0.66695565 56
-18.342499 -0.40984485 -0.7882179 48
-17.734171 -3.0026922 -0.87811702 41
-17.899767 -1.707787 -0.98483545 50
-18.321768 -0.4093816 -1.1112558 42
-17.735788 -3.0029662 -1.1969835 47
-8.4394426 -0.80519325 -0.61438692 1
-7.7223997 -0.17254932 -0.60520482 4
-17.720142 -3.0003169 -1.5139188 36
-7.7214727 -0.73669291 -0.69934863 34
-7.6031079 -0.16988386 -0.73040336 0
-17.734364 -3.0027246 -1.8336905 35
-7.6843348 -0.73314959 -0.83257931 1
-7.5264344 -0.71808457 -0.94949728 1
-7.4536834 -0.71114355 -1.0728343 41
-7.4653378 -0.71225548 -1.208568 40
-7.4435525 -0.710177 -1.3373061 28
-7.3999815 -0.70601994 -1.4620495 35
-7.381958 -0.7043004 -1.5898767 32
-7.4627728 -0.71201074 -1.7402526 8
-8.1436615 -0.77697319 -2.0434549 3
-5.6781311 -0.54174107 -1.9622343 6
-1.5916034 -0.15185224 -0.74527544 10
-2.7083163 -0.23932849 0.71769655 5
-4.3972011 -0.38857183 0.85302395 16
-3.4606805 -0.3058134 0.48603648 4
-4.9103212 -0.43391526 0.42797738 8
-7.2819557 -0.64349186 0.37608194 8
-8.2272367 -0.72702444 0.27875143 6
-18.354738 -0.28193098 0.51051027 28
-12.817483 -2.0782731 0.28469151 30
-11.832366 -1.0456024 0.19033466 18
-11.885989 -0.18257023 0.12033909 73
-17.81912 -2.8892565 0.076245949 45
-18.25683 -1.6133195 -0.030388961 31
-18.357313 -0.28197053 -0.13842984 35
-17.805826 -2.8871009 -0.24243291 27
-18.217588 -1.6098517 -0.35371318 42
-18.351988 -0.28188875 -0.46331063 37
-17.802759 -2.8866036 -0.56142461 33
-18.228397 -1.6108069 -0.67836547 45
-18.332924 -0.28159595 -0.78770286 57
-17.770477 -2.8813694 -0.87889725 41
-18.229532 -1.6109073 -1.0023359 42
-18.320185 -0.28140026 -1.1110137 50
-17.760262 -2.8797128 -1.1972491 46
-8.313715 -0.73466629 -0.60484588 2
-7.7353778 -0.11881634 -0.60614216 4
-17.768198 -2.881 -1.516269 33
-7.7026176 -0.6806649 -0.6971935 22
-7.612071 -0.11692233 -0.73116821 0
-17.762751 -2.8801165 -1.834502 37
-7.6219201 -0.6735338 -0.82528728 0
-7.5391707 -0.66622144 -0.95049411 1
-7.4466338 -0.6580441 -1.0711322 39
-7.4543934 -0.65872979 -1.2060223 39
-7.4404845 -0.65750068 -1.3358978 34
-7.3969107 -0.65365016 -1.4605056 34
-7.3789034 -0.6520589 -1.5881995 31
-7.5218992 -0.6646952 -1.7529156 4
-7.7275262 -0.68286598 -1.9377924 7
-5.6893106 -0.50275296 -1.9648367 7
-1.5890133 -0.14041793 -0.74358547 10
-2.7369049 -0.22260979 0.72484291 5
-4.3215184 -0.35149646 0.83784556 25
-3.687789 -0.29995123 0.51762611 5
-4.6868334 -0.38120982 0.40825653 6
-7.9233222 -0.64445394 0.40896344 0
-8.5150156 -0.69258016 0.28833097 6
-10.095742 -0.084579468 0.28077507 2
-12.855392 -1.9924142 0.28521758 12
-18.301207 -1.4885529 0.29421765 30
-11.890973 -0.099619441 0.12037957 62
-17.846764 -2.7660103 0.076279737 41
-18.311504 -1.4893905 -0.030461915 30
-18.366833 -0.15387248 -0.13849016 43
-17.853216 -2.7670102 -0.24280918 33
-18.240341 -1.4836024 -0.35394523 77
-18.361506 -0.15382785 -0.46351251 37
-17.846184 -2.7659204 -0.56217134 34
-18.255135 -1.4848057 -0.67895818 46
-18.322456 -0.15350071 -0.78718781 62
-17.813848 -2.7609091 -0.88006753 42
-18.268202 -1.4858685 -1.0038671 43
-18.349651 -0.15372854 -1.1127083 55
-17.795708 -2.7580976 -1.1983113 47
-8.2311592 -0.6694923 -0.59848517 1
-7.7360187 -0.064810328 -0.60614216 4
-17.799696 -2.7587154 -1.5172763 34
-7.7111521 -0.62719679 -0.69755268 11
-7.6405721 -0.064010702 -0.73384506 0
-17.802086 -2.7590859 -1.8365303 40
-7.7810264 -0.63288015 -0.84201604 3
-7.5673728 -0.6155023 -0.95348465 1
-7.4431534 -0.60539877 -1.0699975 37
-7.4430666 -0.60539168 -1.2034765 36
-7.4331198 -0.60458267 -1.3337851 34
-7.3895578 -0.60103953 -1.4581898 36
-7.3793778 -0.6002115 -1.587361 32
-7.5302401 -0.61248207 -1.7538201 21
-8.1382437 -0.66193491 -2.0395775 3
-5.6889119 -0.46271524 -1.9635355 6
-1.5791143 -0.12843937 -0.73851556 10
-2.7306786 -0.20292392 0.72280109 6
-4.3238673 -0.32131797 0.83784556 25
-5.819128 -0.43243477 0.81634176 18
-4.7410431 -0.35231945 0.41275427 6
-10.142583 -0.75372213 0.52322656 11
-9.0538654 -0.67281669 0.3064107 12
-9.1964359 -0.012839771 0.25575551 6
-12.872943 -1.9032092 0.28530526 9
-11.087999 -0.82397848 0.17815837 1
-11.891379 -0.016602365 0.12037957 58
-17.905207 -2.6472077 0.076448686 43
-18.341402 -1.3629979 -0.030495076 21
-18.351461 -0.025621727 -0.13836952 37
-17.89188 -2.6452374 -0.24307795 34
-18.294127 -1.3594848 -0.35479608 48
-18.362133 -0.025636626 -0.46351251 38
-17.857147 -2.6401024 -0.56192243 29
-18.296946 -1.3596942 -0.68014365 45
-18.331074 -0.025593262 -0.7875312 51
-17.840591 -2.6376548 -0.88045764 40
-18.302027 -1.360072 -1.0051796 42
-18.342293 -0.025608925 -1.1122242 51
-17.838219 -2.6373038 -1.1999048 49
-8.1441269 -0.60521156 -0.59183532 1
-7.752234 -0.010823423 -0.60739195 5
-17.838236 -2.6373065 -1.518955 36
-7.6994514 -0.57216656 -0.69611591 7
-7.6607418 -0.010695684 -0.73575711 0
-17.820911 -2.6347451 -1.8365303 32
-7.7931876 -0.57913232 -0.84287393 3
-7.5675278 -0.56236297 -0.95298624 1
-7.4353523 -0.55254066 -1.0682955 47
-7.4510498 -0.55370718 -1.204113 32
-7.4253798 -0.55179954 -1.3316724 34
-7.3935742 -0.54943603 -1.4581898 34
-7.3794875 -0.5483892 -1.5865225 32
-7.538218 -0.5601849 -1.7547246 12
-7.8678908 -0.58468372 -1.9707514 7
-5.7070918 -0.42410904 -1.9687403 6
-1.5872035 -0.11794928 -0.7418955 10
-2.7513223 -0.18515497 0.72790563 6
-4.3103309 -0.29007113 0.8348099 27
-5.8022423 -0.39047188 0.81357074 19
-4.8865237 -0.32884702 0.42520955 5
-9.2827005 -0.6246953 0.47863108 4
-10.067484 -0.67750865 0.34054628 3
-18.364614 0.10257121 0.51073265 41
-12.874036 -1.811621 0.28504223 9
-11.193243 -0.75326854 0.17976052 4
-11.891205 0.066415519 0.12037957 51
-17.681635 -2.4881413 0.075418107 39
-18.35047 -1.2349263 -0.030495076 43
-18.367191 0.1025856 -0.13849016 39
-17.676235 -2.4873815 -0.23990645 39
-18.31115 -1.2322804 -0.35495076 45
-18.361864 0.10255585 -0.46351251 39
-17.673231 -2.486959 -0.55557513 45
-18.337898 -1.2340804 -0.68132907 48
-18.322813 0.10233774 -0.78718781 51
-17.696365 -2.4902141 -0.8724606 22
-18.342957 -1.2344208 -1.0069298 39
-18.334038 0.10240043 -1.11174 50
-17.646727 -2.4832292 -1.1858289 53
-8.0924253 -0.54459369 -0.58778763 2
-7.7561083 0.043319911 -0.6077044 7
-17.627285 -2.4804935 -1.4994812 45
-7.6873589 -0.51733404 -0.69467914 3
-7.6765561 0.042875588 -0.73728675 0
-17.622143 -2.4797697 -1.8142178 52
-7.804976 -0.5252493 -0.84373182 4
-7.6227474 -0.51298589 -0.95946574 1
-7.4311275 -0.50009048 -1.0671608 41
-7.4507933 -0.50141394 -1.2034765 37
-7.4211931 -0.49942195 -1.330264 36
-7.3854814 -0.49701869 -1.455874 37
-7.3753314 -0.49633563 -1.5848454 33
-7.5613832 -0.5088563 -1.7592471 16
-8.0924845 -0.54459763 -2.0260062 3
-5.7061396 -0.38400447 -1.9674392 6
-1.5952228 -0.10735326 -0.74527544 10
-2.752548 -0.16594261 0.72790563 6
-4.3083301 -0.25973591 0.83405101 28
-5.7771473 -0.34828636 0.80969131 16
-5.2705679 -0.31774625 0.45842364 7
-6.8185863 -0.41107151 0.35142085 3
-11.923551 -0.71883398 0.40315068 4
-11.894462 0.14948055 0.33081421 3
-12.926008 -1.7269949 0.28591901 8
-12.016637 -0.72444594 0.19289809 4
-11.898451 0.14953069 0.12046055 35
-17.714432 -2.3667581 0.075485684 53
-18.370621 -1.1075079 -0.030514972 33
-18.362028 0.23076001 -0.13846 43
-17.716957 -2.3670955 -0.24022897 41
-18.335274 -1.1053771 -0.35526016 46
-18.352703 0.23064284 -0.46331063 37
-17.706015 -2.3656335 -0.55607295 48
-18.338087 -1.1055466 -0.68103272 45
-18.329643 0.23035303 -0.7875312 49
-17.66976 -2.3607895 -0.87031502 52
-18.319233 -1.1044099 -1.0051796 42
-18.33687 0.23044385 -1.1119821 53
-17.671545 -2.3610282 -1.1863601 53
-8.04426 -0.4849636 -0.58402902 2
-7.8273911 0.098368712 -0.6133284 14
-17.683681 -2.3626494 -1.5028389 45
-7.6708999 -0.46245486 -0.69288319 1
-7.8313427 0.098418362 -0.75220072 4
-17.662691 -2.3598454 -1.8166518 51
-7.8878474 -0.47553396 -0.85231072 7
-7.657836 -0.46166727 -0.96345311 1
-7.4225798 -0.4474844 -1.0654589 37
-7.4580541 -0.44962305 -1.204113 42
-7.4166379 -0.44712618 -1.3288556 35
-7.3848534 -0.44521001 -1.4551021 36
-7.3747129 -0.44459864 -1.5840068 32
-7.3897309 -0.44550407 -1.7185447 1
-7.7939386 -0.4698725 -1.9503944 7
-5.7011299 -0.34370351 -1.9648367 6
-1.5923145 -0.095995724 -0.74358547 10
-2.7690878 -0.14754529 0.73198926 14
-4.3021955 -0.22923386 0.83253318 33
-5.7715268 -0.30752423 0.8085829 20
-6.4306531 -0.34264445 0.55910385 5
-6.6896515 -0.35644469 0.34463903 7
-11.73666 -0.62536436 0.39667436 2
-18.369387 0.35912085 0.51095504 37
-12.949652 -1.638218 0.28618205 9
-18.375572 -0.97910553 0.29485852 26
-15.300293 0.29912016 0.15491836 14
-17.750366 -2.2455406 0.075570159 52
-17.015839 -0.90665489 -0.028253376 7
-18.35997 0.35893676 -0.13846 38
-17.748922 -2.245358 -0.24044399 40
-18.338551 -0.97713298 -0.3551828 51
-18.362642 0.35898897 -0.46361342 37
-17.745895 -2.2449753 -0.55681968 48
-18.345358 -0.97749567 -0.68103272 52
-18.323593 0.35822561 -0.78735948 57
-17.709591 -2.2403824 -0.87148535 48
-18.31852 -0.97606564 -1.0047421 43
-18.310863 0.3579767 -1.1105294 51
-17.707396 -2.2401047 -1.187688 49
-8.0394821 -0.42836767 -0.58345073 2
-7.8145533 0.15277423 -0.61239105 4
-17.707653 -2.2401373 -1.5035104 45
-7.6540504 -0.40783074 -0.69108719 1
-7.6433616 0.14942744 -0.73422748 1
-17.694527 -2.2384768 -1.8182746 51
-9.4238977 -0.50213349 -1.0178829 0
-7.5816083 -0.40397081 -0.95348465 1
-7.4215693 -0.39544344 -1.0648915 41
-7.453125 -0.39712483 -1.2028401 19
-7.407783 -0.39470887 -1.326743 35
-7.3760247 -0.3930167 -1.4527862 37
-7.3737316 -0.39289451 -1.5831683 34
-7.466588 -0.39784217 -1.7357302 14
-8.1729298 -0.43547821 -2.0444243 5
-5.6807284 -0.30268621 -1.9570295 5
-1.603807 -0.085455641 -0.74865532 10
-2.777777 -0.12856744 0.73403102 7
-4.3311529 -0.20046435 0.83784556 27
-5.7695751 -0.26704073 0.8080287 19
-6.3691959 -0.29479375 0.55356818 15
-6.9513555 -0.3217386 0.35799712 5
-8.3303337 -0.38556361 0.28144988 14
-18.366432 0.48735458 0.51095504 37
-12.980627 -1.5501435 0.28662044 11
-18.357988 -0.84968656 0.29447401 32
-15.229858 0.40412539 0.15423 13
-17.785469 -2.1239367 0.075654633 52
-18.360319 -0.84979439 -0.030475179 36
-18.361015 0.48721084 -0.13849016 41
-17.776079 -2.1228154 -0.24060525 34
-18.332941 -0.84852725 -0.35495076 43
-18.359688 0.48717564 -0.46361342 36
-17.784956 -2.1238754 -0.5575664 45
-18.347742 -0.84921229 -0.68088454 44
-18.348612 0.48688173 -0.78856128 41
-17.748604 -2.119534 -0.87265563 50
-18.320898 -0.84796983 -1.0045234 44
-18.331865 0.48643738 -1.1119821 53
-17.750345 -2.1197422 -1.1895471 49
-8.0064087 -0.37057099 -0.58084863 2
-7.8810649 0.20912462 -0.6177026 3
-17.738691 -2.1183505 -1.5048534 45
-7.6567111 -0.35438547 -0.69108719 0
-7.6859155 0.20394632 -0.73843396 1
-17.749235 -2.1196096 -1.8223314 36
-7.5679584 -0.3502776 -0.81713736 0
-7.4692702 -0.34570992 -0.93903035 2
-7.424149 -0.34362149 -1.0648915 38
-7.4399362 -0.34435222 -1.2002945 16
-7.410358 -0.34298319 -1.326743 35
-7.3668261 -0.34096837 -1.4504704 36
-7.3762946 -0.34140661 -1.5831683 32
-7.4146924 -0.34318382 -1.7230672 14
-8.1641407 -0.37787151 -2.0415163 4
-5.6789246 -0.26284501 -1.9557282 5
-1.5826348 -0.073251136 -0.73851556 11
-2.0868535 -0.081992716 0.55128896 3
-4.3363709 -0.17037651 0.83860451 28
-5.7752576 -0.22691052 0.8085829 20
-6.3989725 -0.25141636 0.55599004 6
-7.6000776 -0.29860792 0.39128962 0
-8.7442703 -0.34356338 0.29534701 3
-18.362581 0.61556458 0.51095504 35
-13.022925 -1.4630556 0.28732187 14
-11.333799 -0.44530627 0.18174717 2
-15.210676 0.50990397 0.15406804 20
-17.819738 -2.0019517 0.075739108 58
-18.345819 -0.72080928 -0.030442018 31
-18.357166 0.61538303 -0.13849016 36
-17.830212 -2.0031283 -0.24114279 40
-18.338419 -0.72051853 -0.35495076 41
-18.347845 0.61507064 -0.46341157 42
-17.819216 -2.001893 -0.55818874 47
-18.34124 -0.72062945 -0.68044001 46
-18.344765 0.61496735 -0.78856128 50
-17.778849 -1.9973578 -0.87343585 50
-18.338345 -0.72051561 -1.0051796 35
-18.343985 0.61494112 -1.1129504 54
-17.784542 -1.9979975 -1.1908751 52
-7.9928551 -0.31404018 -0.57969213 2
-8.1703568 0.27389297 -0.64051104 1
-17.784737 -1.9980195 -1.5075394 46
-7.6510372 -0.30061013 -0.69036883 1
-7.7439957 0.25960019 -0.74417013 1
-7.727088 -0.86809671 -0.79270607 5
-7.7132783 -0.30305558 -0.83257931 1
-7.4675364 -0.29340035 -0.93853194 1
-7.4224105 -0.29162735 -1.0643241 38
-7.4461045 -0.29255828 -1.2009308 44
-7.4086375 -0.2910862 -1.3260387 35
-7.3690271 -0.28952992 -1.4504704 35
-7.3745899 -0.28974846 -1.5823298 33
-7.366293 -0.28942248 -1.7113087 1
-8.158824 -0.32056111 -2.0395775 4
-5.68818 -0.22348922 -1.9583306 5
-1.5794849 -0.06205814 -0.73682559 12
-2.0177958 -0.065174334 0.53291267 5
-5.7925386 -0.18709764 0.81079972 20
-6.3965888 -0.20660833 0.55564404 5
-11.806222 -0.38133821 0.60769087 21
-14.344348 -0.46331906 0.48437446 2
-18.385803 0.74487758 0.51173341 42
-13.012937 -1.3700092 0.28688347 8
-11.880279 -0.38373023 0.19046283 6
-15.242713 0.61753929 0.15443246 16
-17.877039 -1.8821045 0.075924948 51
-16.903162 -0.54596817 -0.028041145 4
-18.360415 0.74384898 -0.13855048 36
-17.867628 -1.8811138 -0.24146532 40
-18.331011 -0.59208733 -0.35471871 45
-18.367077 0.74411893 -0.46401718 38
-17.856615 -1.8799543 -0.55893546 42
-18.341829 -0.59243679 -0.68029183 45
-18.336031 0.74286109 -0.78838962 48
-17.816198 -1.8756993 -0.87460613 48
-18.330952 -0.59208542 -1.0045234 44
-18.351212 0.74347615 -1.1136768 48
-17.825842 -1.8767146 -1.1927341 50
-7.9908652 -0.25810307 -0.57940304 2
-18.312809 0.74192029 -1.4359945 42
-7.8526363 -0.82672995 -0.66513038 2
-7.6648946 -0.2475743 -0.69144642 1
-7.9409151 0.32171616 -0.76329064 1
-7.6854701 -0.80913055 -0.78783786 0
-7.7430301 -0.25009808 -0.8355819 1
-7.49717 -0.24215683 -0.94202089 1
-7.4242654 -0.23980203 -1.0643241 46
-7.4479656 -0.24056755 -1.2009308 39
-7.4104891 -0.23935707 -1.3260387 37
-7.3787146 -0.23833075 -1.4520143 36
-7.3764329 -0.23825707 -1.5823298 31
-7.3953953 -0.23886953 -1.7176402 0
-8.1453485 -0.26309285 -2.0356998 4
-5.7085042 -0.18438335 -1.9648367 8
-1.5726326 -0.050795663 -0.73344564 13
-2.0027366 -0.05069441 0.52882904 9
-2.6069224 -0.0659879 0.50392163 2
-6.3899083 -0.161745 0.55495209 6
-11.692787 -0.29597449 0.60173112 19
-18.307709 -0.46341515 0.61808342 29
-18.384148 0.87340629 0.51184464 36
-13.046062 -1.281474 0.28740954 5
-18.355764 -0.46463153 0.29421765 33
-15.214059 0.7227996 0.15418951 18
-17.909645 -1.7592086 0.076009423 56
-18.106174 -0.45831382 -0.030030819 29
-18.366762 0.87258023 -0.13864096 39
-17.908188 -1.7590655 -0.2418416 38
-18.334698 -0.4640983 -0.35471871 43
-18.377409 0.87308615 -0.46442094 37
-17.901134 -1.7583727 -0.5599311 46
-18.345518 -0.46437222 -0.68029183 44
-18.330397 0.87085265 -0.78838962 48
-17.848738 -1.7532259 -0.87558138 50
-18.32266 -0.46379364 -1.0038671 42
-18.357538 0.87214208 -1.1144031 50
-17.85837 -1.754172 -1.194062 53
-7.9964609 -0.20241097 -0.57969213 2
-18.323116 0.8705067 -1.4372443 43
-7.7074785 -0.75708157 -0.6523717 12
-7.650506 -0.19365397 -0.69000965 0
-18.291107 0.86898607 -1.7587042 42
-7.7226133 -0.75856823 -0.79108334 2
-7.740612 -0.19593477 -0.83515298 1
-7.5066133 -0.19001167 -0.94301772 1
-7.4178424 -0.18776466 -1.0631895 85
-7.4218297 -0.18786557 -1.1964759 17
-7.4080434 -0.18751661 -1.3253345 35
-7.3723516 -0.18661316 -1.4504704 36
-7.3740072 -0.18665507 -1.5814912 31
-7.4786806 -0.18930463 -1.7366346 4
-8.1702642 -0.20681038 -2.0415163 4
-5.6983085 -0.14423883 -1.9609331 6
-1.5765733 -0.03990712 -0.73513561 13
-1.9837073 -0.036357082 0.5237245 5
-2.5798328 -0.047282778 0.49860919 3
-3.3904073 -0.062138863 0.4743982 4
-5.0720649 -0.092960022 0.44043267 4
-9.1343851 -0.16741359 0.46999967 10
-18.350468 -0.33632454 0.61943263 25
-14.752389 0.80412656 0.41087681 21
-13.070621 -1.1918229 0.28776026 6
-18.362558 -0.33654615 0.29428175 30
-14.757336 0.80439621 0.14961404 26
-18.240166 -1.6631991 0.077361003 47
-18.356892 -0.33644226 -0.030442018 33
-18.360224 1.0007832 -0.13864096 38
-18.218765 -1.6612478 -0.24587318 30
-18.34149 -0.33616 -0.35479608 46
-18.370867 1.0013634 -0.46442094 39
-18.235479 -1.6627718 -0.57001209 36
-18.344316 -0.3362118 -0.68014365 46
-18.343822 0.99988925 -0.78924805 47
-17.952055 -1.6369283 -0.88006753 40
-18.329445 -0.33593923 -1.0040859 43
-18.347015 1.0000632 -1.114161 54
-18.176231 -1.6573694 -1.2145119 46
-8.0056562 -0.14672643 -0.58027041 2
-18.312611 0.99818784 -1.4369318 36
-7.6887593 -0.70108676 -0.65035719 29
-7.6516714 -0.14023866 -0.69000965 0
-18.300499 0.99752772 -1.7602339 42
-7.6326108 -0.6959669 -0.78134692 0
-7.5509305 -0.13839228 -0.81456369 0
-7.6228333 -0.13971011 -0.95747203 1
-7.4229317 -0.13604635 -1.0637568 39
-7.4387536 -0.13633633 -1.1990216 28
-7.401298 -0.13564985 -1.3239261 36
-7.3734746 -0.13513991 -1.4504704 37
-7.3712201 -0.13509858 -1.5806526 32
-7.4720283 -0.13694619 -1.7348256 8
-8.1404686 -0.14919724 -2.0337613 4
-5.7029586 -0.10452294 -1.9622343 6
-1.5840631 -0.029032463 -0.73851556 14
-1.9800376 -0.023155501 0.52270359 3
-2.5604544 -0.02994317 0.4948146 2
-3.3828225 -0.039560337 0.47328979 3
-4.7976232 -0.056105688 0.41656005 4
-7.2179608 -0.084410265 0.37135524 1
-18.352295 -0.21462047 0.61943263 12
-18.398491 1.1253026 0.51262301 41
-11.838953 -1.0003893 0.2604923 27
-11.725693 -0.13712583 0.1878994 3
-15.218779 0.93082261 0.15435147 16
-18.27471 -1.5442095 0.077462368 49
-17.086809 -0.19982126 -0.028332964 4
-18.36915 1.123508 -0.13876158 37
-18.253296 -1.5424 -0.24619572 31
-18.339317 -0.21446869 -0.35471871 52
-18.375797 1.1239145 -0.46472377 37
-18.258057 -1.5428023 -0.57038546 34
-18.33815 -0.21445504 -0.6798473 45
-18.340778 1.1217726 -0.78941971 43
-18.209341 -1.5386858 -0.89216065 43
-18.34325 -0.2145147 -1.0047421 43
-18.343966 1.1219676 -1.1144031 51
-18.218637 -1.5394715 -1.2166365 44
-8.0024643 -0.093584627 -0.57998127 2
-18.337429 1.1215678 -1.4394314 38
-7.6773529 -0.64873487 -0.64901417 30
-7.6643839 -0.089630947 -0.69108719 0
-18.321301 1.1205814 -1.7629107 38
-7.7123981 -0.65169621 -0.78905493 1
-7.5675888 -0.08849898 -0.81627947 0
-7.6275606 -0.089200325 -0.95797044 1
-7.4355483 -0.08695484 -1.0654589 37
-7.4434433 -0.087047167 -1.199658 45
-7.4099097 -0.086655006 -1.3253345 36
-7.3781333 -0.086283401 -1.4512423 36
-7.3797755 -0.086302601 -1.5823298 31
-8.8364162 -0.10333726 -2.0513997 4
-8.1451588 -0.095253363 -2.0347304 4
-5.6997442 -0.066655517 -1.9609331 6
-1.5805955 -0.018484237 -0.73682559 13
-2.0304284 -0.0095686056 0.5359754 4
-2.5998738 -0.012252177 0.5024038 2
-3.4305527 -0.01616684 0.47994024 3
-4.897522 -0.023080084 0.42520955 4
-6.7150455 -0.031645354 0.34546107 7
-8.547039 -0.040278815 0.28846592 5
-13.455554 0.9173103 0.37507102 19
-10.039496 -0.77778614 0.22077401 8
-11.498397 -0.054187398 0.18424651 4
-15.215899 1.0373189 0.15439197 16
-18.300995 -1.4178262 0.077529952 47
-18.35577 -0.086503491 -0.030435385 31
-18.360859 1.2517214 -0.13876158 35
-18.295521 -1.417402 -0.24662575 29
-18.332367 -0.0863932 -0.35456401 43
-18.363512 1.2519022 -0.46462283 38
-18.296286 -1.4174612 -0.5712567 35
-18.347193 -0.086463064 -0.68014365 46
-18.34446 1.2506034 -0.78993481 45
-18.259474 -1.4146093 -0.89411116 42
-18.320339 -0.086336508 -1.0034297 42
-18.331699 1.2497336 -1.114161 51
-18.248838 -1.4137855 -1.2179645 34
-8.0348396 -0.03786502 -0.58229429 2
-18.337109 1.2501023 -1.4400563 40
-7.6737471 -0.59450531 -0.64834267 30
-7.6608396 -0.036102507 -0.69072801 1
-18.324947 1.2492732 -1.764058 38
-7.7246947 -0.59845233 -0.78986627 0
-7.802659 -0.036770847 -0.84158713 13
-7.5208406 -0.035442747 -0.94451302 1
-7.4359741 -0.035042807 -1.0654589 44
-7.4478188 -0.035098623 -1.2002945 45
-7.4142718 -0.03494053 -1.3260387 35
-7.3746314 -0.034753721 -1.4504704 35
-7.376287 -0.034761526 -1.5814912 33
-7.3991699 -0.034869362 -1.7176402 5
-8.1262226 -0.038295671 -2.0298836 4
-5.6962886 -0.026844354 -1.9596318 6
-1.5915624 -0.007500404 -0.7418955 12
-2.0845909 0.0047295345 0.55026805 7
-2.6862974 0.0060946904 0.51910001 1
-3.5573473 0.0080709346 0.49767476 5
-5.3080182 0.01204287 0.4608455 4
-6.9507904 0.015770001 0.35758612 6
-9.0068493 0.020434802 0.30398208 5
-13.484708 1.0139172 0.37607181 14
-10.064627 -0.70908344 0.2212124 15
-16.661819 0.03780245 0.26698121 0
-14.294914 1.0748369 0.14511955 19
-18.350349 -1.2928377 0.077698894 44
-18.351927 0.041636981 -0.030428754 33
-18.371616 1.3813647 -0.13891238 37
-18.324917 -1.2910459 -0.24689452 31
-18.34852 0.041629255 -0.35487342 43
-18.370275 1.3812639 -0.46502659 37
-18.313711 -1.2902564 -0.57150561 38
-18.351347 0.041635666 -0.68029183 47
-18.33927 1.3789325 -0.79010648 41
-18.272888 -1.2873802 -0.89430624 47
-18.332476 0.041592851 -1.0040859 42
-18.342438 1.3791708 -1.1153715 50
-8.6354504 -0.60839361 -0.57604992 1
-8.0309172 0.018220602 -0.58200514 2
-18.319983 1.3774824 -1.4394314 38
-7.6697583 -0.54035771 -0.64767116 31
-7.6688724 0.017399192 -0.69144642 1
-18.319752 1.3774649 -1.7644404 35
-7.7683797 -0.54730588 -0.79392314 1
-7.8544254 0.017820176 -0.84716338 19
-7.5050297 0.017027464 -0.94251931 1
-7.4360375 0.016870935 -1.0654589 42
-7.45578 0.016915726 -1.2015673 38
