# .PCD v0.7 - Point Cloud Data file format
VERSION 0.7
FIELDS x y z intensity
SIZE 4 4 4 4
TYPE F F F F
COUNT 1 1 1 1
WIDTH 1368
HEIGHT 1
VIEWPOINT 0 0 0 1 0 0 0
POINTS 1368
DATA ascii
-6.2791553 7.6907802 -1.0121809 38
-5.6143789 7.9973497 -1.0539142 34
-5.6211743 8.0070286 -1.2286146 29
-5.6308045 8.0207472 -1.4041591 27
-5.5863528 7.9574285 -1.5668743 28
-5.5926747 7.9664335 -1.740822 25
-5.4528399 7.7672467 -1.8665447 5
-4.9956102 7.1159501 -1.8640801 5
-4.6275539 6.5916758 -1.8695958 5
-4.2923551 6.1142054 -1.8660582 6
-3.0795679 4.3866615 -1.8438236 7
-2.2497582 3.2046471 -1.8251643 10
-1.8414319 2.6623423 0.85449791 3
-1.7246994 2.4935706 0.58588475 6
-4.770555 6.8972688 1.1732489 39
-5.6921072 8.2296495 0.86875606 14
-5.6468916 8.1642771 0.51069051 18
-5.6693349 8.1967249 0.33636367 23
-5.66397 9.615509 0.31035376 21
-6.2109404 7.7165751 0.21717919 34
-5.6718345 8.2003393 0.15976577 16
-5.6678991 9.62218 0.11305071 21
-6.2048531 7.709012 0.041797578 41
-5.6862068 8.2211189 -0.016573988 22
-5.6862993 9.6534176 -0.084475376 22
-6.1993322 7.7021532 -0.13288118 29
-5.6260023 8.1340752 -0.19128203 31
-5.6968274 9.6712904 -0.28333613 22
-6.1868629 7.6866612 -0.30715936 35
-5.6391091 8.1530247 -0.36748502 31
-5.6284857 9.5552692 -0.47643319 23
-6.1975274 7.6999106 -0.48255476 38
-5.648169 8.1661234 -0.54382515 30
-5.6355071 9.5671892 -0.67329025 22
-6.2037292 7.7076159 -0.65838075 39
-5.6554556 8.1766586 -0.72049516 29
-5.6468239 9.586401 -0.87171996 22
-5.6731753 7.0484471 -0.76216358 14
-5.6043215 8.1027288 -0.88828415 32
-5.6583939 9.6060429 -1.0707483 23
-6.1953697 7.6972299 -1.0073128 38
-5.6172295 8.1213913 -1.0650667 34
-5.623837 8.1309443 -1.2415736 30
-5.6287293 8.1380177 -1.4177752 27
-5.5935636 8.0871754 -1.5846941 28
-5.5906792 8.083005 -1.7577231 22
-5.40518 7.8148098 -1.8688605 5
-4.9435854 7.1474361 -1.8632414 4
-4.559258 6.5917754 -1.8605508 4
-4.2407355 6.1312561 -1.8621807 7
-3.0424135 4.3987217 -1.8399199 6
-2.2397051 3.2381659 -1.835304 10
-1.8336892 2.6911135 0.85960245 5
-1.7183063 2.5217783 0.58967936 7
-4.7089028 6.9107633 1.1699237 23
-5.6906128 8.3515167 0.87740552 14
-5.65274 8.2959347 0.51644474 20
-5.6705008 8.3220005 0.33987167 20
-5.6648817 9.7724314 0.31413451 22
-6.1196318 7.7127557 0.21586403 33
-5.6730013 8.3256702 0.16143198 17
-5.6808233 9.7999325 0.11467035 23
-6.1260204 7.720808 0.041628633 41
-5.6827307 8.3399487 -0.016733162 19
-5.6889768 9.8139982 -0.085530944 23
-6.1081195 7.698247 -0.13207486 31
-5.6343851 8.2689972 -0.19352512 31
-5.6953483 9.8249893 -0.28666714 23
-6.0957737 7.6826868 -0.30529252 35
-5.6450758 8.2846861 -0.37163404 33
-5.6458158 9.739542 -0.48364407 28
-6.1163044 7.7085624 -0.4804092 37
-5.6449976 8.2845716 -0.54907531 29
-5.6506748 9.7479239 -0.68321651 27
-6.1175184 7.7100925 -0.65492815 41
-5.6611352 8.3082552 -0.72859061 30
-5.6597567 9.7635908 -0.88421768 27
-5.6585135 7.1315947 -0.76686412 13
-5.6059418 8.2272539 -0.89762312 32
-5.6670737 9.7762127 -1.0852799 26
-6.114274 7.7060032 -1.0028503 39
-5.6163793 8.2425718 -1.0757903 32
-5.6205711 8.248724 -1.2535357 29
-5.6319776 8.2654638 -1.4330932 26
-5.5947838 8.2108784 -1.6012411 28
-5.6028461 8.2227106 -1.7795539 20
-5.3438601 7.8426237 -1.8665447 5
-4.8935661 7.1817746 -1.8632414 4
-4.5175152 6.6298842 -1.8623598 5
-4.2000132 6.1639194 -1.8631501 6
-3.0073707 4.4136028 -1.8373175 6
-2.2231681 3.262711 -1.840374 11
-1.8234786 2.7166944 0.86368603 7
-1.7159804 2.5565391 0.5949918 8
-4.638464 6.9105773 1.1643816 29
-5.6943545 8.4836864 0.88709301 17
-5.6547956 8.4247503 0.52199352 19
-5.6746473 8.4543257 0.34364951 20
-5.6678381 9.9367771 0.31813762 23
-6.0410004 7.7237911 0.21498725 34
-5.674921 8.4547338 0.16316231 15
-5.6796474 9.9574804 0.11604705 23
-6.0325408 7.7129755 0.041358318 38
-5.6845584 8.4690924 -0.016912233 22
-5.691668 9.9785547 -0.086616665 25
-6.0295863 7.7091975 -0.13153732 31
-5.6255536 8.3811846 -0.19522679 31
-5.6939793 9.9826078 -0.29009905 23
-6.0148954 7.6904144 -0.30392349 35
-5.6405654 8.4035492 -0.37519035 32
-5.6450043 9.8967447 -0.48948145 28
-6.0303416 7.7101636 -0.47787356 37
-5.6515741 8.4199505 -0.55541921 29
-5.6457863 9.8981171 -0.6909638 25
-6.02666 7.7054558 -0.65094441 41
-5.6608033 8.4337006 -0.73610783 29
-5.6625843 9.9275656 -0.89546573 26
-5.6576996 7.2337174 -0.77357924 13
-5.6060944 8.3521929 -0.90696216 31
-5.6677313 9.9365892 -1.0986643 24
-6.0235529 7.7014832 -0.99676502 40
-5.6185408 8.3707361 -1.0873717 32
-5.6225672 8.3767357 -1.2669932 27
-5.6315107 8.3900595 -1.4478439 26
-5.5967474 8.3382673 -1.6184245 25
-5.5979705 8.3400898 -1.796455 20
-5.2780418 7.8634462 -1.862685 5
-4.8433089 7.2157636 -1.8632414 5
-4.4754634 6.6677318 -1.8641688 4
-4.1525531 6.1866465 -1.8612113 7
-2.9764845 4.4344907 -1.8373175 7
-2.1841719 3.2540703 -1.8268542 11
-1.8215317 2.755168 0.87185329 6
-1.7132521 2.5913889 0.60030425 9
-4.572629 6.9163556 1.159948 24
-5.6943274 8.6129866 0.89643449 16
-5.6575284 8.5573273 0.52774781 17
-5.6794243 8.5904455 0.34756228 20
-5.6687722 10.101634 0.32214075 22
-5.9503064 7.7182708 0.21367207 35
-5.6819291 8.5942335 0.16508488 16
-5.6745877 10.111998 0.11738325 24
-5.9467988 7.7137208 0.041138686 41
-5.6848564 8.5986614 -0.017091302 20
-5.6923347 10.143621 -0.087702386 23
-5.9341049 7.6972547 -0.13062349 31
-5.6242499 8.5069914 -0.19723783 29
-5.6985116 10.154629 -0.29393476 22
-5.9244442 7.6847239 -0.30205664 37
-5.64569 8.5394201 -0.37948754 35
-5.6481361 10.06486 -0.49583387 27
-5.9470959 7.7141061 -0.47553295 39
-5.6499238 8.5458241 -0.5611068 31
-5.6566586 10.080048 -0.70089006 25
-5.9434772 7.7094121 -0.64775741 42
-5.6611934 8.56287 -0.74391419 30
-5.6575403 10.081619 -0.90577638 24
-5.6508665 7.3298602 -0.77962279 14
-5.6113644 8.4875011 -0.91737878 31
-5.6703196 10.104391 -1.1128135 24
-5.940484 7.7055297 -0.99189681 40
-5.621377 8.5026455 -1.0993822 32
-5.6230478 8.5051727 -1.2804506 28
-5.6295757 8.5150471 -1.4625947 24
-5.5950246 8.4627857 -1.6349716 22
-5.6004124 8.4709358 -1.8161731 18
-5.2208514 7.8968287 -1.8619131 5
-4.7798734 7.2298241 -1.8582102 5
-4.4202089 6.6858125 -1.8605508 4
-4.1092606 6.2154856 -1.8612113 7
-2.9475393 4.4583173 -1.8386188 6
-2.1773965 3.2934334 -1.840374 11
-1.8043628 2.7710586 0.8728742 1
-1.7144061 2.6329072 0.60713446 8
-3.5428648 5.4409709 0.90833956 2
-5.6797223 8.7226601 0.90370005 18
-5.6630425 8.6970434 0.53391308 20
-5.6716671 8.710289 0.35080045 19
-5.6734738 10.277482 0.32647747 23
-5.8672476 7.7214112 0.21261993 36
-5.6828976 8.7275362 0.16687928 15
-5.6773095 10.284431 0.11892191 24
-5.8637657 7.7168283 0.040935948 39
-5.6923499 8.742053 -0.017296903 20
-5.6890378 10.305676 -0.088757955 22
-5.8536091 7.7034621 -0.1300322 30
-5.6301904 8.6465912 -0.19955829 32
-5.6989827 10.32369 -0.2976695 24
-5.8416276 7.6876945 -0.30056316 33
-5.6513705 8.6791182 -0.38393295 31
-5.6453295 10.226499 -0.50184298 26
-5.8665109 7.7204413 -0.47338739 40
-5.6555066 8.6854706 -0.56766945 30
-5.6536846 10.241633 -0.7093637 24
-5.8557081 7.7062244 -0.64403921 39
-5.6600528 8.6924524 -0.75172049 30
-5.6621814 10.257025 -0.91796172 25
-5.6477909 7.4326015 -0.78633791 13
-5.6084929 8.6132689 -0.92671776 30
-5.6727619 10.276192 -1.1273451 24
-5.8576574 7.7087903 -0.9870286 39
-5.6204724 8.6316662 -1.1109636 31
-5.6285024 8.6439981 -1.2954034 27
-5.6391311 8.6603222 -1.4807495 25
-5.5982971 8.5976105 -1.6534278 28
-5.6055946 8.6088171 -1.8372996 19
-5.1591687 7.9232173 -1.8595973 5
-4.7420878 7.2826838 -1.8632414 5
-4.3712993 6.713243 -1.8596462 5
-4.0636506 6.2407703 -1.860242 6
-2.9184067 4.4819565 -1.8399199 6
-2.1464376 3.2964015 -1.8336141 7
-1.7724472 2.7640538 0.86674875 0
-1.708703 2.6646478 0.61168802 9
-3.4898245 5.4422288 0.90446013 5
-5.6208396 8.7654533 0.904046 26
-5.6668782 8.8372488 0.54007834 20
-5.6797748 8.8573599 0.35511801 22
-5.6664538 10.436314 0.33025822 23
-5.7868299 7.7269745 0.21165547 34
-5.6865973 8.868 0.16880184 18
-5.6836224 10.467934 0.12058203 23
-5.7785778 7.7159557 0.040716317 41
-5.6916375 8.8758602 -0.017482605 19
-5.6952033 10.489264 -0.089994475 23
-5.770915 7.7057242 -0.12938714 29
-5.6301351 8.7799501 -0.20172404 30
-5.7030916 10.503792 -0.30170706 22
-5.7638488 7.6962886 -0.29931858 34
-5.6510572 8.8125772 -0.38808197 32
-5.6462588 10.399118 -0.50836706 27
-5.7741499 7.7100439 -0.47026658 40
-5.6507883 8.8121576 -0.57335711 30
-5.6525364 10.410681 -0.71832156 22
-5.773056 7.7085829 -0.64085221 41
-5.6595292 8.8257885 -0.75981593 27
-5.6608391 10.425972 -0.92952216 22
-5.6339922 7.5228958 -0.79170996 14
-5.6084375 8.7461138 -0.93677521 29
-5.6711779 10.445014 -1.1414943 21
-5.763145 7.6953487 -0.98013198 42
-5.6201839 8.764431 -1.122974 32
-5.6280055 8.7766285 -1.3093592 29
-5.6341052 8.7861414 -1.4955003 24
-5.5914307 8.7195911 -1.6693385 23
-5.5963683 8.7272921 -1.8542007 19
-5.1122031 7.9722576 -1.862685 6
-4.6742401 7.2892733 -1.8565332 5
-4.3180156 6.733757 -1.8569328 4
-4.0199833 6.2689881 -1.860242 7
-2.8850038 4.4990373 -1.8386188 7
-2.1253293 3.3143582 -1.835304 6
-1.7531085 2.7763598 0.86674875 0
-1.7047378 2.6997561 0.6170004 9
-3.434828 5.4396625 0.9000265 9
-5.578661 8.8348036 0.90715986 22
-5.660502 8.9644136 0.5454216 17
-5.6839719 9.0015821 0.35930061 19
-5.6744394 10.627285 0.33503973 22
-5.6947479 7.7157044 0.21025261 35
-5.6779366 8.9920244 0.17040399 19
-5.68011 10.637905 0.1220802 24
-5.6960659 7.7174902 0.040513579 39
-5.6872001 9.0066948 -0.017661676 23
-5.702848 10.680489 -0.091291308 30
-5.6837268 7.7007718 -0.12863457 28
-5.6348987 8.9238663 -0.20412183 31
-5.6955433 10.666809 -0.30523995 42
-5.681488 7.6977386 -0.2978251 33
-5.6555595 8.9565868 -0.39267552 30
-5.6450496 10.572243 -0.51489121 25
-5.6964583 7.7180219 -0.46831608 39
-5.6552401 8.9560804 -0.5801385 28
-5.6587033 10.597814 -0.72848988 24
-5.6906581 7.7101631 -0.63766521 43
-5.6638112 8.969655 -0.76877874 30
-5.6630459 10.605947 -0.94201994 23
-5.6452436 7.6486325 -0.80077535 15
-5.6174374 8.8962126 -0.94862854 33
-5.6787629 10.635383 -1.1579379 25
-5.6856503 7.7033787 -0.97607511 42
-5.6225629 8.9043303 -1.1358423 31
-5.6259317 8.9096661 -1.323315 28
-5.6402826 8.9323931 -1.5136551 23
-5.5957856 8.8619232 -1.6890676 25
-5.5689445 8.819416 -1.8654681 5
-5.0417571 7.9845209 -1.8572814 4
-4.6148877 7.3084974 -1.853179 4
-4.2646623 6.7538524 -1.8542193 5
-3.9678342 6.2837729 -1.8563645 6
-2.8515069 4.5158696 -1.8373175 7
-2.1060116 3.3352449 -1.838684 9
-1.7255151 2.7753932 0.86266512 0
-1.7024374 2.7382739 0.62307179 8
-3.377944 5.4332314 0.89503866 10
-5.5399909 8.9107609 0.91096562 21
-5.6673837 9.1156645 0.55220336 18
-5.6843133 9.1428957 0.36334831 18
-5.6242762 10.712662 0.3364853 39
-5.6242771 7.732635 0.20963886 25
-5.6699262 9.1197548 0.17207022 14
-5.6261621 10.716253 0.1225256 41
-5.6467543 7.7635379 0.040547371 29
-5.6833181 9.1412954 -0.01784738 15
-5.6151347 10.69525 -0.091080196 40
-5.655705 7.7758441 -0.12922588 24
-5.6210275 9.0411043 -0.20590083 26
-5.6079297 10.681526 -0.30453336 41
-5.6605325 7.7824817 -0.29956749 27
-5.6393251 9.0705347 -0.39593548 23
-5.6212659 10.706927 -0.51952678 47
-5.6142364 7.7188306 -0.46597549 33
-5.6474056 9.0835314 -0.58582616 20
-5.6142793 10.69362 -0.73236352 41
-5.6202583 7.7271099 -0.63580614 30
-5.6621408 9.1072321 -0.77716333 17
-5.6074061 10.680529 -0.94514436 47
-5.6362548 7.7491026 -0.80715472 22
-5.6182966 9.0367107 -0.95940435 40
-5.6099334 10.685343 -1.1590852 40
-5.6410942 7.7557564 -0.97769785 31
-5.6127572 9.0278015 -1.1465659 31
-5.6138859 9.0296173 -1.3352772 21
-5.634232 9.0623426 -1.5289731 18
-5.6046739 9.0148001 -1.710706 26
-5.4947639 8.8380156 -1.8612429 6
-4.9879637 8.0228567 -1.8580534 4
-4.567883 7.3471804 -1.854856 4
-4.2194648 6.7867699 -1.8551238 5
-3.9238687 6.3113203 -1.8563645 6
-2.8179138 4.5324545 -1.8360163 6
-2.0845904 3.3529453 -1.840374 11
-1.6980208 2.7741771 0.85858154 0
-1.7037818 2.7835894 0.63066095 8
-3.325454 5.4330301 0.89115924 7
-5.5421386 9.0545855 0.921691 22
-5.6619983 9.2504082 0.55795765 20
-5.68713 9.2914677 0.36766586 20
-5.5255103 10.705475 0.33503973 39
-5.6330562 7.8594728 0.21200618 26
-5.6729345 9.2682753 0.17412096 13
-5.523694 10.701957 0.12191823 42
-5.6366901 7.864543 0.040868368 25
-5.6924486 9.3001566 -0.018079508 13
-5.5219855 10.698647 -0.090778604 43
-5.6548715 7.8899102 -0.13046223 22
-5.6224942 9.1858673 -0.20829862 21
-5.5148821 10.684884 -0.30352396 40
-5.6712761 7.9127984 -0.30305228 28
-5.640553 9.2153721 -0.40052903 22
-5.5262184 10.706847 -0.51763821 46
-5.6183977 7.8390207 -0.47085175 29
-5.6464057 9.2249336 -0.59238881 20
-5.5211749 10.697075 -0.7299425 41
-5.6219773 7.8440146 -0.64218014 29
-5.6650701 9.2554274 -0.78641528 17
-5.5180736 10.691067 -0.94264483 45
-5.6423898 7.8724952 -0.81588435 21
-5.6112251 9.1674566 -0.96910256 22
-5.5132847 10.681788 -1.1544962 42
-5.6424479 7.8725762 -0.98743427 28
-5.6243367 9.1888781 -1.1620079 24
-5.6211557 9.1836805 -1.3522236 19
-5.6431761 9.2196569 -1.5488299 20
-5.6055117 9.1581221 -1.7304351 28
-5.4226508 8.8593693 -1.8577218 5
-4.9174895 8.0340509 -1.8526498 4
-4.5185204 7.3822269 -1.8556947 5
-4.167913 6.8094153 -1.8533148 5
-3.8797116 6.3385601 -1.8563645 7
-2.7842276 4.5487905 -1.8347151 7
-2.04599 3.342679 -1.8268542 10
-1.678612 2.785964 0.85858154 1
-1.7025487 2.8256915 0.63749123 8
-2.1241624 3.5254366 0.57581747 3
-5.5281491 9.1749754 0.92999452 21
-5.6694365 9.4094687 0.56515044 21
-5.6902089 9.443944 0.37211832 20
-5.4253101 10.693868 0.33348295 38
-5.6311083 7.9737382 0.21402279 22
-5.6803336 9.4275532 0.17636397 13
-5.4325585 10.708155 0.12155382 44
-5.6508708 8.0017223 0.041375212 27
-5.6851835 9.4356031 -0.01826521 14
-5.432683 10.7084 -0.090537332 44
-5.6596403 8.0141401 -0.13185984 22
-5.6242733 9.3345118 -0.21077377 21
-5.4166336 10.676765 -0.30221176 42
-5.6643295 8.0207796 -0.30566588 25
-5.6420932 9.3640871 -0.40527079 21
-5.4368706 10.716655 -0.51626474 52
-5.6142378 7.9498496 -0.47514287 29
-5.651948 9.3804426 -0.59982646 21
-5.4246831 10.692632 -0.72703725 42
-5.6246376 7.9645758 -0.64881974 32
-5.6662025 9.4041004 -0.79566723 18
-5.4270635 10.697324 -0.93983281 44
-5.6286793 7.9702992 -0.82192791 25
-5.6128793 9.3156004 -0.98059672 22
-5.4187608 10.680959 -1.1502897 41
-5.6562161 8.0092916 -0.99960476 30
-5.6236739 9.3335171 -1.1753051 22
-5.6244969 9.3348827 -1.3686717 18
-5.6461077 9.3707495 -1.5675521 19
-5.6046185 9.3018904 -1.7501643 22
-5.3566041 8.8902655 -1.8563133 5
-4.8633065 8.0715475 -1.8534218 5
-4.4587979 7.4001918 -1.8523405 5
-4.1222835 6.8416843 -1.8542193 5
-3.8293569 6.3555188 -1.8534563 7
-2.7484994 4.5616379 -1.8321127 6
-2.0207329 3.353776 -1.8251643 11
-1.6532032 2.7876353 0.85551882 2
-1.6988069 2.8645325 0.64356256 9
-2.1075816 3.5538094 0.57803428 3
-5.5046158 9.2818975 0.93691415 28
-5.6708517 9.5622044 0.57193226 18
-5.689394 9.5934706 0.37643588 24
-5.3398161 10.710013 0.33281577 41
-5.6324043 8.0949221 0.21621475 23
-5.6817026 9.5805016 0.17847879 15
-5.3344684 10.699286 0.12102743 40
-5.6496992 8.1197786 0.041780684 29
-5.6946659 9.6023598 -0.018510604 18
-5.3363748 10.703111 -0.090175427 42
-5.6583772 8.1322508 -0.13314995 21
-5.6262894 9.4870634 -0.21332626 20
-5.3241215 10.678535 -0.30120236 42
-5.6675653 8.1454563 -0.30890176 26
-5.6459079 9.5201445 -0.41030887 22
-5.3387413 10.707857 -0.51403278 51
-5.6202106 8.0773973 -0.4804092 27
-5.6474428 9.5227318 -0.60638911 21
-5.3285241 10.687365 -0.724132 47
-5.630444 8.0921049 -0.65599048 29
-5.6614628 9.5463734 -0.8043409 23
-5.3291187 10.688557 -0.93577105 43
-5.6389174 8.1042824 -0.8316648 27
-5.6107035 9.460783 -0.9917317 20
-5.3316259 10.693585 -1.1476128 42
-5.6501637 8.1204462 -1.0085298 28
-5.6273499 9.4888515 -1.1898892 22
-5.6280227 9.4899855 -1.3856181 18
-5.6431623 9.5155144 -1.5851395 20
-5.5899024 9.4257078 -1.7660748 22
-5.288383 8.917285 -1.8542007 5
-4.8008323 8.0951757 -1.8511059 6
-4.4070268 7.4311395 -1.8523405 4
-4.076407 6.8736477 -1.8551238 5
-3.784894 6.3820977 -1.8534563 6
-2.7185156 4.5839677 -1.8334138 7
-1.9935712 3.3615649 -1.8217844 11
-1.635651 2.8024492 0.85653973 2
-1.7005436 2.9136333 0.65191066 8
-2.1066821 3.6094921 0.58468473 4
-5.4878917 9.4027014 0.94521767 23
-5.6744342 9.7223139 0.57912511 21
-5.6907954 9.7503471 0.38102326 20
-5.2455664 10.707534 0.33159259 40
-5.6435852 8.2330008 0.21884508 25
-5.6973372 9.7615557 0.18110631 18
-5.2420464 10.700348 0.12062252 44
-5.6471524 8.238205 0.04218616 26
-5.7041097 9.773159 -0.018762629 19
-5.242166 10.700592 -0.089843675 43
-5.6602616 8.257329 -0.13454758 22
-5.6405568 9.6642714 -0.21642019 27
-5.2336092 10.683125 -0.30029392 42
-5.676116 8.2804575 -0.312511 24
-5.6578884 9.6939659 -0.41608787 27
-5.248033 10.712568 -0.51248759 49
-5.6178966 8.1955252 -0.48509043 27
-5.6633682 9.7033548 -0.61535811 25
-5.2397299 10.69562 -0.72219521 42
-5.6369987 8.2233925 -0.66342682 29
-5.6751199 9.7234898 -0.81590587 28
-5.2350698 10.686108 -0.93233413 42
-5.6407957 8.2289314 -0.84039444 23
-5.6027546 9.5995026 -1.0021483 26
-5.241075 10.698365 -1.1441711 40
-5.6473331 8.2384682 -1.0182662 27
-5.629127 9.6446867 -1.2044733 27
-5.6396556 9.6627264 -1.4050566 25
-5.644455 9.6709499 -1.604429 22
-5.5976152 9.5906963 -1.7896224 20
-5.2200446 8.9437847 -1.8520881 5
-4.7422223 8.1251059 -1.850334 4
-4.3510971 7.4549699 -1.8506633 5
-4.0184999 6.8851132 -1.8506013 5
-3.7343776 6.3983107 -1.8505481 7
-2.6788206 4.5897684 -1.828209 6
-1.9700544 3.3754008 -1.8217844 10
-1.6179725 2.8171537 0.85756063 3
-1.6997207 2.9594905 0.65949982 8
-2.101161 3.6584635 0.59022671 7
-5.5134096 9.5997438 0.96113276 23
-5.676054 9.8829346 0.5863179 20
-5.6922717 9.9111719 0.38574558 20
-5.1516123 10.704261 0.33036941 40
-5.6441574 8.3583689 0.22112472 24
-5.6987658 9.9224796 0.18334931 18
-5.1516051 10.704247 0.1202581 45
-5.6521792 8.3702478 0.042659212 27
-5.711442 9.9445505 -0.019014655 18
-5.1517229 10.704491 -0.089572251 45
-5.6584339 8.3795099 -0.13589144 21
-5.6426616 9.8247929 -0.21912737 29
-5.1467609 10.69418 -0.29958734 43
-5.676342 8.4060297 -0.31574687 24
-5.6657233 9.8649473 -0.42171869 30
-5.1540542 10.709334 -0.51059902 49
-5.6097322 8.3073883 -0.48938155 26
-5.6631193 9.8604136 -0.62279576 29
-5.1493502 10.69956 -0.72001624 43
-5.6352901 8.3452368 -0.67006636 29
-5.67068 9.8735781 -0.82515782 28
-5.1430459 10.686461 -0.92920971 42
-5.6456666 8.3606024 -0.84979558 23
-5.6169481 9.7800217 -1.0168751 28
-5.1438122 10.688053 -1.1391999 40
-5.6542621 8.373332 -1.0300311 28
-5.6250377 9.7941074 -1.2181995 31
-5.6412406 9.822319 -1.4225014 27
-5.6517372 9.8405952 -1.6259878 23
-5.6013265 9.7528219 -1.8125337 19
-5.1535563 8.9731817 -1.8506796 5
-4.6795182 8.1478033 -1.8480182 5
-4.2989454 7.4851646 -1.8506633 4
-3.978097 6.9265151 -1.8542193 5
-3.6857524 6.4174957 -1.8486094 6
-2.6504803 4.6149178 -1.8308114 7
-1.9536642 3.4016476 -1.8285443 12
-1.6115845 2.8519506 0.86470693 3
-1.7079999 3.0225728 0.6708836 10
-2.0872619 3.6937363 0.59355193 8
-5.4991894 9.7316751 0.97047418 24
-5.675704 10.044045 0.59351075 20
-5.6976762 10.082929 0.39087266 19
-5.0647955 10.714661 0.32959104 43
-5.6432567 8.4841394 0.22340436 23
-5.7001886 10.087375 0.1856564 16
-5.0647845 10.714638 0.11997467 41
-5.6556382 8.5027542 0.043132264 27
-5.7127199 10.10955 -0.019253416 18
-5.0631909 10.711266 -0.089330979 43
-5.6618237 8.5120535 -0.13739656 21
-5.6467319 9.992775 -0.22198926 27
-5.0514688 10.686468 -0.29837608 42
-5.6750932 8.5320024 -0.31898275 25
-5.6635766 10.022583 -0.4267568 28
-5.0672078 10.719765 -0.50939721 51
-5.6201963 8.4494705 -0.49542812 26
-5.6648798 10.02489 -0.63067096 26
-5.062583 10.70998 -0.71832156 43
-5.6365776 8.4740982 -0.67723715 31
-5.6761951 10.044914 -0.83614451 26
-5.0580897 10.700475 -0.92733502 45
-5.6467671 8.4894171 -0.85886097 24
-5.6171312 9.9403915 -1.029447 29
-5.0503521 10.684106 -1.1349933 42
-5.6551766 8.5020599 -1.0409845 25
-5.6289158 9.9612465 -1.2340704 32
-5.6428213 9.9858541 -1.4404447 26
-5.6491303 9.9970188 -1.6452773 23
-5.6049857 9.9188976 -1.8360814 17
-5.0772262 8.9849443 -1.8457501 4
-4.6109366 8.1597729 -1.8433865 4
-4.2331152 7.491159 -1.8447936 5
-3.9181426 6.9337654 -1.8487923 5
-3.6351326 6.4329348 -1.8457012 6
-2.6163366 4.6300163 -1.8295102 7
-1.9209504 3.3994219 -1.8200943 10
-1.5897571 2.859751 0.86368603 3
-1.7135732 3.082479 0.68150848 11
-2.094147 3.7670777 0.6029734 8
-5.4775896 9.8534193 0.97877771 23
-5.6772647 10.212606 0.60111457 21
-5.6893072 10.234269 0.39519021 21
-4.9747181 10.717117 0.32859024 41
-5.6452498 8.616992 0.22585936 24
-5.7054186 10.263251 0.18815574 18
-4.9763865 10.720711 0.11965074 43
-5.657516 8.6357155 0.043605316 28
-5.7100301 10.271547 -0.019485544 18
-4.9714479 10.710072 -0.089029387 42
-5.668015 8.651741 -0.13900919 21
-5.6467896 10.157785 -0.22477379 27
-4.9599042 10.685203 -0.29736668 42
-5.6723547 8.6583652 -0.32221863 23
-5.6633906 10.187649 -0.43209127 28
-4.9686904 10.704131 -0.50699359 51
-5.6179953 8.5753908 -0.50049943 27
-5.6646214 10.189863 -0.63854611 26
-4.9675174 10.701605 -0.71541631 45
-5.6363339 8.6033831 -0.68440789 29
-5.6815333 10.220285 -0.84742028 26
-4.9614363 10.688503 -0.92327327 47
-5.6485219 8.6219864 -0.86826211 24
-5.6192212 10.108194 -1.0427371 26
-4.967258 10.701045 -1.1330812 43
-5.6523814 8.6278782 -1.0515323 30
-5.6346011 10.13586 -1.2507992 29
-5.6423955 10.149881 -1.4583879 25
-5.6503882 10.164259 -1.6662687 22
-5.5663071 10.013009 -1.8462641 7
-5.01438 9.0201693 -1.8457501 4
-4.5653038 8.2123442 -1.8480182 4
-4.1921196 7.541038 -1.8498248 5
-3.8696437 6.9609485 -1.8487923 5
-3.5939078 6.4649382 -1.84764 6
-2.5857892 4.6514735 -1.8308114 7
-1.8989344 3.4159176 -1.8217844 10
-1.5845976 2.8979268 0.87185329 6
-1.7108538 3.1288254 0.68909764 12
-2.0868022 3.8163633 0.60851544 8
-5.4813175 10.024284 0.99192494 20
-5.6824899 10.39219 0.60933495 20
-5.6963568 10.41755 0.40072206 20
-4.8848543 10.718841 0.32758945 43
-5.6456594 8.7502823 0.22831434 25
-5.7046251 10.432672 0.19052692 17
-4.8815165 10.711515 0.11916485 42
-5.6556406 8.7657518 0.044061475 29
-5.7207017 10.462072 -0.01977073 18
-4.8783102 10.70448 -0.088697635 45
-5.6703591 8.7885647 -0.14056808 20
-5.6486483 10.3303 -0.22771302 29
-4.873579 10.694099 -0.2966601 44
-5.676796 8.7985411 -0.32595235 23
-5.6669216 10.363719 -0.43787026 29
-4.8822398 10.713103 -0.50579178 50
-5.6229706 8.7151165 -0.50635093 25
-5.6699924 10.369334 -0.64729631 27
-4.8777838 10.703325 -0.71323735 43
-5.6388836 8.7397795 -0.69210976 28
-5.6808634 10.389215 -0.85811788 26
-4.8718123 10.690223 -0.92046124 45
-5.653019 8.7616892 -0.87833476 23
-5.6211457 10.280004 -1.0563865 29
-4.8693132 10.684738 -1.1277275 47
-5.6481023 8.7540684 -1.06208 28
-5.6342978 10.304056 -1.2666701 29
-5.6418505 10.317868 -1.4768295 26
-5.6552768 10.342422 -1.6889622 21
-5.4867945 10.034301 -1.8430821 5
-4.9437289 9.0411367 -1.8429333 4
-4.498445 8.2267981 -1.8441585 5
-4.1299896 7.5529633 -1.8456321 4
-3.8228221 6.9912124 -1.8496968 5
-3.5356536 6.4660358 -1.8408544 7
-2.5478089 4.6594563 -1.8269078 6
-1.8698224 3.4195485 -1.8167144 11
-1.5716546 2.9225433 0.87593693 9
-1.7205904 3.1994944 0.70199925 11
-2.0882516 3.8831728 0.6168285 2
-5.4659357 10.164087 1.0019584 19
-5.6760206 10.554747 0.6165278 21
-5.6973333 10.594378 0.40598404 21
-4.7919493 10.712531 0.32636628 42
-5.6487708 8.8907452 0.23094469 23
-5.7093167 10.616663 0.19315444 18
-4.7919226 10.712472 0.11880043 43
-5.6608028 8.9096832 0.044585213 27
-5.7176199 10.632102 -0.020016124 18
-4.7871327 10.701763 -0.088396043 43
-5.6689219 8.9224615 -0.1420732 19
-5.6483693 10.503328 -0.23065226 26
-4.784111 10.695008 -0.29575166 45
-5.6816974 8.9425688 -0.3298105 23
-5.6663728 10.536807 -0.44350106 28
-4.7942796 10.71774 -0.50441825 49
-5.6198392 8.8452091 -0.5116173 27
-5.6712375 10.545853 -0.65582776 24
-4.7882738 10.704314 -0.71105844 44
-5.63552 8.8698893 -0.69928056 28
-5.6856661 10.572683 -0.86997193 25
-4.7856684 10.69849 -0.91827416 45
-5.6537013 8.8985052 -0.88807166 25
-5.6247149 10.459342 -1.0707542 28
-4.7783475 10.682124 -1.1239034 44
-5.6594062 8.907485 -1.0758734 27
-5.6394515 10.486746 -1.2842568 27
-5.6429906 10.493326 -1.4962682 25
-5.656074 10.517655 -1.7110883 20
-5.4184785 10.075839 -1.8437184 5
-4.8692994 9.0546227 -1.838708 4
-4.4278893 8.2338057 -1.838755 4
-4.0734539 7.5747218 -1.843955 4
-3.7702301 7.0108666 -1.8478878 5
-3.494102 6.4973974 -1.8427931 6
-2.5134261 4.6737986 -1.8256066 7
-1.847621 3.4357121 -1.8184044 12
-1.554829 2.9402823 0.87797874 14
-1.733094 3.2773931 0.71641868 4
-2.0814614 3.9361784 0.62292475 7
-5.4581814 10.321774 1.0137217 20
-5.6544838 10.692995 0.62228203 32
-5.6568708 10.697509 0.40841267 33
-4.700973 10.709111 0.32525429 42
-5.6374664 9.0113297 0.23304898 30
-5.6556253 10.695154 0.19385938 25
-4.7041569 10.716365 0.1184765 42
-5.6472569 9.0269794 0.044973791 22
-5.6544738 10.692976 -0.020055918 32
-4.7026567 10.712947 -0.08821509 42
-5.6701312 9.0635433 -0.14368585 16
-5.6515546 10.687456 -0.23382352 35
-4.691649 10.687871 -0.29464132 42
-5.6742592 9.0701418 -0.33304638 18
-5.6674175 10.717454 -0.44942826 53
-4.7032757 10.714357 -0.5027014 49
-5.6172814 8.9790649 -0.5170787 26
-5.6609559 10.705235 -0.66326547 49
-4.7005877 10.708234 -0.70912158 45
-5.6327291 9.0037575 -0.70671684 34
-5.6490164 10.682655 -0.87575436 45
-4.6996422 10.706079 -0.91608703 44
-5.6400614 9.0154781 -0.89579397 23
-5.6260509 10.639226 -1.0851219 27
-4.6924524 10.689701 -1.1212265 42
-5.6519561 9.0344915 -1.0864211 22
-5.6423254 10.670003 -1.3018435 31
-5.649374 10.683331 -1.5177003 36
-5.6509953 10.686398 -1.7320797 30
-5.3313894 10.082003 -1.8379906 5
-4.8059678 9.0883961 -1.838708 4
-4.3647943 8.2541084 -1.8364391 4
-4.0149884 7.5926032 -1.8414394 5
-3.7011576 6.9991288 -1.8379383 5
-3.4432142 6.5113411 -1.839885 6
-2.4771993 4.6845441 -1.8230041 7
-1.8218954 3.4453223 -1.8167144 10
-1.5414002 2.9647915 0.88206238 10
-3.5670838 6.8610735 1.4943098 19
-2.086823 4.0138798 0.63290042 8
-4.9723887 9.5640936 0.93587619 11
-5.5649529 10.703856 0.62063795 29
-5.5617647 10.697723 0.40692851 36
-4.6118608 10.708618 0.32425353 38
-5.6478209 9.1696434 0.23611772 16
-5.5605273 10.695344 0.19315444 24
-4.6149898 10.715883 0.11811208 46
-5.6554208 9.181982 0.045548212 17
-5.5575433 10.689603 -0.019976331 32
-4.618259 10.723475 -0.088034138 44
-5.6591558 9.1880455 -0.14502971 14
-5.57127 10.716006 -0.23359148 50
-4.6026845 10.687311 -0.29373288 40
-5.6716037 9.2082558 -0.33665562 19
-5.5703311 10.7142 -0.4476501 50
-4.6141343 10.713898 -0.50115621 49
-5.6152201 9.1167135 -0.52273518 17
-5.5639729 10.701971 -0.66064042 43
-4.6115026 10.707787 -0.70694268 42
-5.6346197 9.1482096 -0.71494997 17
-5.5577369 10.689976 -0.87315226 47
-4.6058569 10.694677 -0.91233772 44
-5.6396933 9.1564474 -0.90586662 17
-5.5645013 10.702987 -1.0876362 51
-4.6098356 10.703916 -1.1193144 39
-5.6555262 9.1821527 -1.099403 20
-5.5603595 10.695021 -1.3001277 55
-5.5673289 10.708426 -1.5157067 45
-5.5579872 10.690458 -1.7264065 33
-5.2535872 10.104962 -1.8354449 4
-4.7369528 9.1112471 -1.8365953 4
-4.2998219 8.2704515 -1.8333514 4
-3.9654922 7.6273885 -1.8431164 5
-3.6575961 7.0351686 -1.8406519 5
-3.3869314 6.5145612 -1.8340687 6
-2.4426899 4.6983685 -1.821703 7
-1.7911086 3.4450908 -1.8099545 10
-1.5189044 2.9720364 0.88104147 3
-3.5119488 6.8718209 1.4912741 21
-2.087594 4.0847898 0.64176768 8
-4.8891764 9.566638 0.93276238 10
-5.4755468 10.713988 0.61899388 31
-5.4705715 10.704253 0.40571421 35
-4.5292082 10.722136 0.32369754 38
-5.6562366 9.3285332 0.23918647 19
-5.4693437 10.701851 0.19257766 27
-4.5229454 10.707311 0.11766668 41
-5.6533976 9.3238506 0.046055052 19
-5.4627571 10.688962 -0.019903377 33
-4.5246048 10.711239 -0.087672234 42
-5.66538 9.3436127 -0.14685735 13
-5.474483 10.711905 -0.2326633 50
-4.5170689 10.693398 -0.2930263 43
-5.6693668 9.3501883 -0.34038934 16
-5.4681106 10.699437 -0.44542739 50
-4.5267839 10.716397 -0.49978271 53
-5.6197939 9.2684307 -0.52917182 17
-5.46913 10.701432 -0.65823406 49
-4.5210986 10.702939 -0.7045216 44
-5.6285572 9.2828827 -0.72238624 20
-5.4630003 10.689438 -0.86997193 45
-4.5186677 10.697184 -0.90983814 44
-5.645896 9.3114786 -0.91728228 18
-5.4769545 10.716742 -1.0851219 48
-4.5226007 10.706494 -1.1162552 40
-5.6573081 9.3303003 -1.1123849 19
-5.4692707 10.701707 -1.2962673 51
-5.468955 10.70109 -1.5092272 46
-5.465199 10.693741 -1.720733 34
-5.1883049 10.151942 -1.8373542 4
-4.6642699 9.126564 -1.8330742 4
-4.2419786 8.3002682 -1.8333514 5
-3.899688 7.6305089 -1.8372467 4
-3.604846 7.0535927 -1.8388429 5
-3.3466673 6.5484147 -1.8369769 7
-2.4115508 4.7186751 -1.8230041 7
-1.7719634 3.467196 -1.8150245 5
-1.4998547 2.9860239 0.88206238 0
-3.4462607 6.8610759 1.4836849 29
-2.0874755 4.1559038 0.65063494 8
-4.8061714 9.5684891 0.92964858 11
-5.3737206 10.698408 0.61591125 29
-5.379559 10.710032 0.40449989 33
-4.438942 10.716555 0.32258555 42
-5.6647544 9.491415 0.24234287 17
-5.3693652 10.689737 0.19168046 23
-4.4358387 10.709063 0.11734276 44
-5.6558151 9.4764376 0.046612579 17
-5.3718424 10.694669 -0.019843686 30
-4.4359398 10.709307 -0.087400801 45
-5.6676536 9.496273 -0.14863126 14
-5.3834109 10.717701 -0.23196717 50
-4.4315929 10.698812 -0.29231972 39
-5.6695189 9.4993982 -0.34437194 17
-5.3825159 10.715919 -0.44453833 51
-4.4365664 10.710819 -0.49806583 45
-5.6143293 9.4069271 -0.53482831 16
-5.3745666 10.700093 -0.65582776 47
-4.4355726 10.708421 -0.70282692 45
-5.6352034 9.4419022 -0.7316817 21
-5.3703337 10.691666 -0.86708069 48
-4.4301429 10.695312 -0.90702617 42
-5.6420341 9.4533472 -0.92735493 16
-5.3823342 10.715557 -1.0811708 50
-4.4309845 10.697343 -1.1120486 41
-5.6613717 9.4857473 -1.1261781 17
-5.3801446 10.711198 -1.2928357 51
-5.3780813 10.70709 -1.5047413 46
-5.3726373 10.696252 -1.7150596 34
-5.1137595 10.180858 -1.8360814 4
-4.6004405 9.1589041 -1.8330742 4
-4.1804051 8.3226662 -1.8318075 5
-3.8392997 7.6435676 -1.8338925 5
-3.5450215 7.0576963 -1.8334159 5
-3.2991271 6.568151 -1.8360075 6
-2.3768518 4.7320161 -1.821703 7
-1.4875306 3.0137625 0.88716686 0
-3.3843715 6.8567944 1.4776136 38
-2.0952308 4.2449737 0.66227317 8
-4.7163248 9.5553541 0.92515081 13
-5.2794518 10.696259 0.61365068 29
-5.2816558 10.700725 0.4027459 33
-4.3504791 10.713941 0.32158476 39
-5.6489949 9.6169329 0.24453484 18
-5.2751341 10.687511 0.19097552 26
-4.3504333 10.713828 0.11705932 41
-5.6665092 9.6467495 0.047254581 23
-5.2828856 10.703216 -0.019790627 31
-4.3490281 10.710366 -0.087159529 43
-5.6822543 9.6735544 -0.15078144 17
-5.2872148 10.711987 -0.23103899 48
-4.346262 10.703555 -0.29161316 42
-5.6901412 9.6869802 -0.34972358 23
-5.2881122 10.713805 -0.44290835 53
-4.3541651 10.723017 -0.49720737 48
-5.6072073 9.5457926 -0.54048473 21
-5.2838254 10.70512 -0.65385896 47
-4.3516927 10.716929 -0.70137429 42
-5.6338415 9.591135 -0.74018031 23
-5.2743716 10.685967 -0.86361122 45
-4.3448653 10.700115 -0.90483904 42
-5.6546373 9.6265392 -0.94044942 22
-5.2897615 10.717148 -1.0775788 50
-4.3457088 10.702192 -1.1093718 41
-5.6675735 9.6485605 -1.1407827 26
-5.2858729 10.709269 -1.2881173 51
-5.285635 10.708787 -1.4997571 44
-5.2820597 10.701543 -1.7099537 35
-5.030324 10.191523 -1.8316264 4
-4.5207024 9.1590204 -1.8267363 4
-4.1187258 8.3446083 -1.8302636 5
-3.7789197 7.6561561 -1.8305383 5
-3.4956629 7.082273 -1.8334159 5
-3.2446043 6.5736237 -1.8311605 6
-2.3370616 4.7349267 -1.816498 1
-0.91624802 1.8563342 -0.96497113 8
-1.4630792 3.0171139 0.88512504 0
-3.3347061 6.8767209 1.4768547 31
-2.0932002 4.3165288 0.67114043 11
-4.633852 9.5557766 0.92203701 14
-5.1872191 10.696913 0.61159557 28
-5.1876345 10.697769 0.40126175 34
-4.26227 10.710616 0.320584 37
-5.6577687 9.7877007 0.24786662 23
-5.1881771 10.698888 0.19052692 25
-4.2651787 10.717925 0.11677589 46
-5.6690869 9.8072805 0.047845896 26
-5.1853447 10.693048 -0.019704409 33
-4.265276 10.718169 -0.08697857 42
-5.6826372 9.8307219 -0.15260909 19
-5.1948524 10.712653 -0.23026551 50
-4.2551675 10.692769 -0.29050282 43
-5.6924038 9.8476171 -0.35407957 23
-5.1940017 10.710899 -0.44127837 50
-4.261466 10.708596 -0.49514714 49
-5.630403 9.7403584 -0.54926205 24
-5.1897907 10.702215 -0.65145266 47
-4.2620058 10.709952 -0.69895321 43
-5.6486382 9.7719049 -0.75106925 26
-5.1857147 10.69381 -0.8612982 46
-4.2626863 10.711662 -0.9032768 43
-5.6591043 9.7900114 -0.95253658 22
-5.193954 10.710801 -1.0732685 46
-4.2561655 10.695275 -1.1055477 43
-5.6677861 9.8050299 -1.1545759 28
-5.1936269 10.710127 -1.2838279 53
-5.1882324 10.699002 -1.4932775 45
-5.1882157 10.698968 -1.7037129 38
-4.9624972 10.2335 -1.8328992 4
-4.4652405 9.2080727 -1.8302574 4
-4.0586562 8.369628 -1.8294917 5
-3.7202578 7.671793 -1.8280227 5
-3.4393339 7.0924811 -1.8297979 5
-3.1969392 6.5926232 -1.8301911 6
-0.96217918 1.9841744 -0.75860912 5
-0.91117549 1.8789961 -0.97342092 7
-1.4469712 3.037729 0.88818777 0
-3.2781749 6.8821044 1.47306 17
-2.1039019 4.4168701 0.68444133 8
-4.5533218 9.5591106 0.91926914 16
-5.0986762 10.704012 0.6099515 30
-5.1007938 10.708458 0.40031728 35
-4.18013 10.721485 0.32002801 40
-5.6604757 9.9520998 0.25102302 21
-5.0961637 10.698737 0.18988606 27
-4.180079 10.721354 0.11649244 45
-5.6696959 9.9683104 0.048437212 25
-5.0882101 10.682039 -0.019618189 30
-4.1801744 10.721599 -0.086767457 44
-5.6890087 10.002266 -0.15465176 18
-5.106184 10.719772 -0.22964673 50
-4.1702466 10.696136 -0.28979626 42
-5.6907215 10.005277 -0.35831112 22
-5.1036334 10.714418 -0.43994477 53
-4.1778927 10.715746 -0.49411702 51
-5.6294227 9.8975039 -0.55589372 25
-5.0960603 10.69852 -0.64904636 50
-4.1740794 10.705966 -0.6967743 44
-5.6453962 9.9255877 -0.75983351 26
-5.0972114 10.700936 -0.85898525 46
-4.1733155 10.704006 -0.90015239 43
-5.6615615 9.9540081 -0.96462375 23
-5.1053514 10.718025 -1.070395 48
-4.1756091 10.709889 -1.1040181 42
-5.6759243 9.9792614 -1.1703976 26
-5.1050525 10.717399 -1.2803963 52
-5.0963502 10.699128 -1.4882933 46
-5.096374 10.699178 -1.6980395 40
-4.8739557 10.23224 -1.826535 4
-4.3873053 9.2105799 -1.8246237 4
-3.9984426 8.3942137 -1.8287197 4
-3.6666114 7.697577 -1.8280227 5
-3.3830361 7.1022468 -1.8261799 5
-3.1475017 6.6077728 -1.8282524 6
-0.93203861 1.9566946 -0.745597 3
-0.88088638 1.8493071 -0.9548313 9
-1.4191735 3.0337441 0.88410413 1
-3.2167358 6.8763638 1.4669887 36
-2.1032288 4.496038 0.694417 2
-4.4594588 9.5329123 0.91373348 17
-5.0035119 10.695926 0.60748535 31
-5.0106649 10.711217 0.39910299 34
-4.0937667 10.720524 0.31913841 42
-5.6553016 10.10654 0.25391641 21
-5.0111799 10.712317 0.18950154 27
-4.0908589 10.712909 0.11608753 43
-5.6683292 10.129822 0.049028527 25
-5.0067315 10.702808 -0.019591661 33
-4.0923791 10.71689 -0.086496025 44
-5.6854458 10.160411 -0.15647942 16
-5.0159698 10.722557 -0.22895059 51
-4.0826335 10.691368 -0.2888878 39
-5.6968727 10.180831 -0.36316493 22
-5.0168519 10.724442 -0.4389075 52
-4.0930014 10.718519 -0.49291518 52
-5.6304221 10.062078 -0.56291556 24
-5.0060153 10.701277 -0.64707756 51
-4.0892658 10.708736 -0.69507957 43
-5.6480761 10.093628 -0.76966006 24
-5.0020947 10.692896 -0.85551572 46
-4.0871048 10.703077 -0.8976528 48
-5.6600542 10.115033 -0.97637516 21
-5.0118322 10.713712 -1.0664438 47
-4.087954 10.705302 -1.1005764 39
-5.6702428 10.133242 -1.1837852 24
-5.0115705 10.713152 -1.2756779 50
-5.0063968 10.702092 -1.4838076 45
-5.0064554 10.702218 -1.6929336 40
-4.8074222 10.276749 -1.8284442 4
-4.3178911 9.2302856 -1.822511 4
-3.9297643 8.4005928 -1.8240881 5
-3.6078112 7.7123594 -1.825507 5
-3.3300686 7.1186333 -1.8243709 5
-3.0980053 6.6225553 -1.8263136 7
-0.90232843 1.9288927 -0.73258483 6
-0.87102664 1.8619795 -0.95821124 10
-1.4011879 3.0506067 0.88614595 0
-3.1637335 6.8879466 1.4647119 34
-1.7725124 3.8590388 0.59410614 4
-4.3828177 9.5420847 0.91165757 22
-4.9170465 10.705185 0.6060468 30
-4.9140725 10.69871 0.39734897 37
-4.0048261 10.711388 0.31802642 42
-5.6636705 10.289412 0.25751123 21
-4.9195786 10.710697 0.18886068 26
-4.0061693 10.71498 0.1158041 44
-5.6726961 10.305811 0.049687423 24
-4.9168639 10.704787 -0.019531971 34
-4.0076618 10.718971 -0.086284913 46
-5.6857357 10.329499 -0.15846834 19
-4.9242973 10.720971 -0.22817712 50
-4.0036983 10.708371 -0.28858498 43
-5.696991 10.349948 -0.36776984 24
-4.9268432 10.726513 -0.43757388 52
-4.0096803 10.724371 -0.49188507 48
-5.6371002 10.241142 -0.57071757 24
-4.9195147 10.710559 -0.64554632 49
-4.0060205 10.714583 -0.69362694 46
-5.6525307 10.269176 -0.78001779 27
-4.9123354 10.694928 -0.85291362 48
-4.0025129 10.705201 -0.89546573 45
-5.6661816 10.293976 -0.98980534 22
-4.9202857 10.712237 -1.0628519 53
-4.0019679 10.703743 -1.0975171 43
-5.6703606 10.301567 -1.1987956 24
-4.9200568 10.711739 -1.2713885 53
-4.9199643 10.711537 -1.4803185 48
-4.9167433 10.704525 -1.6878275 43
-4.7223735 10.281351 -1.8233529 4
-4.2467723 9.2458925 -1.8196942 4
-3.861192 8.4064236 -1.8194566 5
-3.5489836 7.7266965 -1.8229915 5
-3.2802899 7.1417079 -1.8243709 5
-3.048456 6.6369686 -1.8243749 7
-0.89357644 1.9454567 -0.73648846 7
-0.84590048 1.8416586 -0.94469148 11
-1.3750874 3.0497375 0.88308322 0
-3.1091125 6.8955445 1.4616762 47
-1.7569262 3.8965983 0.59798557 4
-4.301353 9.5397549 0.90854377 22
-4.8290548 10.710118 0.60440272 31
-4.8294029 10.71089 0.39653942 34
-3.9217041 10.716556 0.31735924 43
-5.6659503 10.465856 0.26093069 21
-4.8282442 10.708321 0.18821983 26
-3.9230194 10.72015 0.11556116 44
-5.6729746 10.47883 0.050329421 25
-4.823925 10.698741 -0.019459015 34
-3.9244833 10.724151 -0.086103961 43
-5.687746 10.506116 -0.16056477 18
-4.8279614 10.707693 -0.22717158 49
-3.9178483 10.706019 -0.28777745 42
-5.6988297 10.526588 -0.37262365 23
-4.8321214 10.71692 -0.43579572 56
-3.9264717 10.729584 -0.49085495 48
-5.6339417 10.406731 -0.57773936 21
-4.8265624 10.70459 -0.64313996 52
-3.9242606 10.723541 -0.69241643 46
-5.6510062 10.438251 -0.78984439 25
-4.8244324 10.699867 -0.85060066 49
-3.9194565 10.710414 -0.89359105 46
-5.6662879 10.466479 -1.0025641 22
-4.8306432 10.71364 -1.0596192 53
-3.9161971 10.701507 -1.0944579 44
-5.6740851 10.480882 -1.2150228 21
-4.8255386 10.70232 -1.2662412 51
-4.8254876 10.702207 -1.4743375 47
-4.8207345 10.691665 -1.6804521 40
-4.6553507 10.324869 -1.8252622 5
-4.1805019 9.2717257 -1.81899 5
-3.7975705 8.4224405 -1.8171407 5
-3.488524 7.7370219 -1.8196373 6
-3.2239451 7.1502261 -1.8207529 6
-2.9972615 6.6474757 -1.8214667 6
-0.87530869 1.9413033 -0.73258483 10
-0.82408142 1.8276889 -0.93455172 18
-1.3631531 3.0804834 0.88920867 0
-3.0497723 6.8919425 1.4563638 35
-1.7521226 3.9594853 0.60574442 5
-4.2201352 9.5367546 0.90542996 19
-4.7444677 10.721652 0.60316968 32
-4.7415671 10.715097 0.39546004 39
-3.8414016 10.728616 0.31691444 41
-5.6604009 10.632235 0.26408711 23
-4.7323289 10.694221 0.18738672 28
-3.8386445 10.720916 0.11527772 45
-5.6748691 10.65941 0.051005211 31
-4.7345481 10.699237 -0.019399324 34
-3.8387325 10.721161 -0.085862689 43
-5.6856847 10.679727 -0.16260743 32
-4.7417617 10.715537 -0.22663015 50
-3.8308792 10.699228 -0.28686902 45
-5.6928391 10.693165 -0.37710407 43
-4.7442455 10.721151 -0.43461031 54
-3.8379982 10.71911 -0.48913807 46
-5.6362514 10.586873 -0.58554143 22
-4.7387829 10.708806 -0.64138997 52
-3.8371871 10.716846 -0.69023752 48
-5.6586461 10.628938 -0.80126446 26
-4.7367005 10.704101 -0.84828764 49
-3.8351781 10.711235 -0.89140391 45
-5.6717501 10.653553 -1.0166657 25
-4.7444453 10.721602 -1.0571048 51
-3.8319955 10.702346 -1.0917809 44
-5.6793184 10.667768 -1.2320616 37
-4.7394404 10.710292 -1.2632385 55
-4.7378063 10.706599 -1.47035 49
-4.7379637 10.706955 -1.6776154 42
-4.5879502 10.367951 -1.8271714 4
-4.1092978 9.2862825 -1.8161731 4
-3.7355018 8.4415693 -1.8155968 6
-3.4296765 7.7504587 -1.8171216 5
-3.1707954 7.1654334 -1.8189439 6
-2.9444988 6.6540432 -1.8175892 6
-0.85408145 1.9300721 -0.72607875 12
-0.80690044 1.8234514 -0.9294818 18
-1.3354527 3.0757346 0.88512504 0
-2.990634 6.8878489 1.4510515 40
-1.7433698 4.0152249 0.61239487 6
-4.142343 9.5403967 0.9030081 22
-4.6472268 10.703215 0.60029256 29
-4.6555009 10.72227 0.39451557 34
-3.7584786 10.73253 0.31624725 43
-5.6064367 10.710466 0.26505157 40
-4.6495891 10.708655 0.18706629 26
-3.7570951 10.728579 0.11507526 44
-5.6040239 10.705856 0.051039003 44
-4.6501799 10.710015 -0.019359531 33
-3.7558589 10.725049 -0.085681736 41
-5.596148 10.690811 -0.1621774 32
-4.6540952 10.719033 -0.22601137 49
-3.7494829 10.706842 -0.28636432 45
-5.5920897 10.683058 -0.37536168 41
-4.6581383 10.728345 -0.43357304 52
-3.7538252 10.719241 -0.48793626 51
-5.6048183 10.707375 -0.59002757 41
-4.6464081 10.701329 -0.63898361 43
-3.7530384 10.716995 -0.68854278 44
-5.6009626 10.700008 -0.80365473 46
-4.6412005 10.689335 -0.84452909 46
-3.7471259 10.700111 -0.8882795 46
-5.5990849 10.696421 -1.0170015 38
-4.6583719 10.728884 -1.0545905 50
-3.7506058 10.710048 -1.0898689 44
-5.5954771 10.689529 -1.2300332 46
-4.6550493 10.721231 -1.2606649 54
-4.6502991 10.71029 -1.4663627 46
-4.6457524 10.69982 -1.6713747 38
-4.5075927 10.381617 -1.8239893 4
-4.0380945 9.3002968 -1.8133562 5
-3.6796036 8.4746428 -1.8171407 6
-3.3708115 7.7634511 -1.8146061 5
-3.1160383 7.1766729 -1.8162304 5
-2.8995185 6.6779976 -1.8185586 7
-0.83456039 1.9221096 -0.72087389 14
-0.7869311 1.8124126 -0.92103195 21
-1.3169785 3.0920992 0.88716686 0
-2.9393969 6.9013329 1.4495336 27
-1.7385806 4.0819678 0.62070793 6
-4.0693917 9.5544186 0.90162414 24
-4.5598683 10.705996 0.59864849 30
-4.5617337 10.710375 0.3928965 36
-3.675689 10.73581 0.31558007 42
-5.5132289 10.713787 0.26417479 40
-4.5559092 10.696699 0.18629725 24
-3.6717393 10.724274 0.11475133 43
-5.5108438 10.709152 0.050870053 42
-4.562757 10.712778 -0.019306473 32
-3.67571 10.735871 -0.085561097 41
-5.5030751 10.694056 -0.16163985 33
-4.5666118 10.721828 -0.22539258 48
-3.674644 10.732758 -0.28636432 31
-5.4954195 10.679178 -0.3738682 41
-4.5643306 10.716472 -0.43179488 50
-3.6698382 10.718721 -0.48673445 49
-5.5061655 10.700061 -0.58749193 41
-4.5637603 10.715134 -0.63788986 47
-3.6690755 10.716494 -0.68684804 45
-5.5005589 10.689166 -0.79993653 49
-4.5555186 10.695783 -0.84250522 46
-3.6658754 10.707148 -0.88671726 43
-5.5060353 10.699808 -1.013644 39
-4.566185 10.720826 -1.0506394 51
-3.6705854 10.720904 -1.0883392 37
-5.5006852 10.689411 -1.2255707 44
-4.5629454 10.71322 -1.2559465 55
-4.5614176 10.709632 -1.4618769 45
-4.5616317 10.710135 -1.6679707 40
-4.4257207 10.391033 -1.8201708 5
-3.9607241 9.2992802 -1.8077224 5
-3.6157362 8.4892921 -1.8148249 6
-3.3119323 7.7759991 -1.8120904 5
-3.0704405 7.2090063 -1.8189439 5
-2.8467438 6.6837955 -1.8146811 6
-0.81667477 1.9174492 -0.71697021 17
-0.77567959 1.8211977 -0.92272192 18
-1.3147377 3.1476116 0.90043867 0
-2.880549 6.8963184 1.4442211 36
-1.7283624 4.1378698 0.62735838 6
-3.987231 9.5458241 0.89816433 26
-4.4742374 10.711765 0.59720993 29
-4.4745235 10.71245 0.39181712 32
-3.6323671 10.856005 0.31836003 18
-5.4130335 10.702053 0.26294729 41
-4.4687891 10.698721 0.18578458 24
-3.6424694 10.886197 0.11620901 17
-5.4124808 10.70096 0.050650422 44
-4.4708982 10.703771 -0.019233519 34
-3.6565137 10.928171 -0.086888097 17
-5.4102354 10.69652 -0.16110231 33
-4.4762335 10.716544 -0.22461909 48
-3.6706789 10.970507 -0.29201692 16
-5.4044948 10.685171 -0.37274811 40
-4.4770789 10.718569 -0.43060946 51
-3.6139383 10.800926 -0.48930976 23
-5.4133034 10.702586 -0.58554143 43
-4.4749885 10.713564 -0.63592106 48
-3.6271098 10.840292 -0.69314277 20
-5.4059896 10.688127 -0.79701513 47
-4.4730487 10.70892 -0.84105957 48
-3.6391187 10.876183 -0.89859015 17
-5.4078202 10.691746 -1.0092791 40
-4.4774089 10.719358 -1.0474066 49
-3.6411321 10.882201 -1.102106 11
-5.4061728 10.688489 -1.2211081 48
-4.4757791 10.715457 -1.252515 54
-4.4727716 10.708256 -1.457391 50
-4.4730144 10.708838 -1.6628647 42
-4.3530693 10.421678 -1.8201708 4
-3.9002593 9.3376055 -1.8098351 5
-3.5518432 8.5034628 -1.8125091 5
-3.2605801 7.80615 -1.8137674 4
-3.0125282 7.2122898 -1.8144214 5
-2.7970214 6.6963449 -1.8127424 4
-0.79452151 1.9021628 -0.70916289 20
-0.75875431 1.8165326 -0.91765201 19
-1.314718 3.2103987 0.91575223 2
-2.8234065 6.8944521 1.4396677 41
-1.7264574 4.2158213 0.63733405 6
-3.3813522 8.2568951 0.77464944 3
-4.3872399 10.713164 0.59556586 31
-4.3859968 10.710129 0.3906028 34
-3.6173587 11.067329 0.32380873 3
-5.3221679 10.707354 0.26215819 39
-4.3879313 10.714851 0.18552823 28
-4.3231497 13.2267 0.14086799 45
-5.319838 10.702666 0.050481476 44
-4.3839407 10.705108 -0.019180462 32
-4.324491 13.230803 -0.10495334 43
-5.3122845 10.687469 -0.1604035 34
-4.3891892 10.717924 -0.2240003 49
-4.3182673 13.211763 -0.35086441 41
-5.3101916 10.683259 -0.37137908 40
-4.3915415 10.723667 -0.42957219 52
-3.6141808 11.057607 -0.49978271 15
-5.3206706 10.704341 -0.58359092 43
-4.384954 10.707582 -0.63373351 48
-3.6431334 11.146187 -0.71105844 7
-5.3170295 10.697016 -0.79489046 43
-4.3860869 10.710348 -0.83874661 49
-4.1639705 12.739692 -1.0501257 9
-5.3170786 10.697115 -1.0062573 39
-4.3949208 10.73192 -1.0456107 52
-1.719448 5.2606606 -0.53155011 0
-5.3154802 10.693899 -1.2174569 47
-4.3873029 10.713317 -1.2486545 52
-4.3843732 10.706164 -1.4529053 46
-4.3861442 10.710487 -1.658326 42
-4.2757215 10.440848 -1.8182615 5
-3.8260267 9.342742 -1.8056098 6
-3.4834709 8.506258 -1.8078774 5
-3.2015603 7.8178625 -1.8112519 5
-2.9547238 7.2151151 -1.8098989 5
-0.77548969 1.8936616 -0.70395803 22
-0.74468094 1.8184299 -0.91596204 19
-1.267782 3.1584828 0.89839685 6
-2.7693536 6.8994169 1.4366319 23
-1.7220693 4.2902694 0.64675552 7
-3.3726118 8.4023409 0.78606683 4
-4.2944851 10.699046 0.59309971 31
-4.3006954 10.714518 0.38965833 33
-4.2195611 13.221642 0.38596845 41
-5.231492 10.711906 0.26136908 40
-4.2996125 10.71182 0.18495145 24
-4.2234082 13.233696 0.14062504 42
-5.230947 10.710791 0.050346319 43
-4.3001585 10.71318 -0.019140668 35
-4.2235045 13.233998 -0.10474223 45
-5.2217455 10.691951 -0.15991971 34
-4.3038292 10.722326 -0.22345887 47
-4.2174163 13.214922 -0.35015786 43
-5.2161794 10.680553 -0.37001005 41
-4.3061461 10.728098 -0.42853495 52
-4.2245922 13.237408 -0.59695792 49
-5.2335377 10.716096 -0.58222556 43
-4.298192 10.708282 -0.63198346 49
-4.0653572 12.738457 -0.81080514 36
-5.2229538 10.694425 -0.79196906 46
-4.3008051 10.714791 -0.83672273 48
-4.0640178 12.73426 -1.0473137 29
-5.2247772 10.698158 -1.0028998 38
-4.3050513 10.725369 -1.0420188 46
-1.6209412 5.0790839 -0.51204717 0
-5.2249765 10.698565 -1.2138058 43
-4.3020334 10.717851 -1.2456518 52
-4.2976966 10.707047 -1.4489179 42
-4.2994647 10.711452 -1.6537873 40
-4.1997848 10.463115 -1.8169887 5
-3.7592421 9.365571 -1.8049057 5
-3.4210773 8.5230856 -1.8063335 6
-3.1425328 7.8291345 -1.8087362 5
-2.9057326 7.2391834 -1.8108034 4
-0.8355518 2.0816481 -0.5603022 1
-0.76365954 1.9025397 -0.70525926 21
-0.72926682 1.8168555 -0.91258216 18
-1.2343761 3.138463 0.89022958 7
-2.7124944 6.8966532 1.4320785 31
-1.7225242 4.3796043 0.65839374 6
-3.3649204 8.555479 0.79817611 5
-4.216763 10.721332 0.59268868 31
-4.21701 10.721959 0.38884881 34
-4.1188369 13.224052 0.38519007 43
-5.1444726 10.72293 0.26075533 40
-4.2130141 10.7118 0.18443877 26
-4.1154604 13.213211 0.14009866 43
-5.1370115 10.707378 0.050160475 43
-4.2120848 10.709437 -0.019080978 34
-4.1203122 13.228788 -0.1044708 46
-5.1331334 10.699295 -0.15948968 33
-4.2186217 10.726058 -0.22291744 47
-4.117928 13.221134 -0.34955221 44
-5.1293821 10.691476 -0.36913884 41
-4.2223668 10.735579 -0.42764586 51
-4.1225739 13.236051 -0.59558439 76
-5.143044 10.719952 -0.58047009 41
-4.2145581 10.715726 -0.63067096 48
-3.9703965 12.747466 -0.80959463 34
-5.1343541 10.701839 -0.78984439 48
-4.2112947 10.707428 -0.83383149 49
-3.9643502 12.728053 -1.0445017 33
-5.1275492 10.687655 -0.99853498 40
-4.2154875 10.718089 -1.0384268 51
-1.5582123 5.00284 -0.50325173 4
-5.126061 10.684553 -1.2081262 43
-4.21837 10.725417 -1.2430782 52
-4.2141266 10.714628 -1.4459273 43
-4.2144351 10.715412 -1.6498159 38
-4.1121817 10.455429 -1.8106245 5
-3.6822369 9.3622723 -1.7992719 5
-3.3600552 8.5431089 -1.8055617 4
-3.0777776 7.8254042 -1.8028665 4
-2.8522704 7.2520404 -1.8089944 0
-0.79969257 2.0332584 -0.54576147 1
