# .PCD v0.7 - Point Cloud Data file format
VERSION 0.7
FIELDS x y z intensity
SIZE 4 4 4 4
TYPE F F F F
COUNT 1 1 1 1
WIDTH 1341
HEIGHT 1
VIEWPOINT 0 0 0 1 0 0 0
POINTS 1341
DATA ascii
-1.1001755 -6.9856868 -1.2647719 2
-1.1002865 -6.9863915 -1.3910313 3
-1.1013166 -6.9929323 -1.5177619 1
-1.0953519 -6.9550586 -1.6344265 13
-1.0903533 -6.9233189 -1.7507019 3
-0.85088873 -5.4028125 -1.8815589 4
-0.61986101 -3.9358764 -1.8572737 8
-0.62959409 -3.8237748 1.0229473 12
-1.2027357 -7.3046913 1.4305606 39
-0.84503657 -5.1322422 0.72766918 1
-1.2547085 -7.6203427 0.67050946 6
-1.2292092 -7.4654751 0.38923454 2
-2.3634944 -14.354441 0.49098569 15
-4.1064768 -17.078447 0.48849306 34
-1.9176291 -21.111996 0.46478277 17
-3.4808528 -21.140602 0.34330735 12
-5.91819 -24.613192 0.25626719 18
-2.5885479 -28.498425 0.12086495 25
-4.4872766 -27.253012 -0.045795672 50
-6.5570068 -27.26997 -0.21147496 62
-2.5427501 -27.994219 -0.37778679 14
-4.4779968 -27.196653 -0.53308362 66
-6.5551047 -27.26206 -0.70778519 53
-2.4867761 -27.377977 -0.85576493 15
-4.4855013 -27.242229 -1.0234754 77
-4.1192269 -17.131475 -0.75697076 0
-0.67618883 -7.4444509 -0.36493936 1
-3.0620995 -18.597345 -1.0323052 0
-3.2193806 -13.389098 -0.83501548 2
-0.65311599 -7.1904321 -0.48043999 0
-1.2561343 -7.6290021 -0.56032091 1
-3.1445858 -13.078034 -1.053875 19
-0.6486448 -7.1412067 -0.60402304 0
-1.1812029 -7.173914 -0.65552711 23
-3.1267433 -13.003829 -1.2845156 20
-0.64362586 -7.0859509 -0.72536254 33
-1.1655871 -7.079073 -0.77381402 19
-1.1541833 -7.0098133 -0.89217854 25
-1.1514893 -6.9934511 -1.0155332 23
-1.1432985 -6.943706 -1.1341064 3
-1.1904992 -7.2303743 -1.310546 4
-1.1464834 -6.9630489 -1.3879435 2
-1.147568 -6.969636 -1.5144078 3
-1.1464128 -6.9626207 -1.6380445 11
-1.144335 -6.9500008 -1.7594264 3
-0.88797224 -5.3930078 -1.8802576 4
-0.64850157 -3.9386075 -1.8606535 8
-0.65559423 -3.8233271 1.0239682 17
-1.2504923 -7.2926831 1.4298017 28
-0.87637848 -5.1109076 0.72545242 0
-1.3058947 -7.6157818 0.6708554 5
-1.2813958 -7.4729075 0.39005658 4
-2.464726 -14.373911 0.49220002 21
-4.2292614 -17.089651 0.48960504 34
-2.0587671 -21.110752 0.46504581 47
-3.6263943 -21.148586 0.34382001 12
-6.0947533 -24.627756 0.25683406 10
-2.6536441 -27.210667 0.11547553 61
-4.6726599 -27.250248 -0.045842096 47
-6.7454114 -27.256943 -0.21171622 61
-2.6530399 -27.204473 -0.36735842 58
-4.6684127 -27.225481 -0.53424382 83
-6.7482581 -27.268446 -0.70909739 54
-2.6519949 -27.193756 -0.85053772 54
-4.6694589 -27.231581 -1.0242163 81
-4.258678 -17.208519 -0.76160634 0
-0.74842519 -7.6744084 -0.37644735 4
-3.056448 -17.824745 -0.9905231 0
-3.2515199 -13.138783 -0.8207314 1
-0.70233846 -7.2018318 -0.48150232 1
-2.970089 -17.321112 -1.2735879 1
-3.1986828 -12.925278 -1.0432519 3
-0.69753879 -7.152616 -0.60536605 0
-1.2327962 -7.1894817 -0.65768224 23
-3.1737027 -12.824338 -1.2688369 29
-0.69253725 -7.1013293 -0.72739094 21
-1.213184 -7.0751066 -0.774243 20
-1.2026612 -7.0137391 -0.89367378 23
-1.2011924 -7.0051732 -1.0183699 23
-1.1933305 -6.9593239 -1.1379249 19
-1.2424197 -7.245605 -1.3147713 5
-1.2085587 -7.0481324 -1.4064699 2
-1.1957505 -6.9734364 -1.5169234 2
-1.1978338 -6.9855866 -1.6452804 2
-1.2081127 -7.0455317 -1.7855996 7
-0.92563838 -5.3981838 -1.8841614 4
-0.67460924 -3.9342196 -1.8606535 8
-0.58703721 -3.2856441 0.88104147 9
-0.73703003 -4.1251535 0.80976564 7
-0.89461815 -5.0071731 0.71159732 0
-1.353422 -7.5750961 0.6680876 4
-1.3314255 -7.4519825 0.38944006 5
-2.5699332 -14.383903 0.49314448 23
-4.352417 -17.075207 0.49004981 32
-2.203186 -21.068024 0.46443206 6
-3.7788696 -21.150314 0.34426862 12
-6.2724671 -24.607862 0.25707701 8
-2.8452096 -27.207392 0.1155431 62
-4.8719277 -27.268154 -0.045928318 51
-6.9493685 -27.263451 -0.21213844 72
-2.8441463 -27.197222 -0.36751968 56
-4.8618789 -27.211912 -0.5346306 75
-5.1013761 -20.013491 -0.52135062 2
-2.8451052 -27.206392 -0.85153335 62
-4.8671842 -27.241606 -1.0258462 77
-3.5278447 -13.840282 -0.61361158 0
-2.841435 -27.171295 -1.3337549 46
-3.1604376 -17.688953 -0.9841792 0
-3.2978022 -12.937791 -0.80959463 0
-0.75301474 -7.2007227 -0.48176789 3
-3.0235744 -16.922932 -1.2458322 1
-3.261261 -12.794433 -1.0345035 5
-0.7495293 -7.1673932 -0.60704482 0
-1.2885618 -7.2120738 -0.66055584 21
-3.2366025 -12.697695 -1.2585118 37
-0.74085534 -7.0844483 -0.72617394 35
-1.2667431 -7.0899544 -0.77681667 20
-1.2543875 -7.0208001 -0.89566749 25
-1.2535487 -7.0161061 -1.0212066 24
-1.2460524 -6.9741492 -1.1417435 23
-1.2424161 -6.9537969 -1.2633635 2
-1.2922479 -7.2327051 -1.4450668 2
-1.2891166 -7.215179 -1.5714287 3
-1.2458862 -6.9732189 -1.6443759 1
-1.2770628 -7.1477141 -1.8137116 3
-0.96197045 -5.3841438 -1.8815589 4
-0.70014489 -3.9187076 -1.8555837 8
-0.71519977 -3.8401685 1.0311146 17
-0.70540893 -3.7875977 0.74449867 4
-0.9218694 -4.9498529 0.70439267 2
-1.3972398 -7.5022898 0.66255188 4
-1.3874784 -7.4498768 0.38985106 6
-2.6767669 -14.372538 0.49341431 21
-4.4957547 -17.112453 0.49205139 34
-2.8627234 -25.562017 0.56394696 4
-3.9418626 -21.165297 0.34497356 13
-5.2178407 -19.860971 0.20788051 17
-3.0485795 -27.221579 0.11569516 112
-5.0790057 -27.271032 -0.045994639 43
-5.1742563 -19.695076 -0.15353949 17
-3.0487769 -27.223339 -0.36816472 53
-5.0692763 -27.218792 -0.53548139 99
-5.1219525 -19.495989 -0.50883418 20
-3.0466857 -27.204668 -0.85215569 54
-5.0740628 -27.244492 -1.027328 74
-3.5814776 -13.632388 -0.6055423 1
-3.0423124 -27.165617 -1.3345351 62
-3.1722832 -17.033146 -0.94895959 0
-3.3641455 -12.805144 -0.80281574 0
-0.80577832 -7.1950092 -0.48176789 21
-3.0876465 -16.578701 -1.2221241 2
-3.3346951 -12.693046 -1.0282546 3
-0.80914646 -7.2250843 -0.61241686 0
-1.3450414 -7.2220173 -0.66235179 19
-3.3154297 -12.619714 -1.253158 50
-0.79320979 -7.0827813 -0.72657961 41
-1.3215934 -7.096117 -0.77853245 20
-1.3094521 -7.0309253 -0.89815962 24
-1.3063956 -7.0145144 -1.0223413 22
-1.3022032 -6.9920034 -1.1461985 22
-1.298403 -6.9715991 -1.268293 3
-1.3006779 -6.9838138 -1.3972068 3
-1.3068827 -7.0171299 -1.5303401 2
-1.5195509 -8.1590223 -1.926579 4
-1.4026096 -7.5311217 -1.9135579 5
-1.0048749 -5.3955398 -1.888065 4
-0.73217064 -3.9312911 -1.8640335 8
-0.74419576 -3.8464732 1.0341773 22
-0.71392995 -3.6900403 0.72628462 8
-0.95414603 -4.9316287 0.70273006 4
-1.4321715 -7.4023662 0.65459436 5
-1.4409722 -7.4478536 0.3902621 7
-2.7778003 -14.357426 0.49354926 6
-4.6171951 -17.088373 0.49227378 51
-2.1489186 -18.048151 0.39849797 7
-4.0933266 -21.156895 0.345294 12
-5.256207 -19.453375 0.20399338 57
-3.2413852 -27.223465 0.11579653 82
-5.2692695 -27.234909 -0.045994639 57
-5.2563267 -19.453817 -0.15194108 60
-3.2397029 -27.209335 -0.36827224 58
-5.264493 -27.210222 -0.53602284 83
-5.2537599 -19.444317 -0.50843042 49
-3.2393723 -27.206556 -0.85290241 52
-5.2686973 -27.231951 -1.0282172 67
-3.59004 -13.286842 -0.5912922 3
-3.2356689 -27.175453 -1.3360955 66
-3.2425647 -16.759621 -0.93495929 0
-3.4430432 -12.742803 -0.80039465 1
-0.8597644 -7.2209139 -0.48389256 21
-3.1601167 -16.333477 -1.205644 0
-3.4117835 -12.62711 -1.0248177 26
-0.85391229 -7.1717644 -0.60838783 0
-1.4007249 -7.2398305 -0.66486615 15
-3.4044869 -12.600104 -1.2535404 43
-0.84593105 -7.1047316 -0.72941941 33
-1.3748788 -7.1062407 -0.78067714 20
-1.3630286 -7.044992 -0.90115017 22
-1.359095 -7.0246606 -1.025178 22
-1.3539854 -6.998251 -1.1487441 20
-1.3522779 -6.9894257 -1.2732226 22
-1.3553666 -7.0053897 -1.4033823 2
-1.3625261 -7.0423946 -1.537887 2
-1.5794352 -8.163518 -1.930197 3
-1.4581012 -7.536387 -1.9174354 5
-1.0425184 -5.3883929 -1.888065 4
-0.7589097 -3.9225245 -1.8623435 8
-0.74508429 -3.7119203 0.73159707 23
-0.99167055 -4.9403834 0.70494688 8
-1.4814621 -7.3804655 0.65355641 6
-1.4929329 -7.4376121 0.3902621 11
-3.5616608 -17.743765 0.61079752 7
-4.7460108 -17.090395 0.49327457 33
-2.2658527 -17.961292 0.39691976 13
-4.2488012 -21.167015 0.34593484 13
-5.4015212 -19.450891 0.20435779 57
-3.4338589 -27.220016 0.115881 86
-5.4348736 -27.075886 -0.045789041 20
-5.4027147 -19.455187 -0.15224266 56
-3.4325783 -27.209866 -0.36859477 59
-5.462986 -27.215937 -0.53687364 73
-5.4022174 -19.453398 -0.50964171 53
-3.4347291 -27.226913 -0.85427141 55
-5.4657636 -27.229776 -1.0295508 57
-3.6249692 -13.053522 -0.58202106 1
-3.4308047 -27.195807 -1.338241 61
-3.3217604 -16.548611 -0.92445904 2
-3.5404673 -12.749231 -0.80233151 33
-0.91265088 -7.2345352 -0.48522049 19
-3.2489443 -16.18585 -1.1963921 11
-3.5030551 -12.61451 -1.025755 60
-0.9039582 -7.1656284 -0.60838783 0
-1.4598587 -7.27284 -0.66881722 5
-3.4913037 -12.572193 -1.253158 44
-0.89401501 -7.0868092 -0.72820234 47
-1.4268041 -7.1081662 -0.78196394 20
-1.4153031 -7.0508695 -0.90314382 21
-1.4119995 -7.0344114 -1.0280147 21
-1.4074725 -7.0118585 -1.1525627 22
-1.404915 -6.9991174 -1.2767437 20
-1.4050128 -6.9996047 -1.4041542 1
-1.4170462 -7.0595536 -1.5437567 1
-1.6356219 -8.1484718 -1.9292926 4
-1.5144982 -7.5450482 -1.9222823 6
-1.0816 -5.3884006 -1.8906673 4
-0.78770268 -3.9242399 -1.8657235 8
-0.80097908 -3.8508534 1.0382609 19
-0.76858085 -3.6950927 0.72932029 12
-1.0269433 -4.9372177 0.70550108 9
-1.5337627 -7.3738446 0.65390241 8
-1.5456342 -7.4309187 0.39046758 12
-3.6952176 -17.765434 0.61241663 6
-4.8805633 -17.110678 0.49483132 36
-2.3943601 -17.968821 0.39744583 15
-4.3997288 -21.152498 0.3461912 13
-5.5459595 -19.443478 0.20468172 54
-3.6306748 -27.246923 0.11610063 81
-5.6701961 -27.260504 -0.046167079 55
-5.5493774 -19.45546 -0.15254425 54
-3.6272097 -27.220919 -0.36907855 60
-5.6601853 -27.212374 -0.53756982 104
-5.5554457 -19.476734 -0.51125669 27
-3.6257811 -27.210196 -0.85452032 58
-5.6638699 -27.230089 -1.0310326 62
-3.6677804 -12.858804 -0.57446682 15
-3.6232221 -27.190992 -1.3392162 69
-3.4648645 -16.657969 -0.93189669 0
-3.6282923 -12.720364 -0.80208939 53
-0.96577108 -7.2477679 -0.48654839 15
-3.3358655 -16.037783 -1.1871401 10
-3.5943172 -12.601251 -1.0266924 46
-0.9560675 -7.1749463 -0.60973084 0
-1.5495383 -7.4496884 -0.68605852 1
-3.5877266 -12.578145 -1.2562174 38
-0.94872445 -7.1198397 -0.73225915 29
-1.4828726 -7.1291809 -0.7853955 18
-1.4659125 -7.0476422 -1.0314187 21
-1.4604111 -7.021193 -1.1557448 21
-1.4593565 -7.0161233 -1.2816731 19
-1.4626368 -7.0318933 -1.4126455 2
-1.4631107 -7.0341716 -1.5404027 0
-1.6948495 -8.1482983 -1.932006 4
-1.5663453 -7.5304914 -1.9213129 5
-1.1191916 -5.3807182 -1.8906673 4
-0.81434143 -3.9150953 -1.8640335 8
-0.82947075 -3.8527296 1.0403028 22
-0.80345047 -3.7318707 0.7376684 11
-1.0638868 -4.9415464 0.70716369 12
-1.5835254 -7.3551664 0.65321046 7
-1.6008356 -7.4355683 0.39128962 15
-3.5238159 -16.367435 0.56505859 1
-5.0077639 -17.103048 0.49560973 31
-2.5197475 -17.951668 0.39744583 13
-4.5531812 -21.148638 0.34663978 12
-5.6928043 -19.442671 0.20508663 50
-3.8208055 -27.220913 0.11610063 89
-5.8704686 -27.267181 -0.046246666 47
-5.6996784 -19.466148 -0.15293632 53
-3.8188267 -27.206816 -0.36923981 59
-5.8584366 -27.211294 -0.53834331 73
-5.7002726 -19.468178 -0.51206422 48
-3.8223243 -27.231733 -0.85601383 53
-5.8647647 -27.240686 -1.0329589 62
-3.763077 -12.852061 -0.57532525 25
-3.8146286 -27.176907 -1.3398014 62
-3.5676205 -16.5709 -0.92839664 0
-3.7271063 -12.72921 -0.8042683 45
-1.0207846 -7.2724686 -0.48867306 3
-3.4410279 -15.982903 -1.1848271 69
-3.6878057 -12.594986 -1.0282546 40
-1.0077969 -7.1799388 -0.6107381 1
-1.626662 -7.5555277 -0.69683433 1
-3.6799264 -12.568076 -1.2577469 12
-0.99951345 -7.1209245 -0.73307055 30
-1.5367911 -7.1380944 -0.78754026 22
-1.5336574 -7.1235394 -0.915106 3
-1.5209106 -7.064333 -1.03539 27
-1.5152092 -7.0378509 -1.1601998 23
-1.5149312 -7.0365596 -1.2873069 19
-1.5199521 -7.0598803 -1.4203649 1
-1.9180088 -8.9087763 -1.953804 4
-1.7557927 -8.1553144 -1.9365286 4
-1.6229621 -7.5383425 -1.9261599 4
-1.1551354 -5.3653784 -1.888065 4
-0.84165323 -3.9093149 -1.8640335 9
-0.85886878 -3.8581703 1.0433654 29
-0.82863081 -3.7223368 0.73690951 24
-1.0992202 -4.9378653 0.7077179 13
-2.1439898 -9.6311302 0.85664678 2
-1.6570467 -7.4437079 0.39231718 14
-3.6432078 -16.365849 0.56586808 2
-5.1373925 -17.102137 0.49661049 26
-3.7880921 -25.683914 0.56920767 1
-4.7128825 -21.170992 0.34753698 12
-5.8445067 -19.456087 0.2056535 57
-4.0171704 -27.237103 0.11628648 80
-6.0685086 -27.260672 -0.046306357 51
-5.8469415 -19.464191 -0.15323791 40
-4.0162601 -27.23093 -0.36993864 60
-6.0578232 -27.212671 -0.53919411 69
-8.1943884 -27.27873 -0.71898943 47
-4.0152612 -27.224159 -0.85663611 56
-6.0626144 -27.234194 -1.0342925 66
-3.8584552 -12.844614 -0.57618368 21
-4.0077639 -27.173326 -1.3409717 63
-3.7005777 -16.623562 -0.93277174 0
-3.8216226 -12.722 -0.80547887 44
-1.1053077 -7.4941754 -0.5040769 1
-3.5533926 -15.962384 -1.1851163 34
-3.7848206 -12.599488 -1.0307541 44
-1.0613872 -7.1963873 -0.61275262 20
-1.6966829 -7.6217599 -0.70401818 1
-3.7767396 -12.572587 -1.2608062 1
-1.051525 -7.1295199 -0.73469329 16
-1.5943642 -7.1621284 -0.79140073 16
-1.5850766 -7.1204071 -0.91610289 0
-1.5770749 -7.0844622 -1.0399287 21
-1.5703123 -7.0540838 -1.1646547 23
-1.5725746 -7.0642462 -1.294349 18
-1.5751721 -7.0759144 -1.4257684 2
-1.9852562 -8.9180746 -1.9588354 3
-1.8152246 -8.1542673 -1.939242 3
-1.6747068 -7.5230398 -1.9251904 4
-1.1588671 -5.2058086 -1.8347151 5
-0.86892486 -3.9033437 -1.8640335 9
-0.88838309 -3.8633876 1.0464281 25
-0.85635769 -3.7241161 0.73842734 31
-1.1372172 -4.9455137 0.70993471 11
-1.5556817 -6.765326 0.60269737 0
-1.7089732 -7.4319577 0.39231718 12
-3.7573743 -16.340015 0.56586808 3
-5.2649026 -17.092604 0.4973889 21
-4.2086883 -27.217911 0.60384059 62
-4.8668432 -21.164856 0.3479856 10
-6.5277009 -21.192303 0.22448179 9
-4.2145519 -27.255833 0.11648922 75
-6.2721224 -27.276115 -0.046405841 54
-8.3988371 -27.266981 -0.21512419 61
-4.2093196 -27.221992 -0.3702074 57
-6.2575145 -27.212589 -0.54004496 67
-8.3940468 -27.251429 -0.71979696 52
-4.2113271 -27.234978 -0.85788065 56
-6.2606597 -27.226267 -1.0356262 75
-3.9503863 -12.825003 -0.57652706 17
-4.2053022 -27.196012 -1.3435074 60
-3.8228073 -16.624569 -0.93430305 0
-3.9185729 -12.72172 -0.80717355 42
-1.1850438 -7.6637697 -0.51602811 0
-3.1095343 -13.522697 -1.0055708 7
-3.8773849 -12.588002 -1.0320039 42
-1.1115999 -7.1888022 -0.61275262 24
-1.7543155 -7.6291418 -0.70581412 1
-3.8714535 -12.568746 -1.2631007 1
-1.1024874 -7.1298709 -0.73550463 15
-1.6737372 -7.2787242 -0.80555588 3
-1.6658773 -7.2445436 -0.93354768 0
-1.633594 -7.1041503 -1.0444673 23
-1.6257159 -7.0698895 -1.1691097 18
-1.626266 -7.0722823 -1.29787 16
-1.6236533 -7.0609202 -1.4249965 1
-2.0518501 -8.9230556 -1.9630281 5
-1.8729811 -8.1451931 -1.9401466 3
-1.7271868 -7.5111647 -1.9251904 5
-1.1748388 -5.1091218 -1.8034859 6
-0.89615417 -3.8971822 -1.8640335 8
-0.91533291 -3.8570912 1.0464281 22
-0.88868374 -3.7447951 0.74373972 30
-1.1708009 -4.9335995 0.70938051 10
-1.6148363 -6.8047051 0.60719508 20
-1.7626611 -7.4276195 0.39272821 13
-3.8852036 -16.371731 0.56789196 5
-5.3949361 -17.089748 0.49838966 18
-4.4037118 -27.219446 0.60454202 59
-5.0237179 -21.169277 0.34862643 9
-6.694757 -21.207241 0.22512965 9
-4.4060082 -27.233641 0.11652301 78
-6.4697814 -27.262798 -0.046458896 55
-8.6082573 -27.268711 -0.21560673 74
-4.4069271 -27.239321 -0.37085247 54
-6.4574995 -27.211044 -0.54089576 70
-8.6117792 -27.279867 -0.72211856 52
-4.4071069 -27.240433 -0.8590008 51
-6.4542737 -27.197453 -1.0362189 68
-4.0470433 -12.819977 -0.57755721 17
-4.4001679 -27.197542 -1.3450677 64
-3.2895367 -13.86167 -0.78029943 0
-4.0181088 -12.728319 -0.80935252 39
-2.9340706 -18.135559 -1.2224795 1
-3.1246433 -13.166831 -0.9807061 18
-3.972374 -12.583443 -1.0338786 43
-1.1687624 -7.2241483 -0.61644596 23
-3.1643345 -13.334085 -1.2356237 11
-3.9734888 -12.586975 -1.2676896 1
-1.1547785 -7.137713 -0.73712736 15
-3.1322196 -13.198756 -1.4631262 0
-3.0836785 -12.994211 -1.6771959 2
-1.7489772 -7.369957 -1.0853156 2
-1.6850634 -7.1006327 -1.1761104 17
-1.6892376 -7.1182227 -1.3084333 15
-1.7118762 -7.2136188 -1.4581898 2
-2.1168039 -8.9199305 -1.9655436 6
-1.9306992 -8.1357098 -1.941051 3
-1.7768943 -7.487596 -1.9222823 4
-1.1842778 -4.9903889 -1.7644494 1
-0.92250264 -3.8873036 -1.8623435 8
-0.94315654 -3.8543642 1.047449 21
-0.91293788 -3.7308705 0.74222189 10
-1.2052143 -4.9253058 0.70938051 7
-2.4437246 -9.9866819 0.89262867 2
-1.8116224 -7.4034925 0.39211166 11
-4.0079527 -16.379156 0.56910628 7
-5.5239553 -17.082102 0.49927926 13
-4.6009607 -27.231415 0.60550648 60
-5.1799355 -21.168655 0.34920323 5
-8.8117571 -27.249193 0.28991514 49
-4.6006923 -27.229828 0.11664127 80
-6.6732578 -27.271364 -0.046551749 54
-8.8168802 -27.265039 -0.21605912 55
-4.5996518 -27.223667 -0.37106746 49
-6.6596618 -27.215801 -0.54190129 75
-8.811862 -27.249519 -0.72292608 48
-4.6045003 -27.252365 -0.8603698 57
-6.6601357 -27.217737 -1.0387379 54
-4.1425934 -12.810423 -0.57841563 11
-3.2998378 -13.485329 -0.76039273 0
-2.9934528 -17.717159 -1.1956555 2
-3.1719177 -12.962563 -0.96711731 6
-4.0601263 -12.555404 -1.0338786 40
-1.215848 -7.1961622 -0.61476719 41
-3.2024233 -13.087229 -1.2147905 19
-4.0563655 -12.543774 -1.26616 1
-1.2065699 -7.1412487 -0.73834443 15
-3.1590619 -12.910025 -1.4335291 24
-3.1535637 -12.887556 -1.6662306 1
-3.389015 -13.849766 -2.0429804 3
-3.0280278 -12.374532 -2.0531018 3
-1.7753892 -7.2554193 -1.3358978 1
-1.7948438 -7.3349237 -1.4852076 0
-2.179023 -8.9049358 -1.9655436 4
-1.9883744 -8.1258183 -1.9419554 3
-1.8392689 -7.5164742 -1.9329455 4
-1.2172891 -4.9746518 -1.7618469 6
-0.95047945 -3.8842902 -1.8640335 10
-0.94280231 -3.7396386 0.74525756 6
-1.2424752 -4.9282951 0.71104312 4
-2.116894 -8.3966894 0.75181478 0
-1.8681471 -7.4100318 0.39313921 14
-4.1222034 -16.350777 0.56910628 9
-5.6682129 -17.119038 0.50150323 9
-3.4062569 -19.33757 0.43050057 4
-5.3373713 -21.170757 0.34984407 4
-9.0193777 -27.24017 0.29048204 50
-4.7983127 -27.240376 0.11682711 73
-6.8742414 -27.266773 -0.046624701 67
-9.0208416 -27.244589 -0.21639086 58
-4.7986164 -27.2421 -0.37176627 51
-6.8622112 -27.219057 -0.54290682 72
-9.0270233 -27.263258 -0.72494483 44
-4.7988067 -27.243179 -0.86111653 53
-6.8685551 -27.244219 -1.0415533 31
-4.2469997 -12.826715 -0.58047587 7
-3.3236032 -13.183119 -0.74464238 0
-4.2155137 -12.731622 -0.81322616 0
-3.0429847 -17.275249 -1.1672381 1
-3.2330775 -12.824047 -0.95844364 12
-4.1577082 -12.557038 -1.0363781 68
-1.2743545 -7.2346039 -0.61879623 20
-3.2479384 -12.882993 -1.1979084 33
-4.1525993 -12.541609 -1.2688369 35
-1.2591571 -7.1483274 -0.73996717 15
-3.2218921 -12.77968 -1.4215187 28
-3.2046499 -12.711289 -1.6462936 0
-3.4759424 -13.787374 -2.037307 3
-3.113379 -12.349261 -2.0524652 3
-2.7741315 -11.003631 -2.0295506 3
-2.4878886 -9.8682451 -2.0016336 3
-2.2440064 -8.9008827 -1.9680593 3
-2.0498173 -8.1306295 -1.946478 3
-1.8935964 -7.5109763 -1.9348843 4
-1.2510643 -4.9623642 -1.7605457 5
-0.98111892 -3.8916218 -1.8707933 7
-0.75689065 -2.9161777 0.7952854 1
-0.97184694 -3.74437 0.74753433 4
-1.2798365 -4.931004 0.71270573 3
-3.0264256 -11.660331 1.0458978 27
-1.9248514 -7.4161425 0.39416677 15
-4.2452922 -16.356426 0.57032055 11
-5.8029828 -17.124493 0.5028376 5
-4.3150415 -23.53393 0.52457941 6
-5.1856198 -19.979359 0.33074653 7
-9.2311468 -27.24094 0.29117039 62
-4.9955835 -27.245558 0.11699606 100
-5.1541214 -19.858 -0.034016799 12
-9.2390594 -27.264292 -0.21705437 51
-4.9915705 -27.223671 -0.37198129 55
-7.0621161 -27.209196 -0.54368031 67
-9.2350969 -27.252596 -0.726358 50
-4.9960938 -27.248341 -0.86236113 54
-3.4785817 -13.402415 -0.51329356 5
-4.3415709 -12.811893 -0.58116263 5
-3.2301457 -17.616985 -0.87441111 0
-3.3704052 -12.985628 -0.73479837 0
-4.30301 -12.698102 -0.81298405 0
-3.0980129 -16.896341 -1.14307 2
-3.3024821 -12.723931 -0.95266116 6
-4.2580671 -12.565475 -1.0395026 69
-1.3313 -7.2608156 -0.62181801 6
-3.303771 -12.728898 -1.1856959 38
-4.2566643 -12.561337 -1.2738081 42
-1.3140548 -7.1667614 -0.74280697 14
-3.2970452 -12.702984 -1.4155135 25
-3.2813489 -12.642509 -1.6403126 2
-3.6676068 -14.130699 -2.0917714 6
-3.2054698 -12.35016 -2.056284 3
-2.8538513 -10.99543 -2.0316632 2
-2.5586932 -9.8582335 -2.0031776 3
-2.3159175 -8.9228573 -1.9764447 3
-2.1075089 -8.1198921 -1.9473825 6
-1.9508616 -7.5163555 -1.9397312 4
-1.3826025 -5.3269448 -1.8932698 5
-1.0055313 -3.8741503 -1.8657235 9
-0.75228781 -2.8174074 0.76976275 2
-0.99593759 -3.7299051 0.7460165 2
-1.3121865 -4.9142947 0.71159732 1
-3.1159806 -11.669719 1.0486658 28
-1.9786401 -7.4102426 0.39457777 16
-4.36866 -16.361153 0.57153487 13
-5.9250131 -17.09112 0.50305998 3
-4.4859667 -23.538588 0.52536851 9
-5.2011628 -19.478975 0.32305625 29
-9.4459925 -27.247635 0.29193971 63
-5.1931539 -27.249311 0.117165 66
-5.1976957 -19.46599 -0.033406634 45
-9.4527588 -27.267153 -0.21759723 63
-5.19348 -27.251024 -0.37284139 57
-5.2441893 -19.640114 -0.39316076 18
-9.4539461 -27.270578 -0.72857863 51
-5.1929312 -27.248144 -0.86348122 56
-3.5029733 -13.119053 -0.50336558 8
-4.449235 -12.834133 -0.58356625 2
-3.3074279 -17.354605 -0.86251301 0
-3.4352207 -12.865312 -0.72932947 0
-4.9264407 -14.210668 -0.91200447 0
-3.1568642 -16.564573 -1.1220889 1
-3.3799105 -12.658167 -0.94948083 6
-4.360055 -12.576888 -1.0429394 68
-1.4267279 -7.48627 -0.6419633 1
-3.3699448 -12.620845 -1.1777936 57
-4.3559933 -12.565172 -1.2772498 42
-1.3670346 -7.1730499 -0.74442971 14
-3.3651295 -12.602811 -1.4069346 54
-3.3695302 -12.619292 -1.6403126 2
-3.76719 -14.108575 -2.0923388 2
-3.3038373 -12.373265 -2.063921 4
-2.9366391 -10.998064 -2.0358884 3
-2.6325171 -9.8590899 -2.0070374 3
-2.3821902 -8.921586 -1.9797989 3
-2.1661553 -8.1125097 -1.9491915 6
-1.9962801 -7.4763069 -1.9329455 5
-1.4217095 -5.3244715 -1.8958722 5
-1.0334888 -3.8705385 -1.8674134 8
-0.75453353 -2.7486844 0.75240737 1
-1.0198728 -3.715287 0.74449867 1
-1.3506562 -4.9202948 0.71381414 1
-2.1762383 -7.9278021 0.71375698 4
-2.0366681 -7.4193625 0.39581084 18
-4.489121 -16.353386 0.57234442 13
-4.8030176 -13.548269 0.399757 4
-4.6563959 -23.53808 0.52606994 11
-5.3391376 -19.449903 0.3231844 39
-7.1100483 -20.055902 0.21541183 8
-5.3886967 -27.239861 0.11728327 83
-5.3387566 -19.448517 -0.033439793 49
-9.6535807 -27.230656 -0.2178385 51
-5.3874822 -27.233721 -0.37311015 58
-5.3292966 -19.414053 -0.38937071 61
-9.6360836 -27.181301 -0.72797304 36
-5.3907909 -27.250446 -0.86472577 57
-3.6071706 -13.140534 -0.5051437 2
-4.5454021 -12.821593 -0.58442467 2
-3.326937 -16.817665 -0.83696139 2
-3.5143781 -12.802501 -0.72714192 0
-4.4958944 -12.681942 -0.8158893 0
-3.2275066 -16.315044 -1.1066852 1
-3.4724197 -12.649652 -0.95063728 2
-4.4637413 -12.591246 -1.0466888 73
-1.5416116 -7.7928457 -0.66915947 2
-3.4579697 -12.597012 -1.1777936 54
-4.456913 -12.571983 -1.2810739 40
-1.4201674 -7.178946 -0.74605244 17
-3.4540813 -12.582847 -1.4073635 55
-3.4627974 -12.614598 -1.6428047 2
-3.8676875 -14.089569 -2.0934734 5
-3.3901355 -12.349899 -2.063921 3
-3.0143883 -10.981091 -2.0365927 3
-2.7002409 -9.8366871 -2.0062654 3
-2.440273 -8.8896523 -1.9764447 3
-2.2227366 -8.0971899 -1.9491915 5
-2.0535605 -7.4808998 -1.9377924 4
-1.4588454 -5.3144164 -1.8958722 6
-1.0595244 -3.8597333 -1.8657235 9
-0.7495591 -2.6577365 0.72892654 2
-1.0447195 -3.7042964 0.74373972 1
-1.3817475 -4.8993077 0.71215153 0
-2.1796105 -7.7283173 0.69714993 7
-2.0894995 -7.4088078 0.39601636 18
-4.6205425 -16.383211 0.57450318 12
-4.8198338 -13.300132 0.3934187 10
-3.979413 -19.403376 0.43427071 2
-5.4867353 -19.454498 0.32388934 35
-7.1858416 -19.829033 0.21350874 3
-5.587575 -27.244678 0.11746911 77
-5.4939466 -19.480068 -0.033559173 42
-9.7603207 -26.933203 -0.2159988 44
-5.5903349 -27.258135 -0.37397021 51
-5.4788146 -19.426414 -0.39037624 62
-9.7261543 -26.838923 -0.72060448 38
-5.5865264 -27.239563 -0.86559701 59
-3.6858008 -13.068866 -0.50336558 3
-4.6470571 -12.823361 -0.58596987 1
-3.6104186 -17.604181 -0.87733686 1
-3.6004183 -12.766122 -0.72648567 4
-4.9733768 -13.723827 -0.88513094 0
-3.3036411 -16.108355 -1.0942028 3
-3.5628123 -12.632782 -0.95121557 40
-4.5637641 -12.593518 -1.0495008 66
-1.6720535 -8.1528311 -0.70105618 1
-3.5490732 -12.584066 -1.1788713 66
-4.5554261 -12.57051 -1.2841332 41
-1.4742488 -7.1883478 -0.74808085 12
-3.5407624 -12.554599 -1.4069346 14
-3.5604753 -12.624496 -1.6472905 1
-3.5543141 -12.602649 -1.8761834 1
-3.4751995 -12.32213 -2.0632844 5
-3.0995276 -10.990097 -2.0422263 3
-2.7773709 -9.8478165 -2.0124409 3
-2.5065215 -8.8874559 -1.9797989 3
-2.2823844 -8.0927258 -1.951905 4
-2.1110039 -7.4850564 -1.9426394 8
-1.4959114 -5.3041024 -1.8958722 5
-1.0903809 -3.8661995 -1.8724834 9
-0.77024686 -2.6598687 0.73096836 1
-1.0716473 -3.700685 0.74449867 1
-1.4170191 -4.8933468 0.71270573 0
-2.1780891 -7.5215244 0.67985094 10
-2.1467276 -7.4132247 0.39704388 19
-4.739254 -16.365913 0.5750429 11
-6.066422 -16.382097 0.48582429 2
-4.9879107 -23.48642 0.52642065 9
-5.6346569 -19.457977 0.32459429 36
-7.2602019 -19.605844 0.21164617 3
-5.7851214 -27.240221 0.11762116 92
-5.6353722 -19.460447 -0.033592336 42
-9.853653 -26.609343 -0.21394798 46
-5.7896361 -27.26148 -0.37456152 58
-5.6232018 -19.418423 -0.39099503 70
-9.8299656 -26.545376 -0.71454811 32
-5.7832026 -27.231186 -0.86659265 57
-3.7758367 -13.038975 -0.5032174 5
-4.7461796 -12.816842 -0.58717173 1
-3.553956 -16.734402 -0.83520597 0
-3.6994534 -12.775203 -0.72845447 41
-4.7238231 -12.75647 -0.82484716 0
-3.4052398 -16.034145 -1.0907501 34
-3.6553576 -12.622929 -0.95237201 59
-4.6626477 -12.591268 -1.0520004 62
-1.7131977 -8.0668802 -0.69467682 0
-3.6390564 -12.566636 -1.1795896 51
-4.6568975 -12.575741 -1.2879573 40
-1.5310104 -7.2090211 -0.75132632 16
-3.7013328 -12.781693 -1.4352449 5
-3.6407962 -12.572644 -1.6438016 2
-3.634501 -12.550905 -1.8722121 2
-3.5710254 -12.331707 -2.0690124 5
-3.1783676 -10.975755 -2.0436349 3
-2.8515124 -9.8470354 -2.0163007 3
-2.573946 -8.888525 -1.9839916 4
-2.3442454 -8.0953074 -1.9564275 4
-2.1653669 -7.4775915 -1.9445782 7
-1.5339566 -5.297163 -1.8971734 5
-1.1173455 -3.8584929 -1.8724834 9
-0.80311924 -2.7026215 0.74424011 0
-1.096338 -3.6893485 0.74373972 1
-1.4466331 -4.8681459 0.71048892 0
-2.1760595 -7.3227797 0.66324389 11
-2.1995673 -7.4018869 0.3972494 19
-4.8659201 -16.37458 0.57652706 9
-4.8338881 -12.779021 0.37996376 9
-4.2593746 -19.388889 0.43523517 5
-5.7840323 -19.46417 0.32536334 34
-7.3261423 -19.367626 0.20962162 2
-5.9880204 -27.257774 0.11787459 76
-5.7824883 -19.458975 -0.033658657 41
-9.9599323 -26.330397 -0.21225908 42
-5.9866748 -27.251648 -0.37499157 57
-5.77458 -19.432362 -0.39207789 61
-9.9245043 -26.236738 -0.70808804 35
-5.9894643 -27.264343 -0.86895734 50
-3.8508332 -12.958653 -0.50114286 1
-4.8539228 -12.831986 -0.58940363 1
-3.6672649 -16.693577 -0.83442575 0
-3.7931015 -12.764379 -0.72932947 52
-4.8424296 -12.801603 -0.82993132 0
-3.5110977 -15.982695 -1.088891 255
-3.7524846 -12.627696 -0.95468503 45
-4.7631359 -12.591979 -1.0548123 93
-3.5038786 -15.949833 -1.3755877 44
-3.7289691 -12.548562 -1.180308 66
-4.7544403 -12.568992 -1.2906343 43
-1.590692 -7.240911 -0.75578886 16
-3.7474275 -12.610678 -1.4189451 2
-3.7680497 -12.680075 -1.6612464 2
-3.7276738 -12.544204 -1.8750488 1
-3.6637793 -12.329188 -2.0728309 6
-3.259402 -10.968396 -2.0464518 3
-2.92466 -9.8419371 -2.0193882 3
-2.635937 -8.8703384 -1.9839916 3
-2.4040339 -8.0899487 -1.9591409 4
-2.2175174 -7.4622922 -1.9445782 6
-1.5719777 -5.2899504 -1.8984747 5
-1.1432228 -3.8471231 -1.8707933 9
-0.83662468 -2.7450426 0.75751185 1
-1.125502 -3.6928754 0.7460165 0
-1.4782729 -4.8503489 0.70938051 0
-2.1783328 -7.1473098 0.64871269 12
-2.2523513 -7.3901715 0.39745492 18
-4.9777832 -16.332563 0.57625717 7
-6.3233767 -16.370396 0.48804826 6
-4.3618746 -19.214388 0.4319911 4
-8.306571 -27.254623 0.45654684 31
-7.4006448 -19.159302 0.207921 2
-6.1879106 -27.258211 0.11806042 77
-8.3122902 -27.273388 -0.047274664 49
-10.05127 -26.021425 -0.21032891 41
-6.1838651 -27.240393 -0.37542158 53
-5.9229231 -19.433655 -0.39292872 36
-10.02242 -25.946737 -0.70213258 33
-6.1796594 -27.221865 -0.86895734 47
-3.9295514 -12.893219 -0.49966109 2
-4.9549084 -12.82761 -0.59077716 2
-3.7907944 -16.698734 -0.83598614 0
-3.886776 -12.752869 -0.73020452 79
-4.9144197 -12.722791 -0.82702607 0
-3.6243596 -15.965577 -1.0894222 96
-3.8475268 -12.624089 -0.95641977 44
-4.8696074 -12.606778 -1.0588741 69
-3.1121829 -13.7094 -1.1842074 1
-3.8246107 -12.548899 -1.1828223 56
-4.182116 -10.826952 -1.1147256 1
-1.6561805 -7.2955999 -0.76268548 6
-3.8295755 -12.565188 -1.4168004 2
-3.8310232 -12.569939 -1.6502811 3
-3.8567119 -12.654226 -1.8954729 0
-3.7624254 -12.344863 -2.0798316 6
-3.3427813 -10.967973 -2.0506771 4
-2.9955847 -9.8287888 -2.0209322 3
-2.7000778 -8.8592033 -1.9856687 3
-2.4649959 -8.0878782 -1.9627589 4
-2.2706897 -7.4503417 -1.9455475 4
-1.6132801 -5.2933197 -1.9036795 4
-1.1742799 -3.8529205 -1.8775532 8
-0.84769505 -2.7132943 0.75036556 1
-1.1442287 -3.662436 0.74146301 0
-1.5073733 -4.8247862 0.70716369 0
-2.1426153 -6.8580627 0.62380213 31
-2.3086548 -7.3895197 0.39827695 18
-5.2752767 -16.885054 0.59703541 14
-6.4477763 -16.351889 0.48882663 8
-4.4840479 -19.132853 0.43085128 13
-7.3671756 -23.580784 0.39585763 4
-7.4725976 -18.950888 0.20622037 28
-6.3853593 -27.245502 0.11819558 84
-8.5144205 -27.252874 -0.047340985 51
-10.14612 -25.731079 -0.20854953 48
-6.3866649 -27.251074 -0.37617415 51
-8.5021067 -27.213461 -0.55141515 66
-10.116775 -25.656654 -0.69617718 38
-6.3877988 -27.255911 -0.87144649 48
-4.0313873 -12.903625 -0.50114286 6
-5.0531363 -12.815012 -0.59180725 3
-4.1570697 -17.73768 -0.88942999 2
-3.9852414 -12.755922 -0.73195457 45
-5.0119095 -12.710458 -0.82847869 0
-3.1492348 -13.437378 -0.91838664 15
-3.9427042 -12.619769 -0.9581545 41
-4.3036199 -10.914199 -0.91921151 1
-3.1141376 -13.287623 -1.1496247 10
-3.9156895 -12.5333 -1.1838999 64
-4.1831107 -10.608582 -1.0952226 11
-3.099972 -13.22718 -1.3850044 6
-3.9183898 -12.541944 -1.4172293 2
-3.925786 -12.565618 -1.6532716 2
-3.9201648 -12.547626 -1.8835588 1
-3.8532276 -12.333373 -2.0823772 5
-3.426316 -10.966919 -2.0549023 5
-3.0653 -9.8113823 -2.0217042 3
-2.7653599 -8.8513365 -1.9881843 3
-2.522562 -8.074192 -1.9636635 4
-2.3180187 -7.4194913 -1.9416699 5
-1.649067 -5.2783179 -1.9023783 5
-1.203312 -3.8515496 -1.8809332 9
-0.87015396 -2.7183602 0.75342828 0
-1.1709666 -3.6580987 0.74222189 0
-1.5386045 -4.8065991 0.70605528 0
-2.1867967 -6.8315506 0.62276417 24
-2.3687117 -7.3998537 0.39971551 22
-5.3064952 -16.577486 0.58745581 16
-6.5811782 -16.354702 0.49027222 10
-4.6128125 -19.081646 0.43041289 7
-7.5340586 -23.536394 0.39598581 7
-10.262555 -25.503187 0.27829427 40
-6.5913911 -27.266356 0.11848279 65
-8.7337399 -27.284197 -0.04750016 46
-10.240392 -25.448111 -0.20683046 46
-6.5889754 -27.256363 -0.37687296 54
-8.7077341 -27.202955 -0.55242068 70
-10.201595 -25.351698 -0.68981802 36
-6.5873194 -27.249514 -0.87269104 48
-4.1420898 -12.939885 -0.50366193 13
-5.1544113 -12.809083 -0.59318078 6
-4.2920661 -17.754827 -0.8917706 1
-4.085156 -12.762024 -0.73392338 22
-5.3613591 -13.323362 -0.87084681 0
-3.1838863 -13.170661 -0.9016549 10
-4.0428729 -12.629932 -0.96104574 35
-4.2472148 -10.554635 -0.89140391 12
-3.1534421 -13.044724 -1.1304866 20
-4.0128088 -12.536012 -1.1867734 70
-4.1916661 -10.416593 -1.0783966 9
-3.1464221 -13.015685 -1.3651259 46
-4.0228271 -12.567309 -1.4232345 2
-4.0521331 -12.65886 -1.6692212 11
-4.0185323 -12.553891 -1.8886648 0
-3.9428484 -12.317455 -2.0842865 5
-3.5003951 -10.935232 -2.053494 5
-3.1420972 -9.8159094 -2.0271077 3
-2.8306634 -8.8429899 -1.9906999 3
-2.5871837 -8.0823593 -1.9699949 4
-2.3792245 -7.4326954 -1.949425 5
-1.6858764 -5.2666764 -1.9023783 5
-1.2246451 -3.8257904 -1.8724834 9
-0.87492549 -2.6720986 0.74219829 1
-1.1866479 -3.6241257 0.73690951 0
-1.5704495 -4.7962894 0.70605528 0
-2.2357776 -6.828259 0.62380213 19
-2.4214668 -7.39537 0.40033203 20
-5.3528819 -16.348166 0.58057475 27
-6.7122607 -16.366184 0.4919402 11
-4.7450542 -19.073919 0.43093896 16
-6.3309588 -19.335299 0.32600418 3
-10.338891 -25.208822 0.27582431 52
-6.776906 -27.241449 0.11856727 60
-8.9232178 -27.252283 -0.047546584 61
-10.323949 -25.17239 -0.20514156 43
-6.7763548 -27.239235 -0.37724924 63
-8.9091167 -27.209217 -0.55373555 71
-10.286056 -25.079996 -0.68426639 37
-6.7843022 -27.271181 -0.87480682 48
-4.2377706 -12.942519 -0.50484735 18
-5.263514 -12.833774 -0.59592777 8
-3.4346068 -13.806252 -0.69457459 0
-5.449605 -13.287511 -0.87084681 0
-3.2220247 -12.951725 -0.88811016 29
-4.1364813 -12.633173 -0.9633587 29
-4.2974515 -10.47827 -0.88734215 9
-3.2071695 -12.892012 -1.119071 25
-4.1057806 -12.539411 -1.189647 49
-4.2032466 -10.248575 -1.0638651 3
-3.1942465 -12.840064 -1.3488985 94
-4.1865273 -12.786018 -1.4511158 4
-4.115006 -12.567587 -1.660748 2
-4.1041694 -12.53449 -1.8897995 2
-4.028141 -12.302293 -2.0861957 4
-3.5801952 -10.934227 -2.0577192 4
-3.2083514 -9.798584 -2.0278797 3
-2.8953354 -8.8426065 -1.9948927 3
-2.6383066 -8.0576172 -1.9681859 4
-2.4345062 -7.4351931 -1.9542719 5
-1.7219465 -5.2589741 -1.9036795 4
-1.191328 -3.6384196 -1.784605 24
-0.88987106 -2.6549246 0.73913556 2
-1.2081749 -3.6045821 0.73463273 0
-1.5837514 -4.7251124 0.69718802 0
-2.2808588 -6.8049273 0.62311018 30
-2.4806528 -7.4010115 0.4015651 23
-5.3881097 -16.07539 0.57220948 17
-6.1119328 -14.611044 0.4404555 1
-4.4582748 -17.401657 0.39385101 1
-6.3602896 -18.975883 0.32068506 5
-10.437452 -24.951532 0.27379978 48
-6.9808202 -27.247723 0.11880379 74
-9.1412172 -27.272762 -0.047692496 60
-10.406819 -24.8783 -0.20333202 43
-6.9812446 -27.24938 -0.37805557 52
-9.1204557 -27.210823 -0.55505049 70
-10.377567 -24.808372 -0.67881566 37
-5.1100883 -19.945831 -0.64095247 9
-4.3369122 -12.93915 -0.50588459 19
-5.3653197 -12.826209 -0.59730124 13
-3.4367115 -13.414264 -0.67604482 0
-5.8873749 -14.074222 -0.92507803 0
-3.2826502 -12.812927 -0.88014269 36
-4.2334485 -12.630466 -0.96538258 50
-4.3412595 -10.378114 -0.88140571 4
-3.2644503 -12.741889 -1.1079911 28
-4.2008157 -12.533106 -1.1918021 50
-4.2316689 -10.11613 -1.0531576 1
-3.2482553 -12.678676 -1.3342938 39
-4.271894 -12.745169 -1.449829 3
-4.2076864 -12.553606 -1.6627417 1
-4.7251148 -14.09735 -2.1303504 2
-4.1189461 -12.28885 -2.0887415 4
-3.6601949 -10.920168 -2.0598319 3
-3.2804201 -9.7871122 -2.0301955 3
-2.9632108 -8.8407202 -1.9990854 3
-2.7006843 -8.0574741 -1.9727085 3
-2.4888189 -7.4253755 -1.9562107 6
-1.7634261 -5.2611704 -1.9088844 4
-1.2005687 -3.5818892 -1.7609456 4
-0.90211087 -2.6303556 0.73403102 3
-1.230762 -3.5886297 0.7331149 0
-1.6038491 -4.6764688 0.69164598 3
-2.3308961 -6.7963772 0.62380213 20
-2.5374448 -7.3986273 0.40238714 21
-5.4587045 -15.916373 0.56789196 28
-6.1275077 -14.365736 0.43433958 8
-4.5368333 -17.207699 0.39016852 0
-6.6444168 -19.37365 0.32818308 1
-10.520375 -24.664667 0.27145129 47
-5.2190752 -19.795366 0.086467266 28
-9.3508596 -27.265036 -0.04779198 53
-10.500215 -24.617401 -0.20179391 34
-5.1748047 -19.627453 -0.2728042 16
-9.3283653 -27.199448 -0.55613339 65
-5.2070103 -12.207661 -0.33501697 13
-5.1360731 -19.480547 -0.62713778 32
-4.4336228 -12.927463 -0.50662553 19
-5.4735479 -12.83255 -0.59936154 26
-3.4589789 -13.119518 -0.66239125 0
-4.3315544 -12.629854 -0.73129827 0
-5.2069516 -12.207524 -0.80475253 0
-3.3547235 -12.72409 -0.87562776 44
-4.3383479 -12.649662 -0.96914119 72
-4.4120421 -10.343885 -0.88109326 2
-3.3330026 -12.641705 -1.1012759 46
-4.3011351 -12.541158 -1.195394 51
-4.270947 -10.013092 -1.0455093 6
-3.3306029 -12.632603 -1.3318598 44
-4.3052907 -12.553275 -1.4313844 2
-4.3196878 -12.595253 -1.6722116 1
-4.8298407 -14.082747 -2.1331871 3
-4.2084813 -12.271001 -2.0906508 4
-3.7440069 -10.916696 -2.0640571 4
-3.3537598 -9.778821 -2.0332832 4
-3.027396 -8.8272171 -2.0007625 3
-2.7581344 -8.0421095 -1.9736129 3
-2.544374 -7.4188318 -1.9591188 5
-1.7988859 -5.2451534 -1.9075832 4
-1.2149605 -3.5425556 -1.7457359 7
-0.91789186 -2.6166947 0.73198926 4
-1.2557853 -3.5799501 0.7331149 0
-1.6181 -4.6128244 0.68388712 1
-2.3875203 -6.8062615 0.62622398 12
-2.5930018 -7.3920407 0.40300366 15
-5.5868907 -15.926917 0.56964594 21
-5.2869625 -12.159184 0.36873275 19
-5.1466093 -18.981939 0.43120199 12
-6.7715654 -19.304148 0.32779858 13
-5.266407 -12.11191 0.1337011 21
-5.2713141 -19.441881 0.085081898 56
-9.5674572 -27.27458 -0.047924623 58
-5.2410078 -12.053495 -0.09910249 22
-5.2740254 -19.451881 -0.27086905 51
-9.5431767 -27.205362 -0.557603 69
-5.217165 -11.998661 -0.33027285 20
-5.2719474 -19.444218 -0.62713778 57
-4.5330272 -12.922599 -0.50766277 18
-5.258636 -12.094038 -0.56656921 32
-3.5065753 -12.933098 -0.65419918 0
-4.5187759 -12.881971 -0.74770492 0
-5.2283635 -12.024416 -0.79506838 23
-3.4434726 -12.700359 -0.87562776 45
-4.4371181 -12.649184 -0.9714542 67
-4.4523435 -10.239692 -0.87484437 1
-3.4180479 -12.606586 -1.1002687 62
-4.4030895 -12.552176 -1.1993452 44
-4.3296313 -9.9574728 -1.0428325 40
-3.4176724 -12.605203 -1.331454 46
-4.4020391 -12.549182 -1.434387 42
-4.4193373 -12.598495 -1.6766975 1
-4.9385242 -14.078575 -2.1377258 3
-4.3031969 -12.267406 -2.0951056 4
-3.8266451 -10.90887 -2.0675781 4
-3.4336393 -9.7885008 -2.0402305 5
-3.0902424 -8.809557 -2.001601 3
-2.8219502 -8.0447187 -1.9790399 3
-2.5986745 -7.4082122 -1.9610575 6
-1.8367121 -5.2360358 -1.9088844 4
-1.2408626 -3.5374086 -1.7474258 7
-0.93874872 -2.6175036 0.73403102 4
-1.2820734 -3.5747924 0.73387378 0
-2.7762952 -7.7411165 1.1505265 32
-2.4282525 -6.7706718 0.62449408 11
-2.6539848 -7.4000797 0.40444222 21
-5.6696043 -15.808501 0.56681257 17
-5.2907238 -11.939198 0.36317283 21
-5.2897329 -18.984072 0.43207878 14
-6.8697138 -19.154755 0.32606825 5
-5.2649498 -11.881035 0.13155508 21
-5.4176478 -19.443138 0.085250847 64
-9.6887684 -27.015099 -0.047586378 53
-5.2440033 -11.833767 -0.097594544 22
-5.4204278 -19.453115 -0.27140659 38
-9.7423239 -27.164427 -0.55814439 54
-5.2149415 -11.768185 -0.32492307 23
-5.422585 -19.460857 -0.6288802 44
-4.6312304 -12.913213 -0.50855184 17
-5.2603674 -11.870694 -0.55781311 23
-3.5764019 -12.835179 -0.6504932 0
-4.6085987 -12.85011 -0.74770492 0
-5.2280674 -11.797805 -0.78247899 25
-3.5320511 -12.676011 -0.87562776 61
-4.5360928 -12.647942 -0.97376716 71
-4.4978719 -10.150025 -0.86984527 1
-3.5123916 -12.605455 -1.1022832 43
-4.5040617 -12.55863 -1.2029371 53
-4.3474216 -9.8105145 -1.0305953 7
-3.5077238 -12.588703 -1.3322655 44
-4.5029674 -12.555579 -1.4386765 53
-4.515223 -12.589751 -1.6796881 1
-5.0433741 -14.06239 -2.1405623 3
-4.3874016 -12.233349 -2.0944693 3
-3.9053688 -10.889301 -2.0689867 3
-3.4926174 -9.738431 -2.034827 6
-3.1569507 -8.802494 -2.0049551 4
-2.8740981 -8.0138187 -1.9763263 2
-2.64902 -7.3862362 -1.9600883 6
-1.8719449 -5.2195253 -1.9075832 5
-1.2838868 -3.5798488 -1.7727753 5
-0.96099192 -2.6217804 0.73709375 3
-1.2840209 -3.5030687 0.72097218 1
-2.8398125 -7.7475824 1.154406 39
-2.4686027 -6.7348475 0.62276417 8
-2.7097054 -7.3926239 0.40505874 21
-5.778451 -15.764783 0.56667763 24
-5.2949657 -11.727049 0.35783532 22
-5.4298391 -18.973591 0.4326925 13
-7.0239139 -19.162657 0.32702956 4
-5.2736979 -11.679945 0.12973298 41
-5.5664606 -19.450991 0.085453577 51
-9.7931547 -26.717707 -0.047181811 33
-5.2672343 -11.665629 -0.096508816 52
-5.5660076 -19.449408 -0.27189037 41
-9.839509 -26.844172 -0.55296206 40
-5.264061 -11.658602 -0.32290429 45
-4.0040112 -13.991292 -0.45302272 5
-4.7391491 -12.929358 -0.5104782 17
-5.264174 -11.658853 -0.54957211 47
-3.671417 -12.829103 -0.65146846 0
-4.7105656 -12.851376 -0.74967372 0
-5.2577271 -11.644573 -0.7747317 51
-3.6259506 -12.670229 -0.87695569 50
-4.6366353 -12.649679 -0.97636926 53
-4.5423665 -10.060225 -0.86484617 0
-3.6057918 -12.599788 -1.1039621 44
-4.601222 -12.553064 -1.2054515 50
-4.4239979 -9.798069 -1.0325074 9
-3.5900493 -12.544778 -1.330237 4
-4.6041956 -12.561177 -1.4429659 52
-4.6152959 -12.59146 -1.6841738 2
-5.1482358 -14.045428 -2.143399 3
-4.4822102 -12.228376 -2.0989242 5
-3.9894238 -10.883955 -2.0732119 3
-3.5740247 -9.7506618 -2.0425465 3
-3.219671 -8.7839136 -2.0057938 3
-2.9420416 -8.0264845 -1.9844669 2
-2.7031906 -7.3748507 -1.962027 6
-1.909639 -5.2098813 -1.9088844 5
-1.3849571 -3.7784431 -1.8758633 13
-0.97791564 -2.6113853 0.73607284 10
-1.2946725 -3.4572396 0.71338302 2
-2.9007778 -7.7461166 1.157177 38
-2.5071754 -6.6950574 0.62068832 9
-2.7668531 -7.3884902 0.40588078 22
-5.902389 -15.761496 0.5680269 26
-5.3566575 -11.646206 0.35650095 46
-5.5768199 -18.985104 0.43383232 15
-7.1547184 -19.105663 0.32690138 8
-5.3567824 -11.646477 0.12977348 49
-5.7122645 -19.446196 0.085605636 60
-9.8812456 -26.386469 -0.046717554 39
-5.3652616 -11.664912 -0.096810408 46
-5.7163086 -19.459963 -0.27258918 45
-9.9425259 -26.550108 -0.54832119 42
-5.3603635 -11.654263 -0.32381272 44
-4.113986 -14.005195 -0.45439175 2
-4.8349047 -12.91093 -0.51107091 16
-5.3504505 -11.63271 -0.55008715 63
-3.7541356 -12.78016 -0.65029812 0
-4.814177 -12.855578 -0.75186127 0
-5.352241 -11.636603 -0.77666849 52
-3.7221911 -12.671412 -0.87881476 49
-4.7360268 -12.64689 -0.97868228 54
-4.6024914 -10.006531 -0.86297148 0
-3.6992838 -12.593429 -1.1056408 42
-4.699924 -12.550483 -1.208325 62
-4.4873028 -9.756093 -1.0313601 29
-3.7728722 -12.843945 -1.3647201 3
-4.7071185 -12.569695 -1.4476843 51
-4.712831 -12.584949 -1.6876628 2
-5.2586632 -14.042517 -2.1485052 3
-4.5785503 -12.226372 -2.1040156 4
-4.0694532 -10.866899 -2.0753245 2
-3.644763 -9.7328243 -2.0440903 3
-3.2768009 -8.7502327 -2.003278 3
-2.9911733 -7.987505 -1.9799443 2
-2.7586939 -7.3667021 -1.9649351 5
-1.9459642 -5.1964226 -1.9088844 5
-1.4074874 -3.7584963 -1.8707933 9
-0.99750429 -2.6081071 0.73709375 34
-1.3215828 -3.4554534 0.71490085 3
-2.9632761 -7.7478776 1.1605022 40
-2.5510075 -6.6699467 0.61999637 7
-2.8269291 -7.3913808 0.40711385 24
-6.0251336 -15.75351 0.56924117 24
-5.453095 -11.641114 0.35750175 47
-5.7219176 -18.987825 0.43479678 16
-7.3036418 -19.09634 0.32760632 6
-5.463407 -11.663129 0.13038084 45
-5.8651972 -19.463289 0.085859053 51
-9.985198 -26.107622 -0.04634615 35
-5.4652286 -11.667017 -0.09714216 41
-5.862412 -19.454046 -0.27307299 19
-10.041919 -26.255926 -0.54368031 42
-5.4568586 -11.649149 -0.32472119 45
-4.2266569 -14.025895 -0.45600969 6
-4.9420571 -12.921663 -0.51284903 13
-5.4433951 -11.620408 -0.55128896 48
-3.8524885 -12.784242 -0.65185857 40
-4.8895407 -12.784351 -0.74967372 0
-5.4468951 -11.62788 -0.77860534 48
-3.8197765 -12.675689 -0.88093942 51
-4.8327541 -12.635876 -0.98041701 43
-4.633328 -9.891099 -0.85578525 1
-3.7905629 -12.578745 -1.1066481 40
-4.8002362 -12.550854 -1.2115577 66
-4.5519228 -9.7173176 -1.0305953 1
-3.8785224 -12.870633 -1.3703997 4
-4.8018603 -12.555099 -1.449829 49
-4.1384764 -10.820594 -1.454899 5
-4.1231585 -10.780544 -1.6537873 5
-4.3675466 -11.419529 -1.9703667 3
-4.1494389 -10.849257 -2.0774372 2
-3.7224362 -9.7328024 -2.0494938 2
-3.3517804 -8.7636738 -2.0116634 3
-3.0579987 -7.9955425 -1.9871804 2
-2.8142147 -7.3581371 -1.9678433 5
-1.9875993 -5.1968417 -1.9140893 4
-1.4336923 -3.7485785 -1.8707933 10
-1.0213151 -2.61549 0.74117738 63
-1.3399602 -3.4315097 0.71186519 4
-3.0331445 -7.7675924 1.1665984 29
-2.5917125 -6.6371269 0.61861241 8
-2.8871801 -7.3937917 0.40834689 23
-6.1480546 -15.744578 0.57045549 27
-5.5514464 -11.638851 0.35861373 48
-5.3443375 -17.296825 0.39691976 1
-7.4396915 -19.052338 0.3277345 6
-5.5567517 -11.649974 0.13066427 49
-8.4204302 -27.252529 0.12047637 84
-10.079924 -25.813717 -0.045948215 40
-5.563767 -11.664681 -0.097443745 50
-8.4221067 -27.257954 -0.38343102 56
-10.134785 -25.954214 -0.5388847 45
-5.5621529 -11.661298 -0.32613432 44
-4.3244696 -13.996047 -0.45600969 6
-5.0466866 -12.924081 -0.51433086 12
-5.5484748 -11.632621 -0.55369264 55
-3.9475398 -12.776122 -0.65283382 41
-4.9830317 -12.761066 -0.75032997 0
-5.5330973 -11.600382 -0.77933162 42
-3.9187772 -12.683033 -0.88332969 39
-4.9397168 -12.650141 -0.98417562 25
-4.6885338 -9.8297167 -0.85328573 5
-3.8853438 -12.574825 -1.1086626 43
-4.9022317 -12.554146 -1.2151498 50
-4.6247945 -9.696084 -1.0317426 24
-3.9647546 -12.831838 -1.3691827 3
-4.2615848 -10.91351 -1.2636675 3
-4.1330752 -10.58441 -1.4269872 16
-4.1176672 -10.54495 -1.6220164 13
-4.437109 -11.36301 -1.9659117 2
-4.22508 -10.820025 -2.0774372 3
-3.7931485 -9.7138901 -2.0510378 3
-3.4171491 -8.7509909 -2.0141792 4
-3.1137435 -7.973999 -1.9871804 4
-2.8711619 -7.3527708 -1.9717208 5
-2.0252078 -5.1863627 -1.9153905 4
-1.4624649 -3.7452323 -1.8741733 10
-1.0467092 -2.6262596 0.74628192 68
-1.3697001 -3.4366643 0.71490085 6
-3.0960982 -7.7683067 1.1699237 29
-2.637985 -6.6188717 0.61861241 6
-2.944644 -7.388298 0.40916893 23
-6.2711434 -15.734696 0.57166982 27
-5.6517773 -11.639376 0.35983691 43
-5.4492679 -17.209532 0.39577994 3
-7.5917706 -19.048233 0.32856762 8
-5.6554198 -11.646877 0.13106918 48
-8.627388 -27.246468 0.1207129 115
-10.182882 -25.549498 -0.045603339 31
-5.6642847 -11.665133 -0.097775497 50
-8.6303082 -27.25569 -0.38423732 52
-10.22097 -25.645061 -0.53393441 46
-5.6591482 -11.654555 -0.32704279 43
-4.4377646 -14.015066 -0.45762762 5
-5.1649089 -12.959085 -0.51714623 7
-5.6522431 -11.640335 -0.55592453 53
-4.0450797 -12.774914 -0.65419918 38
-5.6401081 -11.615344 -0.78296322 14
-4.0144548 -12.678196 -0.88492316 43
-5.0426812 -12.652407 -0.98706681 17
-4.7640114 -9.8110933 -0.85453546 18
-3.9790535 -12.566394 -1.1103413 43
-4.711504 -9.70296 -1.0359491 36
-4.065052 -12.837989 -1.3728338 5
-4.2316589 -10.6175 -1.2327836 14
-4.1422143 -10.393078 -1.4050566 22
-4.1310797 -10.365141 -1.5987556 11
-4.8496804 -12.168156 -2.1110163 4
-4.3019729 -10.793922 -2.0781415 2
-3.8608718 -9.6871719 -2.0510378 3
-3.4796071 -8.7305546 -2.0150177 4
-3.1779921 -7.9737835 -1.9926074 4
-2.9252977 -7.3397574 -1.9736595 4
-2.0627663 -5.175611 -1.9166917 5
-1.4899182 -3.7382994 -1.8758633 9
-1.0577332 -2.6009753 0.74117738 25
-1.3951379 -3.4306567 0.7156598 8
-2.1787641 -5.3576007 0.80913711 4
-2.6826265 -6.5966029 0.61826646 7
-3.0036747 -7.3860636 0.41019648 23
-6.3958955 -15.727565 0.57301903 29
-5.7559285 -11.646235 0.36128247 45
-5.5877867 -17.228128 0.39709511 4
-7.738122 -19.028112 0.32914439 8
-5.7596307 -11.653726 0.13159557 47
-8.8396063 -27.254059 0.121017 90
-10.266068 -25.244352 -0.045185506 33
-5.765079 -11.664749 -0.098107249 47
-8.8388872 -27.251842 -0.38504365 48
-10.313878 -25.361919 -0.52952558 41
-5.7616353 -11.657782 -0.32825404 47
-4.5453677 -14.014168 -0.45862329 3
-5.2522402 -12.915306 -0.51684988 3
-5.7493062 -11.632835 -0.55746973 55
-4.1390972 -12.761563 -0.65497935 42
-5.457119 -13.419106 -0.79342473 0
-5.2221932 -10.566303 -0.71468997 3
-4.1127181 -12.680233 -0.88704783 43
-5.160944 -12.690808 -0.99284929 5
-4.8447576 -9.8026209 -0.85672259 31
-4.077754 -12.572433 -1.1133631 41
-4.2756352 -10.513826 -1.0233407 0
-4.7897134 -9.6912479 -1.0382435 33
-4.1496682 -12.794157 -1.3712111 2
-4.239759 -10.425606 -1.2139101 34
-4.1653299 -10.242584 -1.3886086 17
-4.1406918 -10.181998 -1.5749274 17
-4.9434357 -12.155952 -2.1148348 4
-4.3564553 -10.712563 -2.0682824 3
-3.9328401 -9.6708889 -2.0533535 3
-3.5537312 -8.738657 -2.0225646 3
-3.229177 -7.9405751 -1.9898939 4
-2.975004 -7.3155613 -1.9726901 5
-2.0988474 -5.1610847 -1.9166917 7
-1.5132477 -3.7210898 -1.8724834 10
-1.0797371 -2.6002955 0.7432192 4
-1.4262727 -3.4348462 0.71869546 14
-2.8332398 -6.8231988 1.0335896 1
-2.726325 -6.5657196 0.61722851 6
-3.0669281 -7.385983 0.41142952 21
-6.5140781 -15.687642 0.57328886 27
-5.8609214 -11.643016 0.36250564 46
-5.7076168 -17.16773 0.39665672 7
-7.8942685 -19.011509 0.32984933 6
-5.8664832 -11.654064 0.13208146 46
-9.056818 -27.241671 0.12125353 71
-10.372609 -24.980017 -0.044847261 39
-5.8720126 -11.665049 -0.098469153 45
-9.0586052 -27.247046 -0.38590372 55
-10.41516 -25.082491 -0.52527142 43
-5.8721075 -11.665237 -0.32966721 39
-4.6542811 -13.999441 -0.45924556 3
-5.3559704 -12.898608 -0.517739 3
-5.8523932 -11.626074 -0.55918664 52
-5.8402286 -14.064832 -0.83411318 0
-5.2636037 -10.456413 -0.70984793 15
-4.2143722 -12.676256 -0.88890696 23
-5.2737226 -12.700534 -0.9966079 1
-4.9254494 -9.7846537 -0.85828483 49
