# .PCD v0.7 - Point Cloud Data file format
VERSION 0.7
FIELDS x y z intensity
SIZE 4 4 4 4
TYPE F F F F
COUNT 1 1 1 1
WIDTH 1348
HEIGHT 1
VIEWPOINT 0 0 0 1 0 0 0
POINTS 1348
DATA ascii
0.82616675 -3.8050954 -1.8150245 9
0.6909517 -3.2930393 0.88818777 8
0.81777221 -3.8974593 0.76954293 3
1.6180096 -7.7113481 1.1023108 25
2.0834496 -9.9296103 0.88086534 13
2.433058 -11.595826 0.60954046 38
2.4332473 -11.596728 0.39991251 44
2.6135263 -19.381016 0.54386967 55
9.3552675 -32.604221 0.74368751 33
2.4334991 -11.597928 0.18988606 33
2.6133339 -19.379589 0.19796023 78
9.3662586 -32.642525 0.14343631 34
2.4321651 -11.591571 -0.019638086 41
2.6155317 -19.395885 -0.14756802 58
9.3809395 -32.693687 -0.45712847 32
2.4333563 -11.597248 -0.22918263 57
2.6121008 -19.370445 -0.49339047 53
9.3893747 -32.723083 -1.0597496 32
2.4337823 -11.599278 -0.43935204 63
2.6126614 -19.374601 -0.8398959 63
8.4758768 -29.539438 -1.5003279 7
2.4309893 -11.585966 -0.64839011 61
1.0319452 -7.6525517 -0.46822846 0
7.7924647 -27.157665 -1.8800634 1
2.4290836 -11.576885 -0.85725051 59
0.95447326 -7.0780463 -0.55958796 1
6.1232519 -21.340261 -1.8701546 1
1.6590714 -7.9070473 -0.72844326 2
0.93119651 -6.9054341 -0.66921777 4
2.1434796 -7.4702811 -0.7923004 3
1.4773462 -7.0409541 -0.77595878 26
1.4580338 -6.9489121 -0.89168012 22
1.4505651 -6.9133167 -1.0121292 2
1.4499565 -6.9104166 -1.1379249 49
1.4441081 -6.8825431 -1.2577298 4
1.4757131 -7.0331712 -1.4134175 2
1.5227708 -7.2574453 -1.5898767 3
1.6210543 -7.7258592 -1.8325113 3
1.4974035 -7.1365461 -1.8214667 4
1.085861 -5.1751561 -1.8191005 5
0.8018164 -3.8214147 -1.8200943 10
0.66794515 -3.2977829 0.88818777 6
1.5241729 -7.525156 1.4836849 15
1.562562 -7.7146912 1.1012024 28
2.0109129 -9.9282913 0.87948143 14
2.3504589 -11.6047 0.60912943 42
2.3490534 -11.59776 0.39937282 45
2.4776554 -19.394823 0.54375845 59
9.165082 -32.803539 0.74675626 39
2.3500893 -11.602875 0.18969381 31
2.4769657 -19.389423 0.19787924 61
9.1768904 -32.845802 0.14404453 42
2.3495936 -11.600429 -0.019624822 42
2.4775293 -19.393835 -0.14741722 58
9.1933632 -32.904762 -0.45917115 33
2.3483634 -11.594355 -0.2287959 57
2.4752905 -19.37631 -0.49308765 56
9.194046 -32.907204 -1.0636078 11
2.3503644 -11.604234 -0.4389075 64
2.4758229 -19.380478 -0.83938086 67
9.1725054 -32.830109 -1.6641703 32
2.3468733 -11.586997 -0.64751506 57
0.94358671 -7.3862958 -0.4515233 0
7.6391935 -27.342098 -1.8890932 1
2.3434508 -11.5701 -0.85551572 58
0.91362804 -7.1517825 -0.5648995 0
5.9891357 -21.436234 -1.8748552 1
1.6180648 -7.9887195 -0.73490876 2
2.0709298 -7.4122443 -0.78459239 2
1.4242077 -7.0316072 -0.77381402 23
1.4063344 -6.9433627 -0.88968641 20
1.3999076 -6.9116325 -1.0104271 1
1.4032453 -6.9281116 -1.1391978 29
1.3991504 -6.9078941 -1.2605467 14
1.4032027 -6.9279013 -1.3902593 3
1.4037435 -6.9305711 -1.5160849 5
1.5678517 -7.7408071 -1.8334159 3
1.4567893 -7.1924686 -1.8330994 4
1.0519577 -5.1937323 -1.8230041 5
0.77583808 -3.8304725 -1.8217844 9
0.64564729 -3.3061616 0.88920867 5
1.472353 -7.5394678 1.4844438 22
1.187495 -6.0807977 0.86677426 2
1.9377322 -9.922533 0.87775153 13
2.2647915 -11.597302 0.60789639 39
2.2649634 -11.598183 0.39883313 44
2.3402779 -19.395769 0.54331368 56
6.24681 -22.976221 0.52203673 6
2.2636626 -11.591521 0.18924521 28
2.3401043 -19.394331 0.19775777 58
15.523043 -57.094879 0.24990696 34
2.2662501 -11.604772 -0.019604925 40
2.3396785 -19.390802 -0.14726643 56
15.451473 -56.831642 -0.79153538 34
2.2627633 -11.586916 -0.2283318 57
2.338042 -19.377239 -0.49268392 50
12.535675 -46.107124 -1.4873831 33
2.262399 -11.585052 -0.43757388 58
2.3390253 -19.385387 -0.83886576 63
2.2628615 -11.58742 -0.64664006 59
0.86617041 -7.1786523 -0.43844971 2
7.4617429 -27.444832 -1.8925458 1
2.2595606 -11.570517 -0.85435927 53
0.85746688 -7.1065192 -0.56083775 0
5.8518906 -21.523678 -1.8788843 1
1.510331 -7.733942 -0.71048361 0
0.88572705 -7.3407345 -0.71013564 0
1.9899013 -7.3190017 -0.77323323 2
1.371272 -7.021863 -0.77166933 24
1.3563049 -6.9452209 -0.88868958 20
1.3493445 -6.9095793 -1.0087252 28
1.352573 -6.9261117 -1.1372886 29
1.35089 -6.9174938 -1.2605467 27
1.352546 -6.9259729 -1.3879435 24
1.3530759 -6.9286861 -1.5135692 3
1.5122787 -7.7439156 -1.8316069 3
1.3998464 -7.1681848 -1.8243749 4
1.014948 -5.197238 -1.821703 6
0.74421328 -3.8108881 -1.8099545 9
0.61897641 -3.2915838 0.88410413 7
1.1373422 -6.048142 1.1892247 5
1.1296399 -6.0071821 0.85513604 0
1.8647305 -9.9162359 0.87602162 14
2.1815572 -11.601052 0.60727984 38
2.1809826 -11.597998 0.39829344 42
2.2030077 -19.395742 0.54286891 54
6.0780759 -22.988342 0.5213353 8
2.1812053 -11.599181 0.18911703 28
2.2005868 -19.374428 0.19739336 52
14.930823 -56.470974 0.24671385 33
2.180743 -11.596723 -0.019565132 33
2.2028942 -19.394743 -0.14717595 56
14.873379 -56.253708 -0.78202081 35
2.1788599 -11.586709 -0.22802241 57
2.2045116 -19.408983 -0.49308765 44
14.814378 -56.030556 -1.8041257 25
2.1799877 -11.592707 -0.43727753 61
2.2000246 -19.369478 -0.83749229 99
9.9663 -37.694283 -1.9034972 0
2.1796966 -11.591159 -0.64598382 54
0.81423044 -7.1686559 -0.43748128 15
7.2740407 -27.511688 -1.8936081 0
2.1765163 -11.574246 -0.8534919 54
0.80558288 -7.0925207 -0.55927551 0
5.7330685 -21.683462 -1.8892927 1
1.4570374 -7.7482128 -0.71084285 3
0.8021037 -7.0618892 -0.68260211 0
1.9051894 -7.2057581 -0.75984567 2
1.3185418 -7.0117226 -0.76952463 36
1.3055847 -6.9428186 -0.88719428 20
1.3025372 -6.9266133 -1.0098598 27
1.3019973 -6.9237423 -1.1353793 25
1.3003809 -6.9151464 -1.2584341 27
1.3012593 -6.9198174 -1.3848557 22
1.3003347 -6.9149008 -1.508538 3
1.4624997 -7.7772598 -1.8370339 3
1.3555067 -7.2082934 -1.83213 4
0.97794074 -5.200479 -1.8204017 5
0.72295034 -3.8444948 -1.8234743 8
0.60011172 -3.3186595 0.89022958 6
0.85888195 -4.7496767 0.93271035 0
0.8888911 -4.9156299 0.69885063 2
1.7926226 -9.9133272 0.87463772 13
2.0969617 -11.596345 0.60625231 34
2.096406 -11.59327 0.39761883 40
2.06797 -19.414627 0.54298007 43
5.917439 -23.030214 0.5213353 11
2.0966187 -11.594447 0.18879661 26
2.0826437 -19.552387 0.19905348 12
14.369983 -55.926857 0.24389243 34
2.1011555 -11.619536 -0.019578395 32
2.1267514 -19.966482 -0.15139821 1
14.309093 -55.689877 -0.77277505 29
2.0936491 -11.578025 -0.22755833 55
2.8952699 -27.18153 -0.69001991 36
14.252714 -55.470459 -1.7828436 32
2.0961597 -11.591908 -0.43668482 57
2.091413 -19.634716 -0.84830862 19
2.0980139 -11.602163 -0.64576507 48
0.76331818 -7.1662245 -0.43699709 19
7.10464 -27.650709 -1.8997165 0
2.1041813 -11.63627 -0.85696137 16
0.75351387 -7.0741796 -0.55740082 0
5.6043639 -21.811749 -1.897015 1
1.3341478 -7.3779302 -0.67600113 0
0.74898738 -7.0316839 -0.67916042 0
1.8350313 -7.1417994 -0.75173199 4
1.2716832 -7.0324969 -0.77081144 13
1.255672 -6.9439535 -0.88619745 19
1.2527411 -6.9277453 -1.0087252 28
1.2543331 -6.9365497 -1.1360157 24
1.2513733 -6.9201813 -1.2577298 27
1.2515229 -6.9210086 -1.3833119 22
1.2513336 -6.9199619 -1.5076995 3
1.4088638 -7.7911148 -1.8379383 3
1.3023896 -7.2023058 -1.8282524 4
0.94363111 -5.2183456 -1.8243053 5
0.69480371 -3.8423128 -1.8200943 8
0.57097393 -3.2884736 0.88104147 6
0.70745659 -4.0745335 0.79914075 3
0.86268401 -4.9685516 0.70550108 3
1.722689 -9.9216747 0.87429172 16
2.0152695 -11.606766 0.6060468 29
2.0249929 -11.662767 0.39950773 15
2.0946317 -21.059908 0.58857131 10
5.74296 -23.016645 0.52010781 14
2.0512011 -11.81371 0.19212906 8
2.7022011 -27.16855 0.27639118 40
13.820378 -55.389339 0.24112169 33
2.0795166 -11.976791 -0.020155402 8
2.7014711 -27.161209 -0.20580506 34
13.763094 -55.159752 -0.76406682 30
2.0196097 -11.631763 -0.2283318 20
2.7002916 -27.149353 -0.68870771 44
13.710246 -54.947948 -1.7629305 26
2.0568941 -11.846498 -0.44572377 14
2.7006404 -27.152857 -1.1722832 54
13.795356 -55.289055 -2.7820044 1
2.0825567 -11.994301 -0.66676551 12
0.71129405 -7.1515136 -0.43578658 2
6.9230232 -27.746105 -1.9029036 0
2.1020622 -12.106641 -0.89049965 3
0.70371377 -7.0752997 -0.55708838 0
5.4509873 -21.846478 -1.8966793 1
1.2328572 -7.1005316 -0.64978004 0
0.70066684 -7.0446653 -0.6799252 0
1.7726036 -7.1042442 -0.74645811 8
1.2150725 -6.9981022 -0.76609308 5
1.2064846 -6.9486403 -0.88569903 21
1.2016363 -6.9207177 -1.0064558 27
1.2038496 -6.9334645 -1.1341064 25
1.2016836 -6.9209905 -1.2563213 26
1.2018318 -6.9218435 -1.381768 24
1.2036617 -6.9323826 -1.508538 3
1.35777 -7.8199553 -1.8424608 3
1.2520764 -7.2112226 -1.8282524 4
0.90782428 -5.2285333 -1.8256066 6
0.66734219 -3.843498 -1.8184044 9
0.55308211 -3.3229001 0.88920867 5
1.2580407 -7.5582685 1.4806492 16
0.84878922 -5.0994987 0.72323561 3
1.6514179 -9.9216671 0.87325376 17
1.9958427 -11.99096 0.62536466 9
2.0137541 -12.098572 0.41394454 3
1.9468238 -21.066053 0.58834893 7
5.581192 -23.052288 0.52002013 15
5.3163438 -31.940426 0.51883817 2
2.5139418 -27.202682 0.27655315 50
13.310049 -54.975189 0.23890848 35
7.8514032 -47.170982 -0.079288527 33
2.5095823 -27.15551 -0.2056241 39
13.325907 -55.040688 -0.76111031 28
2.014524 -12.103197 -0.2373042 4
2.5088544 -27.147633 -0.68820298 38
2.8092015 -11.602991 -0.37162799 0
7.8696508 -47.280617 -1.7768197 36
2.5088117 -27.147173 -1.1712531 42
9.3232384 -38.508259 -1.9343152 0
0.66392338 -7.1841354 -0.43748128 0
2.7959077 -11.548084 -0.79064113 0
2.1308107 -12.801844 -0.94051796 0
0.65870702 -7.1276903 -0.56083775 0
2.7912643 -11.528905 -0.99920648 14
1.1780233 -7.077527 -0.6469065 11
0.65293604 -7.0652442 -0.6814549 0
1.7164086 -7.0893722 -0.74361831 15
1.1563926 -6.9475703 -0.75965893 6
1.1566411 -6.9490638 -0.88470215 22
1.1539414 -6.9328437 -1.0070231 30
1.1541188 -6.9339094 -1.1328336 26
1.1507508 -6.9136748 -1.2535045 27
1.1521901 -6.9223218 -1.3802241 25
1.15074 -6.9136105 -1.5026681 3
1.3037831 -7.8330874 -1.8433653 3
1.2074366 -7.254241 -1.8369769 4
0.87067902 -5.2310123 -1.8243053 5
0.64346945 -3.8659444 -1.8268542 9
0.52865374 -3.3190413 0.88716686 7
1.2101854 -7.5978947 1.4867206 23
1.22754 -7.7068515 1.0917809 19
1.5833651 -9.9408245 0.87394577 13
2.5737383 -16.158674 0.84176594 32
3.7390053 -23.474558 0.80225366 9
1.7966464 -21.043276 0.5873481 5
5.4128156 -23.059544 0.5193187 15
5.0925989 -31.972811 0.51877409 1
2.3195467 -27.167761 0.27602676 58
2.7221162 -11.596693 0.050312527 22
7.4501696 -46.774323 -0.07853245 41
2.3209608 -27.184322 -0.20571458 40
2.7200668 -11.587962 -0.15997346 44
7.4959664 -47.061852 -0.92168081 39
2.3199475 -27.172455 -0.68840486 40
2.7135134 -11.560044 -0.36963668 29
7.4708447 -46.904129 -1.7606682 39
0.65340894 -7.6530724 -0.32998362 1
2.7134242 -11.559664 -0.57968986 23
7.4415431 -46.720165 -2.5911541 2
0.6117146 -7.1647263 -0.43602869 0
2.7061009 -11.528466 -0.78798532 20
1.2042478 -7.560617 -0.55482757 0
0.60689491 -7.1082749 -0.55896306 0
2.7107122 -11.54811 -0.99920648 37
1.1204379 -7.0344338 -0.64223695 11
0.60359544 -7.0696301 -0.6814549 0
1.6650565 -7.0934334 -0.74280697 12
1.1047335 -6.9358368 -0.75751418 1
1.1074752 -6.9530497 -0.88420373 21
1.1036445 -6.9289999 -1.0053211 32
1.1050618 -6.9378977 -1.1321971 26
1.103695 -6.9293165 -1.254913 29
1.1013658 -6.9146934 -1.3771363 21
1.1012156 -6.9137506 -1.5009911 3
1.249679 -7.8458462 -1.8442698 3
1.1579839 -7.2701583 -1.8389156 4
0.83592349 -5.2481699 -1.828209 6
0.61304283 -3.8488603 -1.8167144 9
0.50488871 -3.3188276 0.88614595 7
1.1577051 -7.6100407 1.4874794 24
1.1725163 -7.7074003 1.0906725 20
1.5103327 -9.9279976 0.87186986 14
2.4686809 -16.227589 0.84443754 21
3.2858348 -21.599054 0.73735553 6
1.6506298 -21.067265 0.58768171 2
2.6342721 -11.58543 0.2604923 53
4.2003846 -27.610743 0.44751075 4
2.1379466 -27.286972 0.27707952 17
2.6348817 -11.588112 0.050194263 57
7.059082 -46.402061 -0.077822797 34
3.3568058 -42.843475 -0.32402837 46
2.6355541 -11.591069 -0.15975845 44
7.0974693 -46.654396 -0.91270846 45
3.3458371 -42.70348 -1.08126 39
2.6300838 -11.56701 -0.36926329 46
7.0770912 -46.520443 -1.7443684 40
0.58903903 -7.5180039 -0.32397455 1
2.6308849 -11.570534 -0.57929981 52
5.7167916 -37.578671 -2.0818923 0
0.56261605 -7.1807632 -0.436755 0
2.628206 -11.558752 -0.78878206 58
1.1100359 -7.2966924 -0.53487802 0
0.55694348 -7.1083636 -0.55865061 0
2.6273739 -11.555092 -0.99819922 47
1.0557244 -6.939682 -0.63289797 14
0.55204833 -7.0458851 -0.67877799 0
1.6128476 -7.0932436 -0.7415899 13
1.0544925 -6.9315848 -0.75622737 0
1.0577146 -6.9527645 -0.8832069 27
1.0540546 -6.9287062 -1.0041864 30
1.0566007 -6.9454427 -1.1321971 26
1.0523329 -6.9173889 -1.2513919 30
1.0530668 -6.9222136 -1.3771363 19
1.0505704 -6.9058032 -1.4976369 3
1.1966339 -7.8659353 -1.8469833 3
1.1066184 -7.2742281 -1.8379462 4
0.79983401 -5.2576165 -1.8295102 6
0.58833975 -3.8673832 -1.8234743 9
0.48170662 -3.3222716 0.88614595 0
1.1039852 -7.6140509 1.4867206 26
1.1181115 -7.7114782 1.0901183 19
1.4381263 -9.918581 0.87013996 14
2.3564773 -16.252335 0.84484857 22
3.1320965 -21.601686 0.73668092 7
1.5052192 -21.102205 0.58834893 1
2.5507481 -11.591823 0.26022926 53
2.8132432 -19.402594 0.31414831 13
2.0598054 -28.877146 0.29307345 18
2.549619 -11.586691 0.050109793 56
2.8101566 -19.381306 -0.032471485 46
3.0308688 -42.490829 -0.32119343 40
2.548552 -11.581842 -0.15938216 42
6.7159228 -46.318897 -0.90520567 39
3.022877 -42.378792 -1.0724783 41
2.546689 -11.573376 -0.36888993 49
2.8133938 -19.403633 -0.72682017 19
0.53028375 -7.434237 -0.32019743 1
2.5466089 -11.573012 -0.57851958 53
2.8053818 -19.348375 -1.0708061 12
0.51105082 -7.1646032 -0.43554446 0
2.5440159 -11.561228 -0.78771973 59
1.0355971 -7.1423864 -0.52302396 3
0.50588554 -7.0921898 -0.55708838 0
2.5440702 -11.561476 -0.99719197 49
1.0038207 -6.9232283 -0.63074279 16
0.50397849 -7.065454 -0.68030763 0
1.5573019 -7.0771265 -0.7387501 15
1.0112112 -6.9741998 -0.76008785 0
1.0085797 -6.9560513 -0.88270849 24
1.0045211 -6.9280596 -1.0030518 31
1.00582 -6.9370174 -1.1296514 27
1.0057099 -6.9362578 -1.2535045 31
1.0030255 -6.9177442 -1.3748206 17
1.0034556 -6.920711 -1.4993141 3
1.1416903 -7.8740978 -1.8469833 3
1.0585921 -7.3009801 -1.8427931 4
0.76202393 -5.2555857 -1.8269078 5
0.55976528 -3.8606327 -1.8184044 9
0.30502903 -2.2067125 0.58804154 10
1.050236 -7.5978632 1.482167 38
1.0609757 -7.6755586 1.084022 1
1.3728576 -9.9318485 0.87048596 13
2.2913001 -16.57626 0.86087829 18
2.6811252 -19.396423 0.6608541 51
1.3618809 -21.059851 0.58690333 15
2.4704778 -11.592839 0.25987855 49
2.6779263 -19.373283 0.31337929 45
1.853533 -28.662661 0.29076546 11
2.4685483 -11.583786 0.050025318 52
2.6782665 -19.375742 -0.032431692 48
2.7286096 -42.194664 -0.31881085 43
2.465013 -11.567196 -0.15895213 41
2.6788645 -19.38007 -0.37838727 60
2.7205927 -42.070694 -1.0642012 34
2.466542 -11.57437 -0.36839211 45
2.6791685 -19.382269 -0.72533834 66
0.47503638 -7.3458662 -0.31624863 1
2.4648011 -11.566202 -0.57734931 54
2.6753557 -19.354685 -1.0701499 58
0.46275061 -7.1558824 -0.43481815 0
2.4656186 -11.570038 -0.78718859 63
0.98438013 -7.1214333 -0.52100015 17
0.45755202 -7.0754919 -0.5555262 0
2.4656739 -11.570297 -0.99652046 50
0.9567908 -6.9218402 -0.63002443 16
0.45531037 -7.0408273 -0.67763078 0
1.5070124 -7.0717306 -0.73712736 16
0.97146869 -7.0280266 -0.76523519 0
0.9607929 -6.9507933 -0.88121319 26
0.95746595 -6.9267244 -1.0019171 32
0.95924896 -6.9396238 -1.129015 27
0.95591056 -6.915472 -1.248575 31
0.95658565 -6.9203563 -1.3740486 17
0.95646244 -6.9194651 -1.4976369 2
1.0899755 -7.8853564 -1.8478878 3
1.009084 -7.3001518 -1.8408544 4
0.72766864 -5.2642713 -1.828209 8
0.53712672 -3.8858082 -1.8285443 9
0.29715791 -2.2663088 0.60335517 5
0.99818838 -7.6127982 1.4836849 38
0.74779797 -5.703167 0.80470347 0
1.2983059 -9.901679 0.86702615 21
2.0763257 -15.835336 0.82162601 8
2.5425289 -19.390888 0.66004455 49
1.1565901 -20.058914 0.55877024 7
2.3870685 -11.598053 0.25961551 49
2.5426099 -19.391506 0.31337929 41
1.6400306 -28.443296 0.28841698 9
2.3860083 -11.592902 0.049991526 54
2.5424128 -19.390003 -0.032425061 40
2.4160092 -41.901211 -0.31645846 40
2.3817825 -11.572371 -0.15879086 39
2.5393412 -19.366577 -0.37776849 65
2.4079425 -41.761311 -1.0559243 37
2.3824563 -11.575644 -0.36789429 47
2.5432694 -19.396538 -0.72519016 74
0.42144057 -7.3091068 -0.31453174 3
2.3815804 -11.571387 -0.57676411 52
2.5391307 -19.364971 -1.0697124 54
0.41462058 -7.1908264 -0.436755 0
2.3815689 -11.571333 -0.78612626 54
0.93308306 -7.1162653 -0.52013278 8
0.40837419 -7.0824947 -0.55583864 0
2.3800197 -11.563805 -0.99450594 44
0.90792596 -6.9244018 -0.6296652 1
0.40637425 -7.0478096 -0.67801321 0
1.4527942 -7.0586934 -0.73469329 16
0.92134607 -7.0267515 -0.7643773 0
0.91069579 -6.9455261 -0.87971795 27
0.90908486 -6.9332399 -1.0019171 30
0.91077781 -6.9461517 -1.129015 26
0.90914381 -6.9336896 -1.2506876 33
0.90926963 -6.934649 -1.3755925 17
0.90609819 -6.9104619 -1.4942827 2
1.0338856 -7.8850474 -1.8460788 3
0.96011269 -7.3224096 -1.8447319 4
0.69286627 -5.284224 -1.8334138 6
0.50951421 -3.8858685 -1.8268542 8
0.27466509 -2.2145946 0.58906245 25
0.94550192 -7.6234789 1.4844438 37
0.94785464 -7.6424489 1.0773716 12
0.93142682 -7.5099931 0.65701622 2
1.9613024 -15.813767 0.81977642 10
2.4061136 -19.40023 0.65977466 59
1.0260321 -20.254187 0.56399655 5
2.3037043 -11.602668 0.25935248 48
2.4047132 -19.388941 0.31305885 36
1.4294796 -28.218367 0.28602803 10
2.3019006 -11.593583 0.049923949 53
2.4060032 -19.399342 -0.032411795 42
2.1066284 -41.585491 -0.31395525 41
2.2985973 -11.576946 -0.1586296 41
2.4050643 -19.391771 -0.37792316 60
2.1009598 -41.473591 -1.0482529 37
2.2984707 -11.576309 -0.36739644 49
2.4058309 -19.397951 -0.72459745 65
0.36979654 -7.2998972 -0.31401667 5
2.2984047 -11.575975 -0.57617897 53
2.403389 -19.378263 -1.0694937 9
0.36259103 -7.1576581 -0.43457606 0
2.2983961 -11.575933 -0.78532946 60
0.36113837 -7.1289825 -0.55927551 0
2.2976785 -11.572319 -0.99383444 43
0.35716134 -7.0504746 -0.67801321 0
1.399605 -7.0491481 -0.73266488 18
0.87080085 -7.021172 -0.76309043 0
0.86169791 -6.9477763 -0.87921953 33
0.86017388 -6.9354882 -1.0013498 31
0.86129194 -6.9445028 -1.1277422 25
0.86023241 -6.9359598 -1.2499834 35
0.86035305 -6.936933 -1.3748206 16
0.85831511 -6.9205012 -1.4951214 2
0.9788143 -7.8920732 -1.8460788 3
0.90897101 -7.3289342 -1.8447319 4
0.65595984 -5.2889328 -1.8334138 6
0.48192802 -3.8857331 -1.8251643 9
0.26009604 -2.2241406 0.59110427 5
0.89316934 -7.6376953 1.4859617 29
0.9018392 -7.711833 1.0862389 20
0.9025805 -7.7181726 0.67466122 3
1.8476057 -15.799299 0.81833786 13
2.2701514 -19.412584 0.65963978 44
0.86716515 -19.861393 0.55287671 0
2.220392 -11.606685 0.25908944 50
2.2679007 -19.393337 0.3128666 40
1.2343626 -28.271616 0.28647342 25
2.2194026 -11.601513 0.049890161 53
2.2667949 -19.383883 -0.03235874 42
1.8019489 -41.271507 -0.31148222 46
2.2154646 -11.580927 -0.15846834 40
2.2668386 -19.384254 -0.37745908 62
1.7974144 -41.167652 -1.0401777 37
2.2130892 -11.568511 -0.36664972 47
2.2670991 -19.386482 -0.72356021 63
0.31708148 -7.2623758 -0.31229982 12
2.2152808 -11.579967 -0.57559383 52
0.86657953 -7.4103198 -0.40863451 0
0.31278646 -7.1640038 -0.43481815 0
2.2137752 -11.572096 -0.78400159 54
0.83409792 -7.1325622 -0.52042186 0
0.31031623 -7.1074262 -0.55740082 0
1.5675102 -8.1938677 -0.70273495 0
0.83244407 -7.1184196 -0.64618808 0
0.30758369 -7.0448408 -0.67724836 3
1.3458722 -7.035296 -0.73023075 20
0.82083875 -7.0191798 -0.7622326 0
0.81225032 -6.9457383 -0.87822264 26
0.81127423 -6.9373918 -1.0007824 31
0.81187183 -6.942502 -1.1264694 26
0.81087464 -6.9339747 -1.248575 37
0.81099147 -6.9349737 -1.3732767 16
0.80861717 -6.9146705 -1.4926057 2
0.92550367 -7.9141936 -1.8496968 3
0.8568818 -7.3273921 -1.8427931 4
0.61902016 -5.2933831 -1.8334138 6
0.45647314 -3.9034064 -1.8319241 9
0.24589054 -2.2452102 0.59620881 4
0.83373785 -7.6128054 1.4798903 44
0.84442192 -7.710361 1.0851305 16
1.0858903 -9.9151926 0.86598819 13
1.7278277 -15.77668 0.81648827 16
2.1256132 -19.408834 0.65896517 47
0.56685364 -15.607672 0.43433958 2
2.1330836 -11.610849 0.2588264 48
2.1243737 -19.397514 0.31267434 24
1.0223047 -28.147997 0.28513724 19
2.1306863 -11.597799 0.049805686 53
2.1520777 -19.650478 -0.032776568 5
1.4889231 -40.995808 -0.30931076 41
2.1276219 -11.58112 -0.15825331 41
2.1229427 -19.384449 -0.3771497 99
1.4841371 -40.864029 -1.0322036 33
2.125339 -11.568694 -0.3661519 48
2.1257989 -19.410528 -0.72385657 46
0.26456416 -7.2844739 -0.31315824 10
2.1274486 -11.580177 -0.5748136 53
0.78875595 -7.2020783 -0.39682174 1
0.26055494 -7.1740847 -0.43530238 0
2.1238401 -11.560534 -0.78214246 57
0.77961963 -7.1186552 -0.51897627 0
0.25820965 -7.1095099 -0.55740082 1
2.1246262 -11.564814 -0.99047685 9
0.7728681 -7.0570073 -0.64008182 0
0.25564691 -7.0389481 -0.67648351 4
1.293546 -7.0410585 -0.72982508 23
0.76893067 -7.0210552 -0.76180363 0
0.76001757 -6.9396706 -0.8767274 30
0.75953674 -6.9352803 -0.99964774 29
0.76095903 -6.948267 -1.1264694 26
0.76002437 -6.9397326 -1.248575 38
0.75927931 -6.932929 -1.3717328 16
0.75748265 -6.9165244 -1.4917672 2
0.86958587 -7.9401312 -1.8542193 3
0.80441386 -7.3450499 -1.8457012 4
0.58020115 -5.2977786 -1.8334138 7
0.42705816 -3.8994401 -1.8285443 9
0.33703694 -3.2895131 0.8728742 7
0.78057015 -7.6184406 1.4798903 38
0.78976536 -7.7081866 1.084022 19
1.0125811 -9.8828897 0.86252838 7
1.6127577 -15.740671 0.81402218 13
2.2153907 -21.622429 0.73357773 8
0.48108816 -16.402603 0.45635682 0
2.0491948 -11.609705 0.25847569 49
2.7846253 -27.178213 0.43776971 33
0.81873387 -27.914564 0.28270778 15
2.0475833 -11.600574 0.049755 41
2.7829404 -27.161768 -0.045271724 35
1.1938871 -40.705338 -0.30704883 51
2.0620162 -11.682343 -0.15943591 11
2.782016 -27.152748 -0.52790129 52
1.1907272 -40.597603 -1.0252388 34
2.0883069 -11.831293 -0.37399265 11
2.7834785 -27.167021 -1.012362 45
0.21346818 -7.2781539 -0.31281486 9
2.0465548 -11.594747 -0.5748136 35
0.73601425 -7.1835704 -0.39550921 12
0.21011287 -7.1637554 -0.43457606 0
2.071527 -11.736227 -0.79303139 14
0.7290898 -7.1159873 -0.51839805 0
0.20856963 -7.1111393 -0.55740082 1
2.0632389 -11.68927 -0.99987799 1
0.72480023 -7.074121 -0.64115942 0
0.20719996 -7.0644407 -0.67877799 3
1.2429768 -7.0420799 -0.72901368 6
0.71949041 -7.0222964 -0.76137471 0
0.71195555 -6.9487553 -0.87722582 23
0.71110088 -6.940414 -0.99964774 30
0.71202993 -6.9494815 -1.1258329 27
0.71035337 -6.9331183 -1.2464623 39
0.71085984 -6.9380608 -1.3717328 17
0.7087791 -6.9177527 -1.4909286 2
0.81572074 -7.9615135 -1.8578373 3
0.7543028 -7.3620682 -1.8486094 4
0.54320157 -5.3017001 -1.8334138 6
0.40019405 -3.9059329 -1.8302342 9
0.31406358 -3.291786 0.8728742 1
0.72736436 -7.623704 1.4798903 23
0.73480409 -7.7016821 1.0823594 15
0.94734567 -9.929388 0.86598819 13
1.5001719 -15.72371 0.81258363 18
2.062865 -21.621449 0.73303801 7
0.45892039 -20.538933 0.57133561 29
2.0034769 -11.832704 0.26312265 13
2.593678 -27.185045 0.43757746 35
0.61793649 -27.65568 0.28003538 13
2.0339897 -12.012914 0.051461369 13
2.591728 -27.164606 -0.045245197 35
0.82381499 -36.869751 -0.27806604 48
2.0478458 -12.09475 -0.16486512 1
2.5920064 -27.167526 -0.52782393 56
0.8210749 -36.74712 -0.92783248 42
8.0046101 -47.275902 -1.4926103 35
2.5933692 -27.18181 -1.0122137 53
0.16274115 -7.2834625 -0.31298655 9
2.0382578 -12.038122 -0.5960741 10
0.68546617 -7.1845574 -0.39529046 17
0.16045207 -7.181015 -0.43554446 0
0.68090874 -7.1367898 -0.5195545 0
0.15954301 -7.1403298 -0.55958796 1
1.2130369 -7.1642976 -0.61208111 0
0.67388242 -7.0631452 -0.63972265 0
0.157609 -7.0537734 -0.67763078 3
1.1705323 -6.9132624 -0.71481478 33
0.66969252 -7.0192299 -0.76051682 1
0.66229588 -6.9417033 -0.87573051 25
0.66187817 -6.9373255 -0.9985131 32
0.66349608 -6.9542828 -1.1258329 27
0.66193378 -6.9379082 -1.2464623 43
0.6620329 -6.9389472 -1.3709608 17
0.66120976 -6.9303193 -1.4926057 2
0.75937885 -7.9592566 -1.8560283 3
0.70509899 -7.3903346 -1.8544257 4
0.50689399 -5.3128939 -1.8360163 6
0.37222707 -3.9014132 -1.8268542 9
0.19234827 -2.1766696 0.57681161 6
0.67239642 -7.6090355 1.4760957 35
0.53107715 -6.0098252 0.84405196 1
0.87695235 -9.9238501 0.8649503 10
1.388257 -15.709925 0.81135058 17
1.910114 -21.615412 0.7323634 9
0.21886235 -14.248809 0.39630985 1
2.4024258 -27.186556 0.43732113 34
0.4213469 -27.431356 0.2777274 12
7.6504869 -47.183357 0.20189211 44
2.4002659 -27.162115 -0.045212034 36
0.56252539 -36.622635 -0.27616602 45
7.624258 -47.021595 -0.64021635 33
2.4015806 -27.176992 -0.52766925 84
0.56027418 -36.476074 -0.92086768 41
7.5994983 -46.868889 -1.4780489 36
2.4003811 -27.163418 -1.0108801 59
0.11176629 -7.2764292 -0.31264317 9
0.63564503 -7.1931462 -0.39550921 18
0.11043787 -7.1899443 -0.43602869 0
2.1674521 -13.367472 -0.90112376 0
0.63352787 -7.1691875 -0.52157837 0
0.10944524 -7.12532 -0.55833817 1
1.1489561 -7.0860329 -0.60469455 7
0.62736303 -7.0994244 -0.64259619 0
1.1133233 -6.8662729 -0.70913523 36
0.61997426 -7.015811 -0.75965893 2
0.61451787 -6.9540648 -0.8767274 26
0.61378056 -6.9457211 -0.99908042 31
0.61527908 -6.9626794 -1.1264694 26
0.61313701 -6.9384384 -1.2457581 44
0.61392093 -6.9473095 -1.3717328 16
0.61109114 -6.915287 -1.488413 2
0.70551103 -7.9837704 -1.8605508 3
0.65383083 -7.398942 -1.8553951 4
0.47012481 -5.3200707 -1.8373175 6
0.34562019 -3.9111397 -1.8302342 9
0.16993625 -2.0892992 0.55333078 4
0.61798543 -7.5978866 1.47306 25
0.4910346 -6.0370765 0.84737718 2
0.80668032 -9.9178162 0.86391234 12
1.2769279 -15.699326 0.810323 18
1.7588394 -21.624235 0.73222846 7
0.11877865 -14.17802 0.3943083 9
4.0822177 -26.339127 0.58437604 2
2.2106237 -27.178745 0.43693662 29
0.21857104 -26.089746 0.26412243 0
7.2522845 -46.792908 0.1999999 30
2.2216055 -27.313763 -0.04543753 5
0.29564562 -35.289757 -0.2660929 36
7.228416 -46.638905 -0.63430339 37
2.2072518 -27.137291 -0.52658635 84
0.29562685 -35.287518 -0.89078784 32
7.2029128 -46.474354 -1.4639852 31
2.2093899 -27.163576 -1.0102874 27
0.061064944 -7.2890205 -0.31315824 9
6.6024466 -42.600048 -2.1045942 0
0.58541197 -7.1974087 -0.39550921 4
0.060306799 -7.198525 -0.43651289 0
2.0649078 -13.323117 -0.89714003 1
0.58184493 -7.153554 -0.52013278 0
0.059498016 -7.1019845 -0.55646348 0
1.093964 -7.0584316 -0.60167271 22
0.57390881 -7.0559821 -0.63828588 0
0.059273575 -7.0751939 -0.67954284 0
1.0702363 -6.9053373 -0.71238065 23
0.57033473 -7.0120406 -0.75880104 4
0.56498909 -6.9463181 -0.8752321 24
0.56495434 -6.9458904 -0.9985131 31
0.56505471 -6.9471245 -1.1232872 31
0.5646826 -6.9425497 -1.2457581 47
0.56476825 -6.943603 -1.370189 17
0.5624814 -6.9154863 -1.4875745 2
0.64849311 -7.9729667 -1.8569328 3
0.60247517 -7.4071946 -1.8563645 4
0.43389216 -5.3345327 -1.8412212 5
0.31830686 -3.9134572 -1.8302342 9
0.15276653 -2.0557227 0.5441426 4
0.56463611 -7.5980997 1.4723011 16
0.44916949 -6.0443082 0.84793139 3
0.73712593 -9.9192314 0.86356634 8
1.1687752 -15.727777 0.81135058 17
1.6054609 -21.604095 0.73114908 5
0.03024398 -21.659605 0.60235983 2
4.1245861 -27.897972 0.61830753 3
2.534184 -34.101578 0.5479331 6
0.034185983 -24.482721 0.24784507 2
6.631753 -44.856007 0.19151874 2
3.1635377 -42.57056 -0.070779353 36
0.049322546 -35.32296 -0.26633418 41
6.8447275 -46.296528 -0.62898165 76
3.1783619 -42.770042 -0.82948178 92
0.049358495 -35.348705 -0.89230192 36
2.8622975 -19.360075 -0.60921597 21
3.1711459 -42.672943 -1.5862609 44
0.010178233 -7.2892694 -0.31315824 14
6.3340974 -42.842716 -2.1143467 0
0.53367031 -7.1814046 -0.39441544 1
0.010023992 -7.1788077 -0.43530238 0
1.1236829 -7.6003923 -0.51124763 0
0.52745467 -7.0977631 -0.51579589 0
0.0099170599 -7.1022272 -0.55646348 0
1.0434942 -7.0580111 -0.6010012 2
0.52581578 -7.0757089 -0.63972265 0
0.011875595 -8.5048561 -0.81682807 1
1.019092 -6.8929577 -0.71035224 14
0.52166235 -7.0198178 -0.75922996 8
0.51677501 -6.954051 -0.87573051 23
0.51615572 -6.9457169 -0.99794573 30
0.51595557 -6.9430237 -1.1220144 33
0.5159089 -6.9423962 -1.2450539 49
0.51598817 -6.9434624 -1.369417 17
0.51360881 -6.9114442 -1.4858973 2
0.59339309 -7.9850717 -1.8587418 3
0.5501734 -7.4034801 -1.8544257 4
0.39663956 -5.3374319 -1.8412212 4
0.28963464 -3.8975065 -1.8217844 9
0.13867082 -2.0605977 0.54516351 3
0.50946802 -7.5705085 1.4662298 11
0.40642932 -6.039391 0.84682298 7
0.66839379 -9.9320879 0.86425829 7
1.0543864 -15.667795 0.80785692 26
1.4537915 -21.60281 0.7307443 4
-0.082291283 -14.734074 0.40976483 4
2.7282965 -19.388273 0.42927307 15
1.9286807 -28.659491 0.46026382 10
-0.12601379 -22.56249 0.22840941 7
2.7283702 -19.388798 0.082699738 38
2.8442388 -42.264347 -0.070235506 44
-0.19743578 -35.350441 -0.2665453 30
2.7248044 -19.363457 -0.26280588 69
2.8579428 -42.467983 -0.82321662 49
-0.19769119 -35.396172 -0.8935132 34
2.7242882 -19.359789 -0.6085937 52
2.850342 -42.355038 -1.5736656 28
-0.04062143 -7.2731776 -0.31247148 21
2.7240357 -19.357994 -0.95438176 21
0.48432624 -7.1969109 -0.39507172 0
-0.040071476 -7.1747098 -0.43506026 0
1.0350027 -7.3551083 -0.4942503 0
0.48030099 -7.1370974 -0.51839805 0
-0.039799701 -7.1260495 -0.55833817 0
0.996418 -7.0809116 -0.60234421 0
0.47801015 -7.103056 -0.64187777 0
-0.039249588 -7.0275526 -0.67495388 0
0.97649199 -6.9393096 -0.71440911 3
0.47184098 -7.0113845 -0.75794315 15
0.46794754 -6.9535294 -0.8752321 22
0.46738702 -6.9452004 -0.99737841 29
0.46773672 -6.9503965 -1.1226507 26
0.4671649 -6.9418993 -1.2443497 49
0.46802813 -6.9547272 -1.3709608 17
0.46587053 -6.9226661 -1.4875745 2
0.53789389 -7.9929066 -1.8596462 3
0.4987345 -7.4110122 -1.8553951 4
0.35936758 -5.3400712 -1.8412212 4
0.26460874 -3.9319892 -1.8369941 8
0.12754059 -2.1155627 0.55945623 4
0.38499483 -6.3860512 1.2362776 0
0.3640196 -6.0381274 0.84626877 8
0.51438856 -8.5323534 0.74212736 0
0.94402099 -15.658824 0.80703485 22
1.2348629 -20.483128 0.69256103 6
-0.1629945 -12.969961 0.36072648 2
2.5907557 -19.390995 0.42892236 53
1.4816225 -24.57622 0.39451185 2
-0.40139043 -31.939838 0.32336068 3
2.5902958 -19.387552 0.082615264 56
2.528177 -41.935802 -0.069658503 47
-0.44583204 -35.476189 -0.26751038 30
2.590085 -19.385973 -0.26285961 49
2.5407035 -42.143585 -0.81656468 52
-0.44700915 -35.569859 -0.89795452 29
2.5880058 -19.370413 -0.60834479 53
0.46930343 -7.7845092 -0.28909808 0
-0.091698103 -7.2966924 -0.31350163 9
2.5856502 -19.352781 -0.95321149 56
0.43479329 -7.2120767 -0.39572796 0
-0.090159424 -7.1742554 -0.43506026 0
0.95667309 -7.160398 -0.48070556 1
0.43142498 -7.1562057 -0.5195545 0
-0.089197166 -7.0976853 -0.55615109 0
0.94854313 -7.0995479 -0.60335153 0
0.42841151 -7.1062198 -0.64187777 0
-0.088810541 -7.0669203 -0.67877799 0
0.42240381 -7.006568 -0.75708526 33
0.4191542 -6.9526653 -0.87473369 24
0.41936719 -6.9561982 -0.9985131 29
0.41920406 -6.9534926 -1.1226507 26
0.41845462 -6.9410615 -1.2436454 53
0.41899288 -6.9499898 -1.369417 16
0.41682541 -6.9140372 -1.4850588 2
0.4832541 -8.015914 -1.8641688 3
0.44745255 -7.4220605 -1.8573338 4
0.32230699 -5.3462248 -1.8425224 4
0.23737094 -3.9373593 -1.838684 9
0.11379697 -2.1357119 0.56456071 4
0.14564793 -2.7334824 0.52896595 1
0.32122433 -6.0286546 0.84460616 12
0.31401965 -5.8934388 0.51239651 1
0.83595407 -15.688969 0.80826789 24
1.1073614 -20.782671 0.70241046 7
-0.25283453 -12.932528 0.35972571 2
2.4538124 -19.396706 0.42865932 54
1.3083096 -24.554014 0.39399916 5
-0.40209091 -20.567017 0.20824492 0
2.4533761 -19.393255 0.082564577 62
2.2193861 -41.652859 -0.06916108 42
-0.69880819 -35.744156 -0.2695612 16
2.4511683 -19.375805 -0.26248333 43
2.2296135 -41.844807 -0.81045413 47
-0.70040321 -35.825741 -0.90451556 8
2.4512064 -19.376106 -0.60797143 56
0.41473323 -7.7836051 -0.28894991 0
-0.14310507 -7.3198485 -0.31453174 12
2.4484737 -19.354504 -0.95243126 61
0.3829453 -7.1870179 -0.39419669 0
-0.14055514 -7.1894188 -0.43602869 0
0.9011507 -7.1233463 -0.47778416 16
0.37996882 -7.131156 -0.51753062 0
-0.13936976 -7.1287861 -0.55865061 0
0.89945608 -7.109951 -0.60368729 0
0.37582272 -7.0533428 -0.63684911 0
-0.13752216 -7.0342813 -0.67571872 0
0.90348107 -7.141767 -0.73388189 0
0.37432486 -7.0252314 -0.75880104 34
0.37018287 -6.9474955 -0.87373686 24
0.37037221 -6.9510493 -0.99737841 30
0.37085944 -6.9601936 -1.1232872 29
0.36977717 -6.9398818 -1.2429413 55
0.37067145 -6.956665 -1.370189 18
0.36833808 -6.9128733 -1.4842203 2
0.42810991 -8.0346556 -1.8677868 3
0.39583239 -7.4288793 -1.8583032 4
0.28517672 -5.3521223 -1.8438236 5
0.2089127 -3.920819 -1.8302342 9
0.1041339 -2.2330031 0.59008336 7
0.35217696 -7.5519328 1.4609174 13
0.28049538 -6.0148239 0.84238935 17
0.27325508 -5.8595653 0.50928271 9
0.72890466 -15.630322 0.8049798 21
0.93951792 -20.146622 0.68068779 25
-0.56907493 -21.732145 0.6045838 7
2.3222651 -19.388729 0.42813325 49
1.1454318 -24.562151 0.39399916 11
-0.60685384 -23.174868 0.23468551 3
2.3223269 -19.389244 0.08248011 59
1.9283634 -41.351006 -0.068637133 40
-0.85616922 -32.695862 -0.24661019 8
2.3221381 -19.387667 -0.26242959 41
1.9378793 -41.555058 -0.80457568 50
-0.85456014 -32.634415 -0.82406706 27
2.3207476 -19.376059 -0.60747361 50
0.36477691 -7.8221207 -0.29028353 1
-0.19175206 -7.3227329 -0.31470343 8
2.3186345 -19.358418 -0.95184612 54
0.3356427 -7.1973786 -0.39463419 0
-0.18823256 -7.1883287 -0.43602869 0
0.85483795 -7.1370921 -0.47831532 15
0.33359388 -7.1534452 -0.51897627 0
-0.18706264 -7.143651 -0.5599004 0
0.84801674 -7.0801415 -0.60066545 0
0.32959145 -7.0676188 -0.63792664 0
-0.18333696 -7.0013723 -0.67265946 0
0.86792773 -7.2463799 -0.74402398 0
0.32772332 -7.0275593 -0.75880104 45
0.32409701 -6.9497981 -0.87373686 25
0.32426277 -6.9533529 -0.99737841 29
0.32432142 -6.9546103 -1.1220144 34
0.32392526 -6.946115 -1.2436454 56
0.32415909 -6.9511294 -1.3686451 15
0.32302845 -6.9268847 -1.4867359 2
0.37463096 -8.0334272 -1.8668822 3
0.34637251 -7.4274645 -1.8573338 4
0.24949747 -5.3501177 -1.8425224 6
0.18391746 -3.9438477 -1.840374 9
0.089584447 -2.2800806 0.60233426 26
0.29665497 -7.5503874 1.4601585 26
0.23639706 -6.0167179 0.84238935 10
0.22137737 -5.6344409 0.48956186 8
0.61399561 -15.627261 0.80456877 24
0.85066688 -21.650959 0.73128402 1
2.1791835 -19.397282 0.42795789 54
0.9653517 -24.569887 0.39399916 19
-0.73075235 -21.798637 0.22079712 0
2.1787946 -19.39382 0.082429424 61
1.612945 -41.052269 -0.068119816 36
-1.0896538 -32.504818 -0.24522288 31
2.1786175 -19.392244 -0.2622683 49
1.6208102 -41.252449 -0.79846519 52
-1.0867923 -32.419456 -0.81881821 26
2.179991 -19.404469 -0.60784698 31
0.30805591 -7.8405609 -0.29087624 1
-0.24542512 -7.3211303 -0.31470343 5
2.1762223 -19.370924 -0.95165104 42
0.28271753 -7.1956549 -0.39441544 0
-0.24145555 -7.2027168 -0.43699709 0
0.8002696 -7.1233354 -0.47698739 1
0.28020784 -7.1317792 -0.51724154 0
-0.23902227 -7.1301308 -0.55896306 0
0.79564899 -7.0822067 -0.6003297 0
0.27777445 -7.0698447 -0.63792664 2
-0.28601441 -8.5319262 -0.81988734 0
0.79079551 -7.0390048 -0.72211707 0
0.27620003 -7.0297728 -0.75880104 62
0.2732996 -6.9559522 -0.87423527 27
0.27343896 -6.9594994 -0.99794573 30
0.27379805 -6.9686384 -1.1239237 27
0.27330822 -6.9561715 -1.2450539 71
0.27350432 -6.9611621 -1.370189 16
0.27193615 -6.9212503 -1.4850588 2
0.31542706 -8.0281696 -1.8650732 3
0.29237431 -7.4414372 -1.860242 4
0.21012402 -5.3480229 -1.8412212 5
0.15486038 -3.9414668 -1.838684 9
0.080140106 -2.4545705 0.64827502 4
0.24567688 -7.5247116 1.454846 36
0.19674727 -6.026072 0.84349775 10
0.18387462 -5.6318021 0.48921588 19
0.51021111 -15.626997 0.80436325 22
0.53120679 -16.270063 0.54940748 18
-0.7044428 -17.539072 0.48815945 11
2.0509076 -19.415285 0.42804557 44
0.80185992 -24.559759 0.3937428 30
-0.93052953 -23.168131 0.234726 22
2.0854177 -19.741982 0.083848581 8
1.3316429 -40.786213 -0.067662194 35
-1.2987901 -32.337006 -0.24401651 34
2.8701048 -27.170364 -0.36719716 31
1.3371379 -40.954514 -0.79250938 53
-1.300339 -32.375572 -0.81790978 25
2.8677142 -27.147734 -0.84979099 34
0.25552845 -7.8264508 -0.29028353 1
-0.29477742 -7.3393073 -0.31556186 5
0.80162102 -7.5886898 -0.37254632 1
0.23472877 -7.1893878 -0.39397794 0
-0.28954116 -7.2089362 -0.43748128 0
0.75762004 -7.1721463 -0.47990882 0
0.23277326 -7.1294937 -0.5169524 1
-0.28630605 -7.1283889 -0.55896306 0
0.74614805 -7.0635448 -0.59831518 0
0.23114085 -7.0794954 -0.63864505 2
-0.28347117 -7.0578065 -0.67839557 0
0.89918262 -8.5122738 -0.87262577 0
0.229702 -7.0354252 -0.75922996 30
0.22716144 -6.957612 -0.87423527 24
0.22727728 -6.9611597 -0.99794573 28
0.22718914 -6.9584603 -1.1220144 35
0.2271686 -6.9578314 -1.2450539 125
0.22745964 -6.9667454 -1.3709608 70
0.2266663 -6.9424467 -1.4892515 2
0.26332131 -8.065134 -1.8732138 3
0.24402907 -7.4742422 -1.8679971 4
0.17477451 -5.3530793 -1.8425224 5
0.12836207 -3.9315367 -1.8336141 8
0.082990617 -3.2786112 0.86572784 7
0.19021335 -7.5145321 1.4525692 34
0.15246853 -6.0233927 0.84294355 12
0.14238492 -5.6250315 0.4885239 20
0.39493847 -15.602364 0.80292469 23
0.52037174 -20.557707 0.69404519 16
-0.84190953 -17.721153 0.49338576 9
2.6704586 -27.186594 0.5989306 42
0.52060127 -20.566772 0.32965708 28
-1.100335 -23.160688 0.234726 25
2.6691215 -27.172981 0.11532348 37
0.93454927 -36.920124 -0.061235547 40
-1.5479449 -32.582321 -0.24594669 26
2.6677313 -27.158829 -0.36676711 38
1.0293009 -40.663368 -0.78670824 47
-1.5499629 -32.624798 -0.82447082 25
2.6658988 -27.140173 -0.84891981 37
0.19825211 -7.8321099 -0.29043171 1
-0.35027599 -7.3728757 -0.31710705 3
0.72410029 -7.3717003 -0.3616235 1
0.18242599 -7.2068863 -0.39485294 0
-0.34256688 -7.210608 -0.4377234 0
0.70229417 -7.149703 -0.47804973 0
0.18030341 -7.1230316 -0.51637417 0
-0.34063357 -7.1699142 -0.56239998 0
0.69551861 -7.0807247 -0.59932244 0
0.17873541 -7.0610867 -0.63684911 2
-0.33784506 -7.1112199 -0.68374932 0
0.83520436 -8.5027952 -0.87100303 0
0.17792241 -7.0289688 -0.75837207 40
0.17625405 -6.9630585 -0.87473369 24
0.17564225 -6.938889 -0.9945417 26
0.17627501 -6.9638867 -1.1226507 36
0.17615916 -6.9593096 -1.2450539 102
0.17618622 -6.9603791 -1.369417 14
0.17537376 -6.9282823 -1.4858973 2
0.20448975 -8.0785332 -1.8759272 3
0.18893911 -7.4641919 -1.8650889 4
0.13581701 -5.3655605 -1.846426 5
0.099814311 -3.9432452 -1.838684 9
0.060453929 -3.2984452 0.87083238 7
0.10744872 -5.8625422 1.1330647 1
0.11055879 -6.0322318 0.84405196 18
0.10311132 -5.6258883 0.4885239 21
0.16668303 -9.0944443 0.46794459 3
0.23186161 -12.650671 0.42703208 1
-0.95493823 -17.519211 0.48793706 22
2.239835 -24.564167 0.54079986 29
0.37656564 -20.545912 0.32927257 8
-1.2628655 -23.168419 0.23488797 26
2.4775372 -27.171036 0.115239 41
0.67215753 -36.673794 -0.060817715 36
-1.7860343 -32.766426 -0.24742448 4
2.4780619 -27.17679 -0.36676711 34
0.67496419 -36.826927 -0.71237665 48
-1.8488494 -33.918827 -0.8574779 28
2.4734554 -27.12627 -0.84792411 37
0.14290959 -7.7973337 -0.28909808 1
-0.40543574 -7.4380875 -0.32002574 1
0.66100907 -7.2492561 -0.35538188 4
0.13210799 -7.207984 -0.39485294 0
-0.39376557 -7.2239881 -0.43869182 0
0.6505506 -7.1345582 -0.47672182 0
0.13079019 -7.1360836 -0.51724154 0
-0.38807449 -7.1195798 -0.55865061 0
0.64498311 -7.0734997 -0.59831518 0
0.1302384 -7.1059771 -0.64080018 2
-0.38618055 -7.0848336 -0.6814549 0
0.65007275 -7.1293182 -0.72982508 0
0.12906525 -7.0419683 -0.75965893 36
0.12749296 -6.9561825 -0.87373686 24
0.12763074 -6.9636993 -0.99794573 28
0.12743652 -6.9531026 -1.1207415 39
0.1274254 -6.9524961 -1.2436454 71
0.12744547 -6.9535909 -1.3678731 11
0.12685762 -6.9215169 -1.4842203 2
0.14787176 -8.0680761 -1.8732138 3
0.13696684 -7.4730892 -1.8670276 4
0.098493643 -5.3739414 -1.8490285 5
0.072548583 -3.9583454 -1.8454438 9
0.037600465 -3.3142557 0.87491602 6
0.085007399 -7.4928927 1.4480157 14
0.068398237 -6.0288949 0.84349775 13
0.064013541 -5.6424098 0.48990783 13
0.10178296 -8.9715576 0.46157381 4
0.14063512 -12.396143 0.41839701 6
-1.0831139 -17.607899 0.4906058 12
2.068296 -24.579205 0.54079986 26
0.22971611 -20.248098 0.32446611 16
-1.4253175 -23.171013 0.23500943 26
2.2864521 -27.171726 0.11517143 49
0.4127973 -36.385609 -0.060333561 41
-2.0761387 -33.751244 -0.25496423 26
2.2852597 -27.157558 -0.36628333 37
0.4147169 -36.55481 -0.70703965 46
-2.0691533 -33.637684 -0.85071498 28
2.2863712 -27.170765 -0.84879535 28
0.088470466 -7.798141 -0.28909808 1
-0.46201533 -7.5108624 -0.32328781 1
0.60703528 -7.2138829 -0.35343137 10
0.081783563 -7.2087307 -0.39485294 0
-0.44418892 -7.2210631 -0.43869182 0
0.60139716 -7.1468801 -0.47725299 0
0.081013016 -7.1408119 -0.51753062 0
-0.44021741 -7.1564994 -0.56177509 0
0.59759206 -7.1016612 -0.6003297 0
-0.43734384 -7.1097841 -0.68413174 0
0.59428042 -7.0623064 -0.7225228 0
0.079764552 -7.0307674 -0.75837207 32
0.07897158 -6.9608712 -0.87423527 25
0.07901185 -6.9644208 -0.99794573 28
0.078936413 -6.9577718 -1.1213779 38
0.078974068 -6.9610906 -1.2450539 64
0.079075247 -6.9700089 -1.3709608 10
0.0785776 -6.9261446 -1.4850588 2
0.091674984 -8.0806007 -1.8759272 3
0.08470346 -7.4661021 -1.8650889 4
0.060931154 -5.3707161 -1.8477272 5
0.044788975 -3.9478796 -1.840374 8
0.014394184 -3.2989676 0.87083238 7
0.032660801 -7.4854488 1.4464979 23
0.026255099 -6.0173416 0.84183514 12
0.043329354 -9.9305487 0.86218244 3
0.060394052 -13.841564 0.7120896 2
0.08274892 -18.965021 0.64007592 5
-1.1953533 -17.444332 0.48626909 15
1.6278967 -21.108231 0.46416903 2
0.10735578 -24.604607 0.39425549 3
-1.4948977 -21.81572 0.22136399 5
2.1145408 -27.418337 0.11615132 7
0.15765083 -36.131607 -0.059909094 36
-2.3032398 -33.612221 -0.2540293 44
3.2984154 -42.769123 -0.57651728 34
0.15385248 -35.26107 -0.68197882 39
-2.2924571 -33.454865 -0.84647554 33
3.2885084 -42.640663 -1.3313143 34
0.034236312 -7.8465357 -0.29087624 1
-0.5234555 -7.6390233 -0.3289535 1
0.55450761 -7.1900601 -0.35206604 25
0.031315725 -7.1771741 -0.39310291 0
-0.49513656 -7.2257524 -0.43917602 0
0.55056721 -7.1389666 -0.47645622 0
0.031141369 -7.1372137 -0.51724154 0
-0.57931483 -8.4542046 -0.66394436 0
0.54493368 -7.0659189 -0.59697217 0
0.030992605 -7.1031189 -0.640441 0
-0.48451903 -7.070806 -0.68069005 0
0.54190183 -7.0266066 -0.71846592 0
0.03066125 -7.0271759 -0.75794315 53
0.030373611 -6.9612532 -0.87423527 27
0.030389098 -6.9648027 -0.99794573 27
0.030360086 -6.9581532 -1.1213779 37
0.030357387 -6.9575348 -1.2443497 62
0.030481981 -6.9860902 -1.3740486 9
0.030187951 -6.9187026 -1.4833817 2
0.035276525 -8.08494 -1.8768317 3
0.032612041 -7.4742732 -1.8670276 4
0.023451505 -5.3747931 -1.8490285 5
0.017179031 -3.9372199 -1.835304 9
-0.0086770169 -3.3144579 0.87491602 5
-0.019627342 -7.4972773 1.4487747 24
-0.015753072 -6.0173783 0.84183514 11
-0.02597677 -9.9226398 0.86149049 2
-0.036330581 -13.877602 0.71393919 2
-0.049597062 -18.945148 0.63940126 12
-1.3177109 -17.443537 0.48649147 14
1.7223954 -24.569784 0.54001075 15
-0.048498604 -18.525558 0.29684517 7
-1.5317688 -20.277184 0.20585597 0
2.6752396 -38.162003 0.16158126 4
-0.09383662 -35.84383 -0.059431575 44
-2.4390147 -32.287086 -0.24413715 13
2.9754164 -42.443993 -0.57184064 36
-0.092479073 -35.325275 -0.68321639 45
-2.3825831 -31.540058 -0.79842854 13
2.9675343 -42.331554 -1.3209844 42
-0.020688305 -7.902545 -0.29295075 1
-0.58279377 -7.7148824 -0.33238727 1
0.50373924 -7.1857858 -0.35167593 28
-0.018914923 -7.2251468 -0.39572796 0
-0.54496825 -7.2141571 -0.43869182 1
0.49848154 -7.110785 -0.47433156 0
-0.018643061 -7.1212997 -0.51608503 0
-0.54099679 -7.1615844 -0.56271237 0
0.49531224 -7.0655751 -0.59663641 0
-0.018585147 -7.0991783 -0.64008182 0
-0.53627014 -7.0990143 -0.68374932 0
0.49255541 -7.0262494 -0.71806026 0
-0.018427998 -7.0391502 -0.75922996 40
-0.018224182 -6.9612956 -0.87423527 24
-0.018264571 -6.9767237 -0.99964774 29
-0.018226404 -6.9621444 -1.1220144 37
-0.01819383 -6.9497023 -1.2429413 56
-0.018237831 -6.9665093 -1.370189 7
-0.01817422 -6.9422116 -1.488413 2
-0.021176133 -8.0888863 -1.8777362 3
-0.019587558 -7.4820805 -1.8689665 4
-0.014031307 -5.3596964 -1.8438236 5
-0.010326409 -3.9444947 -1.838684 8
-0.031816084 -3.3143163 0.87491602 7
-0.071892329 -7.4891028 1.4472568 23
-0.057761908 -6.0171218 0.84183514 10
-0.095823005 -9.981988 0.86668015 1
-0.094637647 -9.8585081 0.50719684 2
-0.11458699 -11.936653 0.40288082 2
-1.4338601 -17.366169 0.48460111 20
1.5495651 -24.561255 0.53957236 13
-0.17556509 -18.288809 0.29306412 2
-2.0461905 -24.782396 0.2517322 12
2.1795642 -34.547005 0.14620705 2
-0.34176764 -35.60231 -0.05903364 38
-2.4777341 -30.009027 -0.227037 26
2.6591341 -42.148388 -0.56759399 38
-0.33966959 -35.383755 -0.68437666 47
-2.4289756 -29.418491 -0.74513268 23
2.6497793 -42.000111 -1.3100322 35
-0.075934708 -7.910202 -0.2932471 1
-0.64650297 -7.8301086 -0.33753788 12
0.45330918 -7.1851397 -0.35148087 36
-0.069202133 -7.2088623 -0.39485294 0
-0.59630316 -7.2221146 -0.43941814 8
0.45058587 -7.1419744 -0.47619066 0
-0.068626724 -7.148921 -0.5181089 0
-0.59097922 -7.1576333 -0.56271237 0
0.44622412 -7.0728393 -0.59697217 0
-0.068261035 -7.110827 -0.64115942 0
-0.58679873 -7.1070018 -0.68489659 2
0.44599652 -7.0692315 -0.72211707 0
-0.067417383 -7.0229425 -0.75751418 46
-0.066822745 -6.9609985 -0.87423527 26
-0.066932835 -6.9724665 -0.99908042 29
-0.066868797 -6.9657965 -1.1226507 40
-0.066673666 -6.9454689 -1.242237 50
-0.066910461 -6.9701362 -1.3709608 6
-0.06663955 -6.941915 -1.488413 2
-0.07768409 -8.0924368 -1.8786407 3
-0.071933605 -7.4934025 -1.8718746 4
-0.051557623 -5.3708143 -1.8477272 5
-0.038003128 -3.9588277 -1.8454438 8
-0.055723075 -3.3604174 0.88716686 5
-0.12404414 -7.4805646 1.445739 28
-0.099964969 -6.0284543 0.84349775 13
-0.098644137 -5.948801 0.51654828 2
-0.14239891 -8.5874615 0.44184491 3
-0.18499278 -11.156114 0.37657079 3
-1.5525662 -17.32786 0.48382273 27
1.1832445 -21.097769 0.46329224 1
-0.34117073 -20.57453 0.32972115 26
-2.0785162 -23.197876 0.23577876 32
1.9934353 -35.543827 0.15036316 0
-0.58633113 -35.359093 -0.058635704 44
-2.5326138 -28.265959 -0.21397814 17
2.3464632 -41.83847 -0.56318617 47
-0.5887419 -35.504478 -0.68677443 47
-2.4801354 -27.680262 -0.70152694 15
2.3397181 -41.718201 -1.3006979 37
-0.1318855 -7.9534431 -0.29487708 1
-0.70222163 -7.8373456 -0.33805296 24
0.4031381 -7.1881294 -0.35148087 38
-0.1198589 -7.2281713 -0.39594671 0
-0.64670855 -7.2177753 -0.43941814 20
0.39937529 -7.1210365 -0.47459716 0
-0.11860007 -7.152257 -0.51839805 0
-0.6427139 -7.1731925 -0.56427461 1
0.39817637 -7.0996599 -0.59898669 0
-0.11783624 -7.1061935 -0.64080018 0
-0.63675606 -7.1066985 -0.68527895 2
0.39574349 -7.0562806 -0.72049433 0
-0.11670887 -7.0382066 -0.75922996 35
-0.11554965 -6.9682994 -0.8752321 24
-0.11567384 -6.9757886 -0.99964774 30
-0.11562854 -6.9730568 -1.1239237 40
-0.11522583 -6.948771 -1.2429413 48
-0.11563463 -6.973424 -1.3717328 6
-0.11529616 -6.9530125 -1.4909286 2
-0.13437186 -8.103385 -1.8813542 4
-0.12379526 -7.4655566 -1.8650889 4
-0.089239851 -5.3816695 -1.8516309 5
-0.065579914 -3.9548409 -1.8437539 9
-0.081550933 -3.4604743 0.91371042 5
-0.17608026 -7.471664 1.4442211 23
-0.14186242 -6.0196891 0.84238935 15
-0.13209797 -5.6053514 0.48679402 3
-0.1927475 -8.1789103 0.42088297 2
-0.55051613 -23.360209 0.78862637 20
-1.8327338 -18.964281 0.52985871 36
1.0353373 -21.093531 0.46302921 6
-0.53700173 -22.786749 0.36522466 2
-2.1165268 -21.900839 0.22274068 31
1.8103476 -36.883266 0.15597221 8
-0.82742125 -35.110203 -0.058231138 38
-2.6294625 -27.20846 -0.20610665 59
2.0386322 -41.534245 -0.55888575 44
-0.84253156 -35.751385 -0.69164735 11
-2.6294692 -27.208529 -0.69001991 56
2.0331252 -41.422047 -1.2909904 31
-0.18872623 -8.0082741 -0.29695159 1
-0.75845712 -7.8481631 -0.33873969 29
0.35314158 -7.1947594 -0.35167593 34
-0.17022404 -7.2231655 -0.39572796 0
-0.69785041 -7.2210326 -0.43990234 21
0.35062969 -7.1435833 -0.47592506 0
-0.16805939 -7.1313128 -0.5169524 0
-0.69200933 -7.1605921 -0.56364971 0
0.34723389 -7.074399 -0.59663641 0
-0.16725624 -7.0972319 -0.64008182 0
-0.68826967 -7.1218958 -0.68719101 2
0.3458865 -7.0469475 -0.71927732 3
-0.16593567 -7.0411959 -0.75965893 45
-0.16447526 -6.9792261 -0.8767274 28
-0.16418463 -6.9668937 -0.9985131 34
-0.16430683 -6.9720793 -1.1239237 42
-0.16382736 -6.9517336 -1.2436454 45
-0.16431549 -6.9724464 -1.3717328 8
-0.16401882 -6.9598579 -1.4926057 2
-0.19103269 -8.1061449 -1.8822587 3
-0.17710026 -7.514946 -1.8776908 4
-0.12663059 -5.3733521 -1.8490285 5
-0.093188316 -3.9542866 -1.8437539 9
