# .PCD v0.7 - Point Cloud Data file format
VERSION 0.7
FIELDS x y z intensity
SIZE 4 4 4 4
TYPE F F F F
COUNT 1 1 1 1
WIDTH 1362
HEIGHT 1
VIEWPOINT 0 0 0 1 0 0 0
POINTS 1362
DATA ascii
3.1401982 -3.9833231 -1.7449311 7
2.3275514 -2.9524851 -1.7524956 6
2.3920839 -3.0783062 1.0290728 20
3.2942028 -4.2392178 1.037441 0
4.6645389 -6.002665 1.0635165 1
5.8635578 -7.5456491 0.8296603 7
8.9809904 -11.557386 0.75298595 31
8.9852962 -11.562927 0.49422386 35
2.5300064 -3.7964549 0.12687698 38
13.836978 -15.362127 0.45329693 51
8.9598103 -11.530129 0.23397705 28
2.5352907 -3.8043845 0.046281148 38
13.877658 -15.40729 0.08758232 40
8.9511299 -11.51896 -0.024187809 32
2.5309126 -3.7978146 -0.034411427 39
11.47544 -12.740294 -0.23044564 0
8.9764614 -11.551558 -0.28293961 49
2.5257435 -3.7900579 -0.11496967 38
11.313051 -12.560006 -0.52620333 0
8.9744301 -11.548944 -0.54218858 52
2.5308681 -3.7977481 -0.19606727 45
11.243567 -12.482864 -0.82018709 0
8.9598026 -11.530121 -0.79976863 24
2.5263443 -3.7909596 -0.27624026 48
11.261501 -12.502774 -1.1196988 0
8.9252806 -11.485695 -1.0541434 8
2.52104 -3.7830002 -0.35618663 44
12.380302 -13.744892 -1.5582384 3
8.9589806 -11.529062 -1.3164421 51
2.5171833 -3.7772129 -0.43594757 42
10.477176 -11.631998 -1.5959599 2
8.9507713 -11.518498 -1.5733647 23
8.1800261 -10.526648 -1.6742054 2
7.1769562 -9.2358246 -1.6759135 2
6.4382296 -8.2851782 -1.6909769 3
5.8420062 -7.5179148 -1.7027943 3
5.3270426 -6.8552227 -1.7075256 3
4.895689 -6.3001256 -1.7106267 4
4.5353718 -5.8364434 -1.7158312 5
4.2314281 -5.4453068 -1.7225899 7
3.114634 -4.0081358 -1.7462324 7
2.3157806 -2.9801135 -1.7592555 7
2.3611288 -3.0826488 1.0249891 19
5.0914221 -6.6472721 1.6180134 20
4.5767527 -5.9753289 1.0529866 2
5.8519325 -7.6401811 0.83554196 6
8.8539371 -11.559546 0.74908125 32
8.8508768 -11.555551 0.49125555 38
2.4968581 -3.803997 0.12654339 35
13.835617 -15.577954 0.45680404 65
8.8426199 -11.54477 0.23301576 30
2.4933057 -3.7985847 0.045997713 40
13.88663 -15.635391 0.088325687 39
8.8704977 -11.581167 -0.024187809 24
2.4911678 -3.7953274 -0.034230471 40
11.301225 -12.724402 -0.22872549 0
8.8469648 -11.550443 -0.28139266 51
2.488251 -3.7908838 -0.11446498 38
11.16137 -12.566936 -0.52321637 0
8.8571291 -11.563714 -0.53996587 57
2.4955215 -3.8019607 -0.19538052 45
11.095127 -12.492351 -0.81570089 1
8.8718061 -11.582876 -0.79911238 5
2.4888623 -3.791815 -0.27502975 41
11.09973 -12.497534 -1.1122624 0
8.8934002 -11.611068 -1.0599259 25
2.4836271 -3.7838392 -0.35462442 42
12.260222 -13.804168 -1.5552166 2
8.8467846 -11.550208 -1.3117726 25
2.4798276 -3.7780507 -0.43403551 40
10.435352 -11.749489 -1.6020452 2
8.8870697 -11.602804 -1.5763673 21
8.1063404 -10.583496 -1.6742054 2
7.1171212 -9.2919893 -1.6770481 2
6.39224 -8.3455973 -1.6941589 2
5.7869864 -7.5553885 -1.70209 3
5.2790565 -6.8922439 -1.7075256 3
4.8515882 -6.3341489 -1.7106267 3
4.489778 -5.8617759 -1.7140222 4
4.1909509 -5.4716325 -1.7216206 6
3.091177 -4.0357866 -1.7488348 7
2.2993288 -3.0019636 -1.7626355 6
2.3336382 -3.0889831 1.0219264 19
5.0614281 -6.6996961 1.6225669 28
4.5131431 -5.9739437 1.0474446 4
7.4513917 -9.8632355 1.0732303 9
8.7770758 -11.618013 0.74908125 27
8.822238 -11.677794 0.493954 28
2.4542 -3.7936151 0.1256538 35
13.842694 -15.79569 0.46048653 58
8.847826 -11.711663 0.23519468 21
2.4528503 -3.7915287 0.045714274 41
13.90126 -15.862518 0.089085951 38
8.8754721 -11.748259 -0.024413304 24
2.4529064 -3.7916152 -0.034049518 39
11.15859 -12.732899 -0.22754289 0
8.8183784 -11.672685 -0.28293961 45
2.4478507 -3.7838006 -0.1137584 35
11.032982 -12.589569 -0.52110058 0
8.8501158 -11.714695 -0.54426306 38
2.4550569 -3.7949395 -0.19417872 45
10.964632 -12.511576 -0.81219 0
8.879055 -11.753001 -0.80676877 33
2.4549851 -3.7948284 -0.27406132 40
10.940314 -12.483828 -1.1045605 0
8.902771 -11.784393 -1.0703343 38
2.4519796 -3.7901828 -0.35368708 40
11.004625 -12.557212 -1.4064772 0
8.8540363 -11.719884 -1.3243444 38
2.4395776 -3.7710123 -0.43135864 41
10.375555 -11.83939 -1.604885 2
8.8962221 -11.775725 -1.5918093 29
8.0574999 -10.665527 -1.6786911 2
7.0768185 -9.3674221 -1.6821542 2
6.3367491 -8.3878088 -1.6941589 3
5.7414961 -7.5998869 -1.7034985 3
5.2426925 -6.9396315 -1.7106134 3
4.8165445 -6.3755493 -1.7131424 3
4.4625459 -5.9069695 -1.7185447 4
4.1592479 -5.5055008 -1.7235593 7
3.0620625 -4.0531816 -1.7475336 7
2.2706268 -3.0055766 -1.7558756 7
2.3097062 -3.1020975 1.0209055 19
4.9981136 -6.7128177 1.6172545 27
4.4500346 -5.9767089 1.0424567 6
7.3466535 -9.8670712 1.0680406 8
8.7840223 -11.797559 0.75668508 26
8.8288326 -11.857741 0.49894619 27
2.4276559 -3.8106561 0.1256538 35
13.841901 -16.01903 0.46416903 53
8.8375025 -11.869387 0.23711726 23
2.4241717 -3.805187 0.045673784 37
13.897408 -16.083267 0.089778632 37
8.8792353 -11.925436 -0.024652066 23
2.409183 -3.7816596 -0.033808246 40
11.009283 -12.740883 -0.22630654 0
8.8178778 -11.843028 -0.28556946 36
2.4149299 -3.7906804 -0.11345559 37
10.874246 -12.584605 -0.51774025 0
8.8540545 -11.891617 -0.54959756 39
2.4220619 -3.8018754 -0.19366366 44
10.78037 -12.475965 -0.80497313 0
8.880271 -11.926826 -0.81442523 33
2.4198513 -3.7984054 -0.27309293 39
10.78505 -12.48138 -1.0976553 0
8.910821 -11.967857 -1.081321 28
2.4126036 -3.7870288 -0.35181242 40
10.80724 -12.507061 -1.3923755 0
8.8576508 -11.896445 -1.3372753 36
2.404634 -3.7745192 -0.429829 39
10.295253 -11.914546 -1.6052907 2
8.8945475 -11.946001 -1.6063933 25
7.9946952 -10.737436 -1.6811833 1
7.0207081 -9.4293032 -1.6844234 2
6.2921867 -8.4508486 -1.6979775 3
5.7024083 -7.6587343 -1.7077239 3
5.1941166 -6.9760633 -1.7106134 3
4.7719173 -6.4090195 -1.7131424 3
4.411891 -5.9254789 -1.7149267 4
4.1253462 -5.5406294 -1.7254981 7
3.0336914 -4.0744605 -1.7475336 7
2.2495885 -3.0213554 -1.7558756 6
2.2891917 -3.1220641 1.0219264 19
4.948772 -6.7492747 1.6172545 27
4.3873644 -5.9836111 1.0380232 8
7.2364249 -9.8692398 1.0625049 7
8.782342 -11.977605 0.76408345 26
8.8244095 -12.034979 0.50366849 26
2.3784211 -3.7944701 0.12454182 38
13.832984 -16.247953 0.46785152 55
8.8424902 -12.059638 0.2396166 22
2.3834674 -3.8025208 0.045430839 38
13.895823 -16.321764 0.090538897 39
8.8578053 -12.080524 -0.024837768 6
2.3750243 -3.7890508 -0.03371777 40
10.842995 -12.73597 -0.22480142 0
8.8159599 -12.023455 -0.28835398 35
2.3743355 -3.7879519 -0.11284995 37
10.703952 -12.572653 -0.51400656 0
8.8470097 -12.065802 -0.55463564 34
2.3835154 -3.802597 -0.19280522 43
10.64201 -12.499897 -0.80146223 0
8.8492842 -12.068903 -0.81967533 7
2.3834605 -3.8025098 -0.2721245 44
10.631173 -12.487168 -1.0912813 0
2.3784246 -3.7944758 -0.35087508 41
10.648089 -12.507037 -1.3836458 0
8.8502998 -12.070289 -1.3494879 24
2.3684423 -3.7785501 -0.42829937 42
10.236014 -12.023023 -1.6097531 2
8.8608265 -12.084645 -1.6162591 9
7.920465 -10.802154 -1.6821802 2
6.9537401 -9.4837065 -1.6849908 2
6.2394104 -8.5094843 -1.7005231 3
5.643785 -7.6971536 -1.7070196 2
5.156764 -7.0329404 -1.715245 3
4.7248082 -6.4438272 -1.7131424 3
4.3821602 -5.9765139 -1.7203537 4
4.0937991 -5.5832386 -1.7293756 6
3.0037425 -4.0965886 -1.7475336 7
2.223093 -3.0319169 -1.7524956 6
2.2696054 -3.141104 1.0229473 21
4.8946338 -6.7741089 1.6149777 29
4.3292451 -5.9916177 1.0341438 9
7.1230063 -9.8581467 1.0559313 7
8.7803955 -12.151952 0.77127624 2
13.888759 -19.221859 0.80036473 28
2.3476729 -3.8041766 0.12431943 35
13.840056 -16.488091 0.47197241 47
13.94173 -19.29517 0.38143834 35
2.3421583 -3.7952409 0.045147404 39
13.89212 -16.550117 0.091265373 39
10.820737 -14.975758 -0.030634353 13
2.3443124 -3.7987313 -0.03365745 40
10.699816 -12.747025 -0.22367257 0
2.3352325 -3.784018 -0.11224432 39
10.569651 -12.591954 -0.51176631 0
2.3464162 -3.8021405 -0.19194677 45
10.492838 -12.500445 -0.796781 0
9.1297226 -12.635415 -0.85380113 0
2.3421779 -3.7952726 -0.27042979 44
10.489852 -12.496888 -1.0857041 0
9.0400476 -12.511307 -1.1186179 2
2.3414049 -3.7940199 -0.34931287 42
10.496449 -12.504747 -1.375252 1
2.335732 -3.7848275 -0.42715213 39
10.156946 -12.100287 -1.6105645 2
8.9369583 -12.368631 -1.6458561 3
7.844861 -10.857184 -1.6821802 2
2.715523 -3.7582481 -0.66435158 6
6.1821661 -8.556036 -1.7011596 2
5.6037498 -7.7555156 -1.7112449 1
2.72157 -3.7666168 -0.91397393 4
2.7120776 -3.7534797 -0.99283433 19
4.3403311 -6.0069609 -1.7203537 3
2.7183006 -3.7620921 -1.1593796 12
2.7181027 -3.7618182 -1.5965924 1
2.2082427 -3.0561786 -1.7575656 6
2.2408917 -3.1474202 1.0198846 20
4.8472228 -6.8081141 1.6149777 29
4.2620363 -5.9861975 1.0280476 9
7.0308976 -9.8751717 1.0524715 6
12.543725 -17.618155 1.1126271 1
13.830741 -19.425817 0.8048172 32
2.3023729 -3.7897186 0.12331864 38
13.841892 -16.72603 0.47600561 58
13.880914 -19.496288 0.3834891 29
2.3093753 -3.8012447 0.04502593 40
12.434828 -15.025787 0.082378738 10
10.681124 -15.002057 -0.030534869 11
2.3073514 -3.7979133 -0.033506654 40
9.5344629 -11.521092 -0.20098816 7
10.676822 -14.996015 -0.35603365 0
2.3025296 -3.7899766 -0.11194149 42
9.5128641 -11.494993 -0.46447274 26
9.6653118 -13.57531 -0.61776012 0
2.3115156 -3.8047674 -0.19126002 52
9.5265274 -11.511503 -0.72948861 0
8.9764271 -12.607743 -0.84767598 0
2.3052595 -3.7944701 -0.26921925 48
9.5295506 -11.515157 -0.99460906 19
8.9339714 -12.548113 -1.1163049 2
2.2982965 -3.7830088 -0.34681329 45
9.5169201 -11.499894 -1.2574019 36
8.9489403 -12.569138 -1.3911543 0
2.2968478 -3.7806244 -0.42485768 41
9.5064526 -11.487246 -1.520097 39
8.8896027 -12.485796 -1.6531482 2
7.7849855 -10.934318 -1.6856692 0
2.6846263 -3.7706628 -0.66321695 14
2.6820774 -3.7670829 -0.74525172 14
2.6833856 -3.7689204 -0.82745379 1
2.6701679 -3.7503555 -0.90548259 1
2.6756961 -3.7581201 -1.0709246 1
2.6829667 -3.7683318 -1.1555021 1
2.6676424 -3.7468083 -1.5822791 16
2.1805446 -3.0626602 -1.7524956 7
2.218864 -3.1629879 1.0198846 19
4.7995749 -6.8417883 1.6149777 28
4.199666 -5.986619 1.0230597 10
2.650147 -3.7777812 0.40064496 1
13.604193 -19.392761 1.2186699 17
13.850904 -19.744448 0.81399196 5
2.2758605 -3.8056993 0.12331864 37
9.4397402 -11.570143 0.32739085 87
2.6574779 -3.7882316 0.07414721 1
2.2704651 -3.7966771 0.044782985 40
9.4090519 -11.53253 0.062865317 39
2.6578152 -3.7887125 -0.0076735108 20
2.2705171 -3.7967639 -0.033355862 36
9.4032297 -11.525393 -0.19991307 35
2.6343546 -3.7552693 -0.088718355 0
2.2678063 -3.7922308 -0.11153774 40
9.3818331 -11.499168 -0.46198362 37
2.6743593 -3.8122959 -0.17262904 2
2.2684894 -3.7933729 -0.18988653 47
9.4055195 -11.5282 -0.72636783 29
2.6584289 -3.7895873 -0.25353715 21
2.2746158 -3.8036175 -0.26873505 44
9.3934193 -11.513369 -0.98876619 51
2.6531579 -3.7820735 -0.33480474 38
2.2636442 -3.7852712 -0.34556353 44
9.3885288 -11.507375 -1.2510227 40
2.6653843 -3.7995021 -0.41845977 5
2.2642684 -3.7863147 -0.42371044 43
9.3656502 -11.479333 -1.5103606 37
2.6447768 -3.7701261 -0.49671656 31
2.6507802 -3.7786841 -0.57966685 31
2.6400454 -3.7633815 -0.65867823 59
2.6489093 -3.7760172 -0.74334246 1
2.6434405 -3.7682211 -0.82322848 21
2.6461744 -3.7721186 -0.90625453 11
2.6526678 -3.7813749 -0.99031872 31
2.6292553 -3.7480004 -1.0627842 17
2.6454501 -3.771086 -1.1506552 3
2.6522808 -3.7808232 -1.5887852 40
2.1757665 -3.1015527 -1.7660154 6
2.1901314 -3.1688569 1.0168219 20
4.73383 -6.8492827 1.6089064 5
2.6239443 -3.7965317 0.64564711 27
2.6101141 -3.7765212 0.39856908 27
2.6164727 -3.7857213 0.23674667 26
2.6138961 -3.7819932 0.15516174 24
2.2411234 -3.8077114 0.12287385 36
9.3035975 -11.567206 0.32546192 40
2.6082268 -3.7737906 0.073506348 23
2.2357886 -3.7986472 0.044621021 38
9.2831879 -11.54183 0.062561214 44
2.6222034 -3.794013 -0.0076469821 45
2.2358396 -3.7987339 -0.033235226 41
9.2673922 -11.522192 -0.19873047 33
2.6217167 -3.793309 -0.089182444 26
2.2270777 -3.7838476 -0.11083116 41
9.2562246 -11.508307 -0.45974338 40
2.6226797 -3.7947023 -0.17099908 35
2.2318156 -3.7918971 -0.18902808 45
9.2797394 -11.537543 -0.72285688 42
2.6137409 -3.7817688 -0.25178713 41
2.233829 -3.7953181 -0.26704034 44
9.2652874 -11.519575 -0.98372012 48
2.6153481 -3.7840943 -0.33335912 45
2.2270491 -3.7837987 -0.34400129 42
9.2555056 -11.507413 -1.2439718 39
2.6206737 -3.7917995 -0.41558623 41
2.2337403 -3.7951674 -0.42294562 43
9.2354021 -11.482419 -1.502247 41
2.6138697 -3.7819552 -0.49585867 59
2.6130528 -3.7807734 -0.57717472 42
2.609205 -3.7752059 -0.65754354 41
2.613502 -3.7814233 -0.7407968 20
2.6036367 -3.7671492 -0.81900322 46
2.6108496 -3.7775853 -0.90316677 45
2.6106384 -3.7772799 -0.98444891 37
2.6096714 -3.7758806 -1.0654978 37
2.6058197 -3.7703075 -1.1448388 38
2.6043155 -3.7681313 -1.575773 34
2.1458154 -3.104737 -1.7592555 7
2.1723094 -3.1904628 1.0188637 20
2.581665 -3.7916825 0.88641638 26
2.5884585 -3.8016598 0.64343029 29
2.5814433 -3.7913568 0.3982231 31
2.5922289 -3.8071973 0.23695217 31
2.5761802 -3.7836268 0.15448712 33
2.2084739 -3.8128848 0.12254026 38
9.1704407 -11.56607 0.32362068 42
2.5840688 -3.7952127 0.073570438 28
2.2052052 -3.8072414 0.04454004 40
9.1576519 -11.54994 0.062257107 48
2.5798948 -3.7890821 -0.0076005561 34
2.201246 -3.800406 -0.03311459 42
9.1419973 -11.530196 -0.19776289 39
2.5884187 -3.8016014 -0.088950396 37
2.1986032 -3.7958431 -0.11073023 43
9.1210089 -11.503724 -0.45700535 45
2.5916252 -3.8063109 -0.17070271 48
2.2032857 -3.8039277 -0.18885639 48
9.1493225 -11.539433 -0.71895587 44
2.5895243 -3.803225 -0.25200588 43
2.2012749 -3.8004558 -0.26631403 46
9.1449652 -11.533939 -0.97947079 48
2.5776408 -3.7857716 -0.3319135 47
2.1965814 -3.7923527 -0.34337643 44
9.1229391 -11.506159 -1.236921 44
2.5829279 -3.7935371 -0.41379026 47
2.1932211 -3.7865515 -0.42026874 40
9.1154575 -11.496722 -1.495756 45
2.5784509 -3.7869616 -0.49414289 57
2.5664921 -3.769398 -0.57268888 45
2.5716441 -3.7769644 -0.6547069 42
2.5781498 -3.7865195 -0.73825109 41
2.5750582 -3.7819788 -0.818299 43
2.57337 -3.7794993 -0.89930713 42
2.5731993 -3.7792485 -0.9802562 39
2.5722833 -3.7779033 -1.0609752 35
2.5706987 -3.7755764 -1.1409613 44
2.5694313 -3.7737148 -1.5705682 32
2.1322503 -3.1316285 -1.7660154 7
2.152137 -3.2087626 1.0198846 21
2.550756 -3.8030899 0.88489848 30
2.5552349 -3.809768 0.64176768 33
2.5438132 -3.7927387 0.3964932 30
2.547785 -3.7986605 0.2353081 30
2.5541563 -3.8081596 0.15475696 33
2.1719019 -3.8108408 0.12198427 41
9.0426817 -11.569943 0.32195479 43
2.5396881 -3.7865882 0.073057748 25
2.1706498 -3.8086433 0.044378076 41
9.0275316 -11.550559 0.061919212 56
2.5466948 -3.797035 -0.0075806594 34
2.1627769 -3.7948298 -0.032933634 41
9.0095568 -11.52756 -0.19663404 38
2.546222 -3.79633 -0.088408962 45
2.1700695 -3.8076255 -0.11062929 42
8.9986219 -11.51357 -0.45488957 45
2.556083 -3.8110323 -0.17011 51
2.1667817 -3.8018568 -0.18799795 47
9.0094929 -11.527478 -0.7142747 43
2.5451117 -3.7946746 -0.25025582 47
2.1667809 -3.8018556 -0.2653456 46
9.0076923 -11.525175 -0.97336239 53
2.5400367 -3.7871079 -0.33046788 45
2.1601794 -3.7902722 -0.34181419 45
9.0031166 -11.51932 -1.2315489 36
2.5430667 -3.7916257 -0.4116351 52
2.1529317 -3.7775552 -0.41759187 43
8.9590082 -11.462884 -1.4831798 7
2.5364435 -3.7817504 -0.49114028 54
2.5268502 -3.7674472 -0.56969833 45
2.5319798 -3.7750955 -0.65130287 44
2.5318546 -3.7749088 -0.73252326 43
2.5398192 -3.7867837 -0.81548214 52
2.5359902 -3.7810748 -0.89544743 44
2.5358596 -3.78088 -0.97606349 37
2.5328236 -3.7763536 -1.0555482 36
2.5377929 -3.7837625 -1.1380532 43
2.5261681 -3.7664304 -1.5601584 30
2.1103356 -3.1464381 -1.7660154 6
2.1318152 -3.2269361 1.0209055 19
2.506825 -3.79459 0.87882715 40
2.5132909 -3.8043773 0.63788825 32
2.5040936 -3.7904553 0.39441732 29
2.507992 -3.7963564 0.23407505 29
2.5120831 -3.8025491 0.1538125 33
2.1354675 -3.8084719 0.12142827 38
8.9104376 -11.566264 0.32011354 44
2.5043728 -3.7908778 0.072801404 22
2.1342273 -3.8062601 0.044175621 37
8.8954105 -11.54676 0.061564423 47
2.5113051 -3.8013713 -0.0075541306 31
2.1303635 -3.7993693 -0.032843158 41
8.8824825 -11.529978 -0.19561271 38
2.5086346 -3.7973292 -0.088022217 46
2.12779 -3.7947795 -0.10982177 41
8.8863039 -11.534938 -0.45327163 49
2.5117881 -3.8021026 -0.16892457 53
2.1323698 -3.8029475 -0.1873112 48
8.8897848 -11.539456 -0.71115386 12
2.5075505 -3.7956879 -0.24916205 43
2.1343291 -3.806442 -0.26461929 44
8.8661184 -11.508736 -0.96672279 29
2.50474 -3.7914338 -0.3293114 46
2.129766 -3.7983036 -0.3411893 42
8.8762608 -11.521901 -1.2251695 14
2.5033591 -3.7893434 -0.40947995 48
2.1206658 -3.7820742 -0.41644463 45
8.9176207 -11.575589 -1.4896708 18
2.5034039 -3.7894113 -0.48985347 52
2.4917364 -3.7717502 -0.56770468 41
2.5011983 -3.7860725 -0.65016818 43
2.509793 -3.7990825 -0.73379612 45
2.5002983 -3.7847104 -0.81125683 50
2.4965515 -3.7790389 -0.89081579 40
2.5029347 -3.7887013 -0.97354788 36
2.4956594 -3.7776885 -1.0510257 34
2.4984808 -3.7819591 -1.132237 41
2.4914725 -3.7713506 -1.5549536 34
2.0883179 -3.1610944 -1.7660154 6
2.1176717 -3.2547073 1.0249891 20
2.4717054 -3.7988315 0.87579149 40
2.4715466 -3.7985876 0.63400882 32
2.4645302 -3.7878036 0.39234143 28
2.4705341 -3.7970312 0.2330475 28
2.4680331 -3.7931874 0.15273312 30
2.103034 -3.8127842 0.12109468 38
8.7931986 -11.580412 0.31879836 46
2.4713025 -3.7982123 0.072609149 27
2.0979435 -3.8035555 0.043973166 39
8.8170033 -11.611763 0.061581317 34
2.4694347 -3.7953417 -0.0075077047 32
2.092196 -3.7931349 -0.032662202 36
8.8549862 -11.661784 -0.19679531 22
2.4711576 -3.7979896 -0.08763548 43
2.0935204 -3.7955363 -0.10941802 39
8.8732586 -11.685848 -0.45675644 28
2.4699233 -3.7960923 -0.1678873 46
2.0941875 -3.7967458 -0.18628109 46
8.8162584 -11.610782 -0.711739 15
2.4635644 -3.7863193 -0.24741201 43
2.0942047 -3.7967768 -0.26292455 40
8.8531399 -11.659353 -0.97415912 37
2.4673305 -3.7921076 -0.32786578 40
2.0935669 -3.7956207 -0.33962709 40
8.8896141 -11.707389 -1.238264 29
2.4681525 -3.793371 -0.40804318 46
2.0826721 -3.7758684 -0.41415018 39
8.9232264 -11.751655 -1.5042753 33
2.466043 -3.7901287 -0.48770875 53
2.4566858 -3.7757473 -0.56571096 41
2.4574296 -3.7768908 -0.64562947 41
2.4681332 -3.7933414 -0.72934115 42
2.4566357 -3.7756705 -0.80562311 44
2.4594054 -3.7799273 -0.8869561 38
2.4614925 -3.7831352 -0.96767807 32
2.4564753 -3.775424 -1.0455987 33
2.4487357 -3.7635286 -1.1215737 41
2.4506426 -3.7664595 -1.545845 30
2.0701528 -3.1816745 -1.7693954 6
2.1178508 -3.3052318 1.0362191 22
2.4366498 -3.8027668 0.87275583 36
2.4235961 -3.7823944 0.62846678 34
2.4294274 -3.7914951 0.39095753 26
2.4310355 -3.7940047 0.23181444 27
2.4328651 -3.79686 0.15219343 28
2.0630176 -3.8027709 0.1203163 34
8.7960014 -11.75358 0.32186711 29
2.4274647 -3.7884321 0.07209646 25
2.0598948 -3.7970145 0.043730218 37
8.8220024 -11.788323 0.062189527 35
2.4364049 -3.8023846 -0.0074878079 30
2.0580344 -3.7935855 -0.032541566 41
8.852438 -11.828994 -0.19856921 26
2.4316378 -3.7949445 -0.087171391 42
2.0574374 -3.792485 -0.10891332 39
8.8729057 -11.856343 -0.46098796 29
2.439049 -3.8065109 -0.16759095 47
2.0638189 -3.8042479 -0.1859377 45
8.823555 -11.7904 -0.71895587 31
2.4284525 -3.7899737 -0.246537 42
2.0600314 -3.7972665 -0.26195616 42
8.8528328 -11.82952 -0.98318899 31
2.4278831 -3.7890849 -0.32613105 41
2.059411 -3.796123 -0.3383773 37
8.8864756 -11.874475 -1.2493439 26
2.4330132 -3.7970912 -0.40660641 44
2.048666 -3.7763164 -0.41262054 41
8.9339542 -11.937919 -1.520097 27
2.4266503 -3.7871609 -0.48513508 48
2.4238434 -3.7827802 -0.56421572 42
2.4139135 -3.7672832 -0.64109081 42
2.4309387 -3.7938538 -0.72615904 42
2.4259691 -3.7860978 -0.80421466 44
2.4244878 -3.7837861 -0.88386834 38
2.4308019 -3.7936401 -0.96600097 32
2.4195485 -3.7760775 -1.0410763 32
2.4265897 -3.7870665 -1.1235125 40
2.4161265 -3.7707369 -1.5406401 30
2.0420229 -3.1868908 -1.7643255 6
2.0938182 -3.3159351 1.0351982 23
2.3987942 -3.7989192 0.86820233 38
2.3963418 -3.7950356 0.62791258 32
2.3957171 -3.7940462 0.3895736 29
2.3951552 -3.7931564 0.2307869 27
2.4012268 -3.8027716 0.15178865 32
2.0302179 -3.8022614 0.1198715 35
8.7914724 -11.911403 0.32458514 27
2.393744 -3.7909214 0.071840122 26
2.0271308 -3.7964799 0.043568257 37
8.8315125 -11.965652 0.062814631 34
2.4025905 -3.8049314 -0.0074612787 27
2.0290611 -3.8000948 -0.032481249 39
8.8545446 -11.996859 -0.20039687 24
2.3978741 -3.797462 -0.086861998 43
2.0265892 -3.7954652 -0.1086105 43
8.8914185 -12.046818 -0.46609068 25
2.4030788 -3.8057048 -0.16685005 47
2.0310135 -3.8037512 -0.18525095 44
8.8258305 -11.957953 -0.72558761 29
2.3947334 -3.7924883 -0.24566197 44
2.0216374 -3.7861917 -0.26026142 38
8.8689861 -12.016424 -0.99381226 37
2.3920493 -3.7882376 -0.32468542 43
2.0229192 -3.7885919 -0.33650264 40
8.8832684 -12.035774 -1.2600881 16
2.3971412 -3.7963016 -0.40481043 45
2.0235753 -3.7898209 -0.41262054 48
8.8971186 -12.05454 -1.5273993 3
2.3929863 -3.7897213 -0.4834193 51
2.3902256 -3.7853494 -0.562222 41
2.3867607 -3.7798622 -0.64052343 40
2.3930728 -3.7898583 -0.72234052 45
2.3881915 -3.7821281 -0.7999894 45
2.3888619 -3.7831895 -0.8800087 41
2.3847063 -3.7766085 -0.95761555 37
2.3798892 -3.7689798 -1.0347449 33
2.3910599 -3.7866707 -1.1186656 40
2.3850064 -3.7770839 -1.5367365 32
2.0266488 -3.2095606 -1.7693954 7
2.0644915 -3.3206186 1.0321355 23
2.368067 -3.808903 0.8666845 41
2.3614228 -3.7982159 0.62569577 33
2.3544431 -3.7869895 0.38715175 29
2.3665063 -3.8063927 0.23058139 27
2.3682873 -3.8092573 0.15138389 31
2.011059 -3.8305023 0.1203163 39
8.8045444 -12.105085 0.32817996 33
2.3587735 -3.7939546 0.071583778 27
1.9968593 -3.8034556 0.043487273 42
8.8277569 -12.136999 0.063389055 5
2.3611848 -3.7978332 -0.0074148532 35
2.0006237 -3.8106258 -0.032451089 44
2.3607464 -3.7971282 -0.086475261 44
2.0037611 -3.8166013 -0.10881238 44
2.37012 -3.8122051 -0.16640551 48
1.9988366 -3.8072221 -0.18473589 49
8.7914839 -12.087129 -0.7296837 2
2.361872 -3.7989383 -0.24500571 45
2.0044363 -3.8178878 -0.26147196 46
9.0736399 -12.475056 -1.026479 2
2.3529055 -3.7845163 -0.32295069 44
2.0038362 -3.8167446 -0.3377524 46
2.3579593 -3.792645 -0.40265527 48
2.0026217 -3.8144314 -0.41376778 38
9.4494171 -12.991699 -1.6377454 1
2.3601711 -3.7962029 -0.48213246 49
2.3553588 -3.7884626 -0.56022829 43
2.3477705 -3.7762568 -0.63711941 42
2.3561311 -3.7897046 -0.71915841 45
2.3513341 -3.7819891 -0.79646832 47
2.3561752 -3.7897754 -0.87769288 40
2.3520875 -3.7832005 -0.95509994 35
2.347347 -3.7755756 -1.0320313 34
2.3543205 -3.7867925 -1.1138186 43
2.3485937 -3.777581 -1.5302304 32
2.0061066 -3.2267098 -1.7710854 7
2.0594304 -3.3646386 1.0413237 22
2.3291163 -3.805244 0.86213094 41
2.3265762 -3.8010941 0.62347895 31
2.315465 -3.7829409 0.38507587 28
2.3169351 -3.7853425 0.22832079 29
2.3312008 -3.8086498 0.15070927 32
1.9732649 -3.8231304 0.1196491 39
13.858998 -19.336643 0.52159834 56
2.3238773 -3.7966845 0.071327433 24
1.9775956 -3.831521 0.043649238 44
11.000751 -15.348699 0.079760052 2
2.322084 -3.7937548 -0.0073750596 32
1.9849789 -3.8458261 -0.032632045 25
10.743558 -14.989853 -0.2478621 0
2.323741 -3.7964618 -0.086088516 45
1.9990754 -3.8731372 -0.11002365 24
10.643833 -14.850713 -0.56876755 6
2.333014 -3.8116117 -0.16566461 49
1.9795403 -3.8352888 -0.18542264 40
9.0862589 -12.677521 -0.76147687 0
2.3227823 -3.7948954 -0.24369317 44
1.9868897 -3.8495281 -0.26268247 30
8.9956293 -12.551071 -1.0275414 1
2.3222618 -3.7940452 -0.32237244 46
1.9899443 -3.8554463 -0.33993953 26
8.9720974 -12.518238 -1.2973568 2
2.3210251 -3.7920246 -0.40085933 51
2.0051622 -3.8849304 -0.41988632 23
9.3839893 -13.092927 -1.6422079 0
2.3170018 -3.7854514 -0.47870094 51
2.3184931 -3.7878881 -0.55773616 43
2.3110144 -3.7756696 -0.63428277 39
2.3151851 -3.7824833 -0.71470344 45
2.3145955 -3.7815204 -0.79294723 47
2.3153174 -3.7826998 -0.8722893 40
2.3133674 -3.7795136 -0.95006865 36
2.3168628 -3.7852247 -1.0302223 35
2.3116188 -3.7766571 -1.1060636 42
2.3103161 -3.7745287 -1.5224231 34
1.9797456 -3.234452 -1.7677054 6
2.0259116 -3.3623703 1.0362191 23
2.2883072 -3.7978637 0.85681856 37
2.2897618 -3.8002779 0.62070793 30
2.2848866 -3.7921865 0.38438389 27
2.2822065 -3.7877383 0.22749875 28
2.2921767 -3.8042858 0.14989974 29
1.9646167 -3.8724711 0.12076109 24
13.8021 -19.543989 0.52457941 51
2.2849312 -3.7922604 0.070942916 29
1.9725142 -3.8880379 0.044135127 31
10.925633 -15.470868 0.079996578 1
2.2914143 -3.8030205 -0.0073617953 30
1.9797978 -3.902395 -0.032993954 24
2.6602387 -3.7669396 -0.061978966 0
2.2889252 -3.7988894 -0.085779123 45
1.9900786 -3.9226594 -0.11103304 22
2.6638033 -3.7719872 -0.1437476 7
2.2939706 -3.8072629 -0.16477554 45
1.9744135 -3.8917818 -0.18748289 28
2.6365719 -3.733427 -0.22313769 0
2.2900496 -3.8007555 -0.24303691 43
1.9870628 -3.9167149 -0.26631403 31
2.6661201 -3.7752676 -0.30754533 0
2.281306 -3.7862439 -0.32034859 45
1.9990641 -3.9403708 -0.34618843 23
2.6717837 -3.7832875 -0.39014715 16
2.2903843 -3.8013108 -0.40014094 48
2.0014102 -3.9449954 -0.42485768 23
2.6467605 -3.7478542 -0.46775338 27
2.2823091 -3.7879086 -0.47698516 51
2.2776556 -3.7801852 -0.5542472 43
2.2784696 -3.7815363 -0.63258076 40
2.284647 -3.7917888 -0.71343058 42
2.2861083 -3.794214 -0.792243 46
2.2767005 -3.7786002 -0.86765766 38
2.2707784 -3.7687714 -0.94336033 34
2.2742944 -3.7746069 -1.0229863 37
2.2731805 -3.772758 -1.1002474 43
2.2721972 -3.7711263 -1.5146159 32
1.9515043 -3.2388778 -1.7626355 6
2.0201435 -3.4063706 1.0454072 21
2.2577305 -3.8069906 0.85530072 38
2.2550921 -3.8025417 0.61849111 31
2.2502253 -3.7943354 0.38299999 26
2.2495944 -3.7932715 0.22688222 34
2.2533267 -3.7995646 0.14909019 27
1.9571592 -3.9254549 0.12198427 23
2.6403325 -3.7946999 0.10135614 5
2.2502401 -3.7943599 0.070686579 24
1.9685235 -3.9482481 0.044661511 27
2.6455126 -3.8021445 0.019564105 34
2.2525663 -3.7982826 -0.0073220017 28
1.979277 -3.9698162 -0.033446338 22
2.6293068 -3.7788537 -0.061871458 12
2.2562282 -3.8044572 -0.085547082 43
1.9965451 -4.0044508 -0.11295089 21
2.6237042 -3.7708015 -0.14300086 47
2.2571399 -3.8059947 -0.16403463 46
1.9792923 -3.969847 -0.19057328 25
2.6172886 -3.7615809 -0.22372285 26
2.2512355 -3.7960386 -0.24172439 44
1.9863935 -3.9840899 -0.26994556 27
2.6146235 -3.757751 -0.3046239 28
2.2507474 -3.7952156 -0.31977034 38
1.991079 -3.9934874 -0.34962532 24
2.6134348 -3.7560425 -0.38544658 72
2.2495654 -3.7932222 -0.39762658 48
1.9969162 -4.0051951 -0.429829 22
2.6341674 -3.7858396 -0.47018749 44
2.2476943 -3.7900674 -0.47526938 51
2.2390623 -3.7755122 -0.55125666 41
2.2419152 -3.7803226 -0.62974405 39
2.2460332 -3.7872663 -0.70961201 45
2.2414873 -3.7796011 -0.78590506 46
2.2402554 -3.7775238 -0.86379796 40
2.2404218 -3.7778044 -0.94168323 33
2.2399373 -3.7769873 -1.0193684 35
2.2368886 -3.7718468 -1.0954005 41
2.2361674 -3.7706306 -1.5081098 30
1.939941 -3.2711332 -1.7727753 6
2.0002122 -3.4270713 1.047449 18
2.2132807 -3.7921329 0.84847045 38
2.2205031 -3.8045073 0.6162743 33
2.2116287 -3.7893023 0.38092411 31
2.2109756 -3.7881835 0.22564916 34
2.2227154 -3.8082976 0.14882034 28
1.9543345 -3.9892921 0.12354103 23
2.5934269 -3.783354 0.10056704 37
2.2196634 -3.8030689 0.070558406 29
1.9655479 -4.0121813 0.045228384 28
2.5985498 -3.7908275 0.019412054 42
2.2179289 -3.800097 -0.0072954725 29
1.988469 -4.0589695 -0.034079678 22
2.589293 -3.7773235 -0.06154893 32
2.2155013 -3.7959375 -0.085005641 40
1.9931698 -4.0685649 -0.11436404 22
2.5860126 -3.7725377 -0.14237857 41
2.2204397 -3.8043985 -0.16329375 47
1.9708698 -4.0230446 -0.19246183 26
2.5841875 -3.7698755 -0.22313769 40
2.2146127 -3.794415 -0.24063061 44
1.9831232 -4.0480571 -0.27333501 28
2.5838127 -3.7693288 -0.30409274 46
2.2101197 -3.7867169 -0.31774646 48
1.9947305 -4.0717506 -0.35524932 22
2.5894027 -3.7774837 -0.38578236 38
2.2170043 -3.7985127 -0.39654902 49
2.0039408 -4.0905514 -0.4374772 23
2.5964236 -3.7877257 -0.46815905 44
2.2151661 -3.7953632 -0.47398254 52
2.2006462 -3.7704856 -0.54826611 44
2.211477 -3.7890425 -0.62860936 40
2.2115757 -3.7892118 -0.70706636 46
2.2071066 -3.7815547 -0.78308821 50
2.205915 -3.7795129 -0.86071026 40
2.2061071 -3.7798419 -0.9383291 36
2.2036939 -3.7757072 -1.0148458 36
2.2026768 -3.7739646 -1.0915229 41
2.2002556 -3.7698164 -1.5016037 31
1.920712 -3.2908592 -1.7761552 6
1.9974259 -3.4778433 1.058679 20
2.1926205 -3.8177087 0.85074717 36
2.1879697 -3.8096108 0.61461169 34
2.1811512 -3.7977388 0.38023213 33
2.1804962 -3.7965982 0.22523814 34
2.1821375 -3.7994559 0.14787588 30
1.9611157 -4.0748973 0.125765 22
2.5624757 -3.7947381 0.10039168 39
2.1870835 -3.8080678 0.070366144 29
1.9721806 -4.097888 0.046038203 28
2.5653074 -3.7989314 0.019361369 41
2.1774004 -3.791208 -0.007249047 33
1.9861023 -4.1268153 -0.034532063 23
2.5583835 -3.7886782 -0.061441422 31
2.1829715 -3.8009081 -0.0847736 43
1.9976649 -4.1508408 -0.11628188 22
2.552901 -3.7805591 -0.14200521 40
2.1878533 -3.8094084 -0.1628492 48
1.9773962 -4.1087255 -0.19589558 26
2.5600426 -3.7911348 -0.22333275 39
2.178123 -3.7924662 -0.23953684 46
1.9911748 -4.1373553 -0.2784192 29
2.5529685 -3.7806592 -0.30356157 48
2.1816425 -3.7985942 -0.31745735 51
1.9904666 -4.1358833 -0.35962352 22
2.5495851 -3.7756486 -0.38376781 39
2.1785269 -3.7931695 -0.39439383 50
2.0046885 -4.1654344 -0.44397816 25
2.5587833 -3.7892699 -0.46613064 47
2.1787121 -3.7934921 -0.47183785 52
2.1722932 -3.7823155 -0.5477677 42
2.1691947 -3.7769206 -0.62407064 44
2.1831014 -3.8011343 -0.7064299 44
2.1708477 -3.7797985 -0.77956712 52
2.1736112 -3.7846103 -0.85839444 43
2.1777172 -3.7917595 -0.93749052 37
2.171459 -3.7808633 -1.0121324 38
2.1724102 -3.7825193 -1.0895841 43
2.1701164 -3.7785254 -1.4990013 33
1.9067186 -3.3199069 -1.784605 7
1.9813861 -3.5092306 1.0637835 22
2.1510599 -3.8097396 0.84543478 41
2.1405082 -3.7910519 0.60906965 37
2.1414981 -3.792805 0.37815624 32
2.1447511 -3.7985661 0.22441611 35
2.1404686 -3.7909815 0.14693142 32
1.9585127 -4.1470118 0.12754416 25
2.5257356 -3.8000982 0.10004096 38
2.1433787 -3.7961357 0.069853462 26
1.9694178 -4.1701026 0.046686057 28
2.524106 -3.7976463 0.01926 42
2.143651 -3.7966177 -0.0072291503 33
1.9899602 -4.2135997 -0.035135243 22
2.5194726 -3.7906752 -0.061172649 34
2.1412868 -3.7924306 -0.084232159 48
1.994506 -4.2232251 -0.11789691 23
2.5140541 -3.7825227 -0.14138292 42
2.1520092 -3.8114209 -0.16225649 53
1.9779434 -4.1881547 -0.19898596 24
2.5144913 -3.7831805 -0.22177234 43
2.1443734 -3.7978971 -0.23888056 47
1.9846634 -4.202384 -0.28180864 27
2.5097218 -3.7760043 -0.3017025 49
2.1400084 -3.7901666 -0.31543347 48
1.9958574 -4.2260861 -0.36618486 22
2.5130146 -3.7809584 -0.3824248 43
2.1447871 -3.79863 -0.39331627 52
2.0030062 -4.2412233 -0.45047915 22
2.5177212 -3.7880399 -0.46369654 51
2.1430247 -3.7955089 -0.47012207 56
2.1367037 -3.7843134 -0.54577398 51
2.1356099 -3.7823761 -0.62236863 44
2.1377048 -3.7860866 -0.70070213 46
2.1372743 -3.7853241 -0.7774545 49
2.1380916 -3.7867715 -0.85530668 43
2.1421719 -3.7939982 -0.93413639 37
2.1321914 -3.7763216 -1.0067054 38
2.1350846 -3.781446 -1.0847373 42
2.1349213 -3.7811565 -1.4937963 32
1.8805488 -3.3306379 -1.7829151 7
1.9718632 -3.550025 1.0719508 24
2.1186903 -3.8143637 0.84315801 42
2.1139905 -3.8059025 0.60906965 35
2.103358 -3.7867603 0.37608036 29
2.1104217 -3.7994776 0.22359407 29
2.1139514 -3.8058319 0.14693142 32
1.9597933 -4.2258759 0.12954573 20
2.488193 -3.8009093 0.099602573 36
2.1071155 -3.793525 0.069533035 30
1.9705472 -4.2490644 0.047414895 25
2.486578 -3.7984421 0.019175528 42
2.1151521 -3.8079937 -0.0072225179 31
1.984055 -4.2781911 -0.035557467 21
2.4841847 -3.7947865 -0.060957629 34
2.1108756 -3.8002946 -0.084077463 46
1.9918913 -4.2950878 -0.11951193 22
2.478827 -3.786602 -0.14088508 40
2.1214669 -3.8193624 -0.16196012 53
1.9755576 -4.2598681 -0.20173296 25
2.4814539 -3.7906146 -0.22118719 39
2.1061714 -3.7918253 -0.23756804 46
1.9855131 -4.2813349 -0.28616652 27
2.4789274 -3.7867551 -0.30117133 50
2.1096222 -3.798038 -0.31485525 43
1.9965043 -4.3050351 -0.37180886 20
2.4734588 -3.7784014 -0.38041028 39
2.1085441 -3.7960973 -0.39152029 54
2.0051763 -4.3237343 -0.45774493 23
2.4759579 -3.7822189 -0.46085674 47
2.1068201 -3.7929933 -0.46797734 54
2.1063786 -3.7921984 -0.54477715 43
2.0995395 -3.7798855 -0.61953199 42
2.1073866 -3.794013 -0.69942927 45
2.1031487 -3.7863834 -0.77463758 47
2.1039805 -3.7878811 -0.85221893 42
2.1061378 -3.791765 -0.92994368 38
2.0963168 -3.7740839 -1.002183 35
2.1029809 -3.7860813 -1.0818291 42
2.0974529 -3.776129 -1.4859891 30
1.8554912 -3.3405156 -1.7812251 4
1.9637201 -3.5942507 1.081139 24
2.0731795 -3.7945971 0.83556885 40
2.0740733 -3.7962334 0.60519022 35
2.0730488 -3.7943578 0.37538841 30
2.0800145 -3.8071074 0.22318305 35
2.0815797 -3.8099725 0.14652665 32
1.9650376 -4.3158741 0.13188089 23
2.4507623 -3.8013818 0.09916418 36
2.0729098 -3.7941039 0.06927669 26
1.9673539 -4.3209615 0.048062749 27
2.449162 -3.7988997 0.019091053 45
2.0693374 -3.787565 -0.0071561956 31
1.985631 -4.361104 -0.036130488 18
2.4446282 -3.7918673 -0.060635101 32
2.0785408 -3.80441 -0.083845422 47
8.8151026 -19.360889 -0.53699619 10
2.4436653 -3.7903736 -0.14038727 38
2.0794189 -3.8060174 -0.16077469 47
1.9788896 -4.3462977 -0.20516673 22
2.4419408 -3.787699 -0.22001688 40
2.0739031 -3.7959216 -0.23691177 41
1.9886647 -4.3677673 -0.29100859 14
2.4416168 -3.7871964 -0.29984343 45
2.0754044 -3.7986696 -0.31369874 42
8.9016819 -19.551046 -1.6831381 10
2.4405408 -3.7855272 -0.379403 38
2.0743508 -3.796741 -0.39008352 50
2.4408677 -3.7860341 -0.459234 44
2.0726619 -3.7936499 -0.46626157 50
2.0703385 -3.789397 -0.54228503 43
2.065506 -3.7805521 -0.6172626 41
2.0713809 -3.7913053 -0.69624716 43
2.0653362 -3.7802417 -0.77041233 51
2.0699577 -3.7887003 -0.84913117 39
2.0721142 -3.7926474 -0.92658949 33
2.0643132 -3.7783692 -0.9994694 33
2.0653338 -3.7802372 -1.0760128 38
2.0637853 -3.7774029 -1.4807842 24
1.8286482 -3.3470249 -1.7778451 6
1.9605465 -3.6487546 1.0933897 22
2.0410609 -3.7985992 0.83329207 39
2.045645 -3.8071308 0.60463601 36
2.0408502 -3.798207 0.37435049 31
2.0420406 -3.8004222 0.22194999 30
2.0530384 -3.8208902 0.14639172 28
1.9152832 -4.2856812 0.13054651 1
2.411304 -3.7981424 0.09863811 37
2.0387993 -3.79439 0.069020346 27
8.877883 -19.865353 0.22027074 25
2.4075742 -3.7922676 0.01897279 41
2.0447381 -3.8054426 -0.007162828 28
18.970381 -42.448555 -0.35056829 25
2.4052343 -3.7885821 -0.060312577 31
2.0424657 -3.8012137 -0.083458677 47
8.7596722 -19.600842 -0.54194218 14
2.40643 -3.7904651 -0.13976498 36
2.0471213 -3.8098783 -0.16033016 46
8.6793823 -19.421185 -0.91389328 15
2.4047315 -3.7877898 -0.21904163 39
2.0416808 -3.7997527 -0.2362555 43
8.7398815 -19.556559 -1.2988861 3
2.4044223 -3.7873027 -0.2985155 47
2.0393925 -3.7954938 -0.31225312 44
8.9114132 -19.940382 -1.7112581 0
2.4076445 -3.7923782 -0.37839574 40
2.0383658 -3.7935832 -0.38828757 46
7.4551606 -16.681837 -1.7548801 1
2.4037125 -3.7861848 -0.45720559 44
2.0461268 -3.808027 -0.46626157 49
2.040076 -3.7967663 -0.5412882 42
2.0315659 -3.7809281 -0.61499327 45
2.0336473 -3.7848017 -0.69242859 42
2.0333037 -3.7841625 -0.76829964 47
2.0397418 -3.7961442 -0.84758729 44
2.0437348 -3.8035755 -0.92575097 40
2.0341964 -3.7858238 -0.9976604 32
2.0297081 -3.7774708 -1.0711659 39
2.0463154 -3.8083782 -1.4872903 30
1.803521 -3.3565159 -1.7761552 6
1.9512866 -3.6931295 1.1025779 24
2.0089879 -3.8023386 0.83101535 40
2.0116143 -3.8073094 0.6024192 31
2.0068374 -3.7982686 0.37296656 28
2.0061278 -3.7969258 0.22092246 34
2.0132406 -3.8103876 0.14544727 31
14.117393 -32.190845 0.9775421 24
2.3741312 -3.7979281 0.098199718 38
2.0066547 -3.7979228 0.068828091 27
18.793627 -42.853714 0.47370356 16
2.3789208 -3.8055904 0.018955896 42
2.0031722 -3.7913313 -0.0071097696 32
25.804678 -58.840492 -0.48444411 28
2.3660069 -3.7849317 -0.059990048 33
2.0046687 -3.7941637 -0.082994588 41
9.9941444 -22.788904 -0.6281442 25
2.3714328 -3.7936115 -0.13926715 37
2.0092695 -3.8028717 -0.15944108 51
8.6864338 -19.80703 -0.92917347 2
2.3697591 -3.7909338 -0.21826144 40
2.0095062 -3.8033197 -0.23559923 50
8.7169914 -19.876709 -1.3160754 0
2.3694615 -3.790458 -0.29745317 47
2.016573 -3.8166945 -0.31283137 55
9.0923071 -20.732513 -1.773747 3
2.3705466 -3.7921939 -0.37671697 40
2.0062487 -3.7971542 -0.38720998 51
7.35291 -16.766294 -1.7583218 1
2.3687847 -3.7893753 -0.45558286 44
2.0120604 -3.8081539 -0.46454579 54
2.0098116 -3.8038979 -0.54029137 45
2.0088203 -3.8020213 -0.61612797 41
2.0090199 -3.8023989 -0.69306505 46
2.0105147 -3.8052285 -0.7697081 48
2.0095232 -3.8033519 -0.84604341 35
2.0189581 -3.821209 -0.92658949 24
2.0077169 -3.799933 -0.9976604 36
2.0123518 -3.8087053 -1.0760128 36
2.028513 -3.839293 -1.4937963 18
1.7834315 -3.3754363 -1.7795352 6
1.9361538 -3.7272537 1.1087034 26
1.9751529 -3.80233 0.82797968 42
1.9795077 -3.8107135 0.60075659 36
1.9802724 -3.8121858 0.37296656 32
1.977731 -3.8072932 0.22071694 32
1.982905 -3.8172538 0.14517741 32
13.931822 -32.38044 0.98032206 20
2.3328865 -3.79057 0.097585969 37
1.985623 -3.8224862 0.069020346 29
20.353037 -47.304672 0.52132088 2
2.3376193 -3.79826 0.018837633 42
1.9914069 -3.8336205 -0.007162828 29
24.977501 -58.052883 -0.47651228 21
2.3290439 -3.7843263 -0.059721276 34
1.9818194 -3.8151639 -0.083149284 46
2.3302219 -3.7862406 -0.13839595 42
1.9900427 -3.8309944 -0.16003379 49
9.7546368 -22.671797 -1.0603428 36
2.3306713 -3.7869706 -0.21709113 39
1.9976351 -3.8456104 -0.23734929 34
9.758358 -22.680445 -1.497169 3
2.3324821 -3.7899129 -0.29612526 43
2.0009134 -3.8519213 -0.31456611 26
9.0560932 -21.048237 -1.7953056 1
2.3356578 -3.795073 -0.37537396 39
1.9870373 -3.8252087 -0.38864675 51
7.2498431 -16.850138 -1.7617635 1
2.336015 -3.7956533 -0.45436582 43
1.9909259 -3.8326945 -0.46583262 33
2.0033321 -3.8565776 -0.54577398 29
2.0114329 -3.8721721 -0.62520534 21
1.9969891 -3.8443668 -0.69815642 27
1.9984219 -3.8471248 -0.77534181 26
2.0191073 -3.886946 -0.86148214 23
2.0210795 -3.890743 -0.94000614 25
1.9991015 -3.8484333 -1.0067054 25
2.0125477 -3.8743184 -1.0905535 31
2.0313025 -3.9104226 -1.5159171 18
1.7598238 -3.387804 -1.7795352 8
1.9201912 -3.7572322 1.1138079 24
1.9552531 -3.8258379 0.8302564 45
1.9595987 -3.8343408 0.6024192 26
1.971267 -3.857172 0.37608036 21
1.9560723 -3.8274405 0.22112796 29
1.9702793 -3.8552396 0.14612187 23
13.732319 -32.508961 0.98143399 24
2.3014748 -3.7957006 0.097322933 38
1.9766084 -3.8676236 0.069597118 17
19.69644 -46.628017 0.51241291 3
2.3040812 -3.799999 0.018770054 43
1.9877812 -3.8894854 -0.0072424146 16
24.307098 -57.542976 -0.47099319 38
2.2976725 -3.7894297 -0.059560012 33
1.9601128 -3.8353467 -0.083303981 26
2.2926216 -3.7810993 -0.13764921 40
1.9773242 -3.8690243 -0.16107105 31
9.5714006 -22.658684 -1.0567374 42
2.2972181 -3.7886801 -0.21631093 38
1.9884443 -3.8907828 -0.23931807 23
9.5611115 -22.634327 -1.4899058 15
2.2928095 -3.7814093 -0.29426616 48
1.9952935 -3.9041846 -0.31774646 23
8.9675045 -21.229061 -1.8056163 1
2.2959704 -3.7866223 -0.37302366 39
1.9815663 -3.8773248 -0.39259788 26
7.1658177 -16.963871 -1.7686468 1
2.2984104 -3.7906466 -0.45193172 45
1.9980396 -3.9095578 -0.4735536 31
2.0066085 -3.9263244 -0.55374879 27
2.0073304 -3.9277372 -0.63201338 27
1.9984052 -3.9102733 -0.70770276 25
1.9907817 -3.8953562 -0.78238398 25
2.0182891 -3.9491799 -0.8722893 23
2.0219288 -3.9563017 -0.95258433 24
1.9948117 -3.9032419 -1.0175594 23
2.0150647 -3.9428711 -1.1060636 30
2.0294211 -3.9709618 -1.5341341 19
1.7422658 -3.4090862 -1.784605 6
1.8956499 -3.7740021 1.1148288 26
1.9496496 -3.8815088 0.8393634 22
1.9541192 -3.8904071 0.60906965 18
1.9729097 -3.9278166 0.38161606 18
1.9472343 -3.8767002 0.22318305 17
1.9684379 -3.9189141 0.14801081 24
13.537169 -32.681614 0.98376918 30
2.2687712 -3.8013735 0.097059898 37
1.9872577 -3.9563818 0.070942916 13
19.0536 -45.999451 0.50403124 4
2.267246 -3.7988181 0.018685579 41
1.991101 -3.9640334 -0.0073551629 17
23.964489 -57.855385 -0.4721694 32
2.2629621 -3.7916403 -0.059344992 33
1.9673954 -3.9168384 -0.0847736 24
9.7231855 -23.473843 -0.64136726 0
2.2579727 -3.7832806 -0.13715139 40
1.978972 -3.9398861 -0.16344193 25
2.2625217 -3.7909026 -0.21553072 41
1.9881239 -3.9581063 -0.2425994 24
9.3799467 -22.645191 -1.4862744 21
2.2581728 -3.7836154 -0.29320383 46
2.0055933 -3.9928858 -0.32381806 22
8.8068752 -21.261675 -1.8031168 1
2.2572222 -3.782023 -0.37100914 42
1.9866359 -3.9551439 -0.39906335 24
7.0655012 -17.057625 -1.7732358 1
2.2637331 -3.7929323 -0.45030898 45
1.9939027 -3.9696112 -0.47912988 29
2.0040884 -3.9898894 -0.5607267 25
2.0065196 -3.9947295 -0.64052343 22
1.9994181 -3.9805918 -0.71788555 25
2.0041876 -3.990087 -0.79858094 27
2.0100474 -4.0017533 -0.88078064 24
2.0223472 -4.0262408 -0.96600097 21
1.9989935 -3.9797463 -1.0338403 20
2.0153592 -4.0123286 -1.1215737 27
2.0271153 -4.0357332 -1.5536523 17
1.7135416 -3.4114473 -1.7795352 6
1.8743914 -3.7975483 1.1178916 25
1.9346719 -3.9196775 0.84467584 15
1.9514581 -3.9536867 0.6168285 18
1.9771881 -4.005816 0.3878437 19
1.9554838 -3.9618428 0.22729324 18
1.9711107 -3.9935033 0.1503045 19
13.334253 -32.838306 0.98565954 30
2.2320509 -3.7998784 0.096621506 39
1.9843712 -4.0203691 0.071840122 16
18.435549 -45.401283 0.49605456 4
2.2305415 -3.7973087 0.018601106 41
1.997016 -4.0459876 -0.0074811755 18
23.751116 -58.49194 -0.47599959 28
2.2283344 -3.7935512 -0.059129976 34
1.9594737 -3.9699264 -0.085624427 23
9.855442 -24.271025 -0.66125226 6
2.2234066 -3.785162 -0.13665356 40
1.9797251 -4.0109563 -0.16581279 24
9.2916937 -22.882681 -1.0610296 6
2.223861 -3.7859354 -0.21436043 41
1.99403 -4.039938 -0.24675575 24
9.2035999 -22.665733 -1.4833691 6
2.2155321 -3.7717564 -0.29107916 47
1.9970924 -4.0461426 -0.32699841 21
8.695734 -21.415009 -1.8109279 1
2.2226896 -3.7839413 -0.3696661 43
1.9818977 -4.0153575 -0.40373287 25
6.9657183 -17.154495 -1.7782072 1
2.2251062 -3.7880557 -0.44787487 44
1.9925438 -4.0369272 -0.48556402 31
2.0095603 -4.0714025 -0.57019675 26
2.0101271 -4.0725513 -0.6507355 23
1.9943018 -4.0404887 -0.72615904 25
1.9989386 -4.0498829 -0.80773574 27
2.0202777 -4.0931163 -0.89776325 20
2.0270798 -4.1068974 -0.9819333 21
2.005652 -4.0634847 -1.0519303 19
2.0199339 -4.0924201 -1.139992 28
2.0306993 -4.1142306 -1.5783755 17
1.7073345 -3.4590883 -1.7981248 6
1.8481901 -3.8146667 1.1189125 26
1.9401349 -4.0044408 0.85985422 20
1.9569687 -4.039186 0.62791258 16
1.9738338 -4.0739956 0.39303342 17
1.9472907 -4.0192108 0.22975935 21
1.9609578 -4.0474195 0.15178865 20
13.121243 -33.00576 0.98777229 28
2.1961362 -3.8022866 0.0962708 35
1.9757732 -4.0779986 0.072609149 15
17.806725 -44.791828 0.48795637 6
2.1966443 -3.8031662 0.018550422 43
1.9812564 -4.0893159 -0.0075342339 17
23.391159 -58.839169 -0.47741705 30
2.1944652 -3.7993934 -0.058968712 33
1.9651949 -4.0561652 -0.087171391 24
11.299248 -28.422632 -0.7720834 14
2.1896014 -3.7909725 -0.13628019 39
1.9798992 -4.0865145 -0.16833185 25
9.0174103 -22.682796 -1.048668 36
2.1920526 -3.7952163 -0.21397032 41
1.9887427 -4.1047678 -0.24981833 23
9.0062294 -22.654673 -1.4782848 2
2.1838319 -3.7809837 -0.290548 45
2.0021694 -4.1324801 -0.33278087 19
8.5385199 -21.478176 -1.8109279 1
2.1829309 -3.7794237 -0.36765158 40
1.9784658 -4.0835562 -0.40912077 25
6.8692012 -17.279095 -1.7858553 1
2.191308 -3.7939272 -0.44665781 50
1.9958445 -4.1194258 -0.49371395 30
2.007349 -4.1431713 -0.57817155 25
2.0043902 -4.137064 -0.65867823 23
1.9956232 -4.118969 -0.73761469 23
2.0018175 -4.1317539 -0.82111585 25
2.0158887 -4.1607971 -0.90934229 20
2.0242054 -4.1779628 -0.99534994 21
1.9961982 -4.1201558 -1.0627842 20
2.0118778 -4.1525183 -1.1525939 25
2.0351193 -4.200489 -1.605701 16
1.6661247 -3.4388835 -1.7812251 6
1.8181908 -3.820492 1.1168706 26
1.9340723 -4.0639892 0.86972016 20
1.9491508 -4.0956731 0.63456303 16
1.9693193 -4.1380525 0.39787713 20
1.9569507 -4.1120625 0.23428056 18
1.9687308 -4.136816 0.15462205 21
11.381311 -29.221697 0.87212634 10
2.1596582 -3.8001418 0.095832407 37
1.9781924 -4.1566973 0.073762693 15
14.581615 -37.43853 0.40673155 3
2.1621342 -3.8044984 0.018482843 45
1.9956326 -4.1933436 -0.00770004 16
14.532593 -37.31266 -0.30192181 19
2.1560297 -3.7937572 -0.058646183 35
1.9608907 -4.1203418 -0.088254265 24
11.09474 -28.48592 -0.77167964 12
2.157156 -3.7957387 -0.13590682 41
1.9822415 -4.165205 -0.17099908 24
8.8515825 -22.726578 -1.0478096 36
2.1556334 -3.7930598 -0.21299507 40
1.9926487 -4.1870737 -0.25397468 23
8.8261156 -22.661192 -1.4746534 47
2.1514664 -3.7857273 -0.28975126 49
2.0024161 -4.2075973 -0.33769599 22
8.3927078 -21.54841 -1.8118652 1
2.1525538 -3.7876406 -0.36698008 40
1.9858609 -4.1728106 -0.4166638 24
6.7816396 -17.411966 -1.7946508 1
2.154937 -3.7918344 -0.4446294 51
1.9892546 -4.1799417 -0.49929023 29
2.0056643 -4.2144227 -0.58614635 23
2.0060875 -4.215312 -0.6688903 22
1.9956689 -4.1934195 -0.74843389 23
2.0118415 -4.2274027 -0.83731282 27
2.0188379 -4.2421036 -0.92400908 20
2.0302842 -4.2661557 -1.0129594 19
2.0025482 -4.2078753 -1.0817786 20
2.0228634 -4.2505627 -1.1758591 26
2.0382538 -4.2829018 -1.6317253 17
1.6483089 -3.4635258 -1.787985 7
1.784924 -3.819077 1.112787 26
1.9389104 -4.148551 0.88489848 18
1.9590882 -4.1917238 0.64730972 17
1.9707534 -4.2166829 0.40410477 18
1.9535663 -4.1799092 0.23736319 18
1.9736559 -4.2228932 0.15732051 22
11.139983 -29.203306 0.86923516 9
2.1291723 -3.808145 0.095657051 40
1.9779131 -4.2320023 0.074852146 16
14.14883 -37.090954 0.40187261 33
2.1218567 -3.7950609 0.018364578 45
1.9951006 -4.2687769 -0.0078127878 17
14.160559 -37.1217 -0.2995694 39
2.1197324 -3.7912614 -0.058377411 33
1.9642506 -4.2027693 -0.089723878 25
10.897033 -28.566416 -0.77178061 11
2.1227996 -3.7967474 -0.135409 41
1.9835789 -4.2441249 -0.1736663 28
8.7639284 -22.974512 -1.056394 49
2.1174018 -3.7870932 -0.21182477 42
1.9921175 -4.2623944 -0.2576935 23
8.6975851 -22.800594 -1.4797375 41
2.1191413 -3.7902043 -0.2889545 48
2.00002 -4.2793031 -0.34232196 21
8.2676563 -21.673542 -1.8174891 1
2.120223 -3.7921388 -0.36597282 41
1.98873 -4.255146 -0.42348847 24
6.6684346 -17.481205 -1.7969452 1
2.1206443 -3.7928925 -0.44300666 49
2.0004373 -4.2801957 -0.50958484 28
2.0098019 -4.3002324 -0.59611481 23
2.0084639 -4.2973695 -0.67966968 18
2.0014579 -4.2823796 -0.76179874 23
2.0106218 -4.3019867 -0.84928453 26
2.0157619 -4.3129849 -0.93636012 21
2.0252912 -4.333374 -1.0255375 15
2.0094178 -4.2994103 -1.1016777 20
2.0161436 -4.3138013 -1.1894304 25
2.2036891 -4.7150793 -1.7904737 5
1.6210185 -3.4683797 -1.784605 7
1.7566055 -3.8279302 1.1117661 25
1.9426607 -4.2333751 0.90007687 19
1.9529074 -4.2557044 0.65506858 15
1.969522 -4.2919102 0.40998644 20
1.9593254 -4.26969 0.24167889 18
1.970804 -4.2947035 0.15947928 17
10.914849 -29.224178 0.86756718 13
2.0909727 -3.8018923 0.09513098 39
1.9766773 -4.3075027 0.075941607 14
13.927327 -37.289997 0.40296587 37
2.0895288 -3.7992671 0.018313896 47
1.9902748 -4.3371339 -0.0079122717 19
13.945839 -37.339561 -0.30053449 34
2.0855038 -3.7919486 -0.058162395 34
1.9665536 -4.2854414 -0.091193497 24
10.679148 -28.593096 -0.77046841 8
2.0885358 -3.7974613 -0.13491116 42
1.9855769 -4.3268962 -0.17648171 28
8.6242952 -23.09129 -1.0589694 8
2.0812857 -3.7842793 -0.21084952 41
1.9922963 -4.3415389 -0.2616311 23
8.581501 -22.976709 -1.4872427 37
2.0849366 -3.7909174 -0.28789216 49
2.0033748 -4.3656807 -0.34810442 9
8.1300974 -21.768089 -1.8206136 1
2.0879357 -3.7963705 -0.36496556 43
1.9872214 -4.3304801 -0.42959476 23
6.5699139 -17.590746 -1.8034462 1
2.0864437 -3.7936575 -0.44138393 48
1.9987047 -4.355504 -0.51687688 27
5.8216691 -12.686368 -1.7529564 1
5.1442056 -11.210064 -1.7672547 2
1.9929242 -4.3429074 -0.77007228 10
4.1466513 -9.036231 -1.7781454 2
3.7633145 -8.2008762 -1.7746842 2
3.4484115 -7.5146518 -1.7726789 3
3.1916664 -6.9551625 -1.7764325 3
2.9635913 -6.4581494 -1.7749364 5
2.1691403 -4.7269111 -1.7891725 5
1.5997894 -3.4862022 -1.787985 6
1.7218964 -3.822469 1.1066616 27
1.9437066 -4.3148699 0.9144963 20
1.9621983 -4.3559194 0.66836941 17
4.4616938 -9.9045944 0.94314176 2
1.9507987 -4.3306136 0.24435051 18
1.9670445 -4.3666778 0.16163805 8
10.909616 -29.844202 0.88369095 6
2.0567687 -3.8023274 0.094780266 40
8.909811 -19.779051 0.34760109 16
13.709226 -37.502781 0.40422109 36
2.0534384 -3.7961709 0.018229421 44
8.9503708 -19.869091 -0.036132488 10
