# .PCD v0.7 - Point Cloud Data file format
VERSION 0.7
FIELDS x y z intensity
SIZE 4 4 4 4
TYPE F F F F
COUNT 1 1 1 1
WIDTH 1368
HEIGHT 1
VIEWPOINT 0 0 0 1 0 0 0
POINTS 1368
DATA ascii
11.014424 -12.462687 -1.2053549 0
8.8904781 -11.670421 -1.149483 34
12.773255 -12.495399 -1.5051891 3
11.618675 -13.146389 -1.5818857 2
8.9178963 -11.706412 -1.4133879 31
11.005803 -10.766395 -1.5695904 1
9.9683142 -11.279025 -1.6235511 2
8.7100744 -9.8553429 -1.6517763 2
7.6408911 -8.6455755 -1.6532199 2
6.8700466 -7.7733736 -1.6718842 3
6.2294044 -7.0484953 -1.682372 3
5.6764703 -6.4228568 -1.6859113 4
5.2293129 -5.916904 -1.6930174 4
4.8277411 -5.4625306 -1.6923143 4
4.5153971 -5.1091166 -1.7032022 6
3.3514695 -3.7921469 -1.7410275 6
2.4825151 -2.8089354 -1.7474258 6
3.3297715 -3.8237188 1.3384072 20
3.6108191 -4.1464577 1.0624853 27
3.9543326 -4.5409288 0.84238935 2
8.6257153 -9.9052763 1.1403505 10
13.825321 -15.876206 1.0830338 29
13.880358 -15.939406 0.71333921 29
8.7898674 -11.715521 0.40731847 27
13.827188 -13.726199 0.42716879 43
13.91537 -15.979613 0.33952627 22
8.8264208 -11.764241 0.14888521 35
13.870131 -13.768826 0.082547687 40
13.959167 -16.029907 -0.035243765 20
8.8578291 -11.806103 -0.11128673 34
13.897387 -13.795884 -0.26318213 29
11.075438 -12.718398 -0.32617724 0
8.8864574 -11.844259 -0.3737776 30
12.603733 -12.511679 -0.55283707 0
10.938653 -12.561322 -0.61746371 0
8.8283329 -11.766788 -0.63198215 35
12.620356 -12.52818 -0.86816949 1
10.837983 -12.445718 -0.90389603 0
8.8610096 -11.810342 -0.89529932 34
12.567851 -12.476059 -1.1783926 2
10.867756 -12.479907 -1.1992834 0
8.8908472 -11.850111 -1.160731 32
12.539878 -12.448291 -1.4884013 2
11.537696 -13.249228 -1.5840409 2
8.9154797 -11.882941 -1.4267722 28
10.9633 -10.883227 -1.5748644 1
9.8749218 -11.339794 -1.6218354 3
8.6454191 -9.9279032 -1.6532716 2
7.5721121 -8.6953793 -1.6520853 2
6.7999148 -7.8086319 -1.668702 2
6.1801562 -7.0969367 -1.6830763 4
5.6318145 -6.4672527 -1.6866833 3
5.1832323 -5.952127 -1.6921788 4
4.8106003 -5.5242171 -1.7004547 4
4.4880195 -5.1537843 -1.7070798 6
3.3235826 -3.8166115 -1.7410275 6
2.4523349 -2.8161206 -1.7406659 6
2.5799141 -3.0047269 1.0454072 11
3.5817831 -4.1715651 1.0624853 28
3.958663 -4.6105027 0.8501482 3
8.4654932 -9.8594341 1.1282412 10
13.818239 -16.093571 1.0912541 27
13.875516 -16.16028 0.71887106 31
8.7934446 -11.892341 0.41132161 29
13.829666 -13.921696 0.43023753 41
13.91811 -16.209887 0.34234604 25
8.8249302 -11.934921 0.15026189 32
13.883608 -13.975996 0.083206579 38
13.953753 -16.251398 -0.035515688 30
8.8608027 -11.983437 -0.11237246 32
13.905029 -13.997561 -0.26517105 24
10.918641 -12.716521 -0.32416618 0
8.8820076 -12.012113 -0.3771086 27
12.417459 -12.500091 -0.54848111 0
10.809029 -12.588861 -0.61509287 0
8.8338814 -11.947027 -0.63833463 35
12.577636 -12.661334 -0.87129027 4
10.717007 -12.481686 -0.90105224 0
8.8661737 -11.9907 -0.90425712 31
12.390434 -12.472887 -1.169894 2
10.710193 -12.473749 -1.1914769 0
8.8885126 -12.020911 -1.1713542 28
12.331876 -12.413939 -1.4739639 2
11.457892 -13.344566 -1.5858368 2
8.8914862 -12.024932 -1.4363325 9
10.90949 -10.982086 -1.5781099 3
9.8214216 -11.438632 -1.6261247 6
8.5888252 -10.003074 -1.6557637 2
7.5189605 -8.7570438 -1.6537873 2
6.7658143 -7.8798838 -1.6737934 3
6.1253295 -7.1339355 -1.6816678 3
5.5967541 -6.5183244 -1.6897711 3
5.1491957 -5.9970698 -1.6946944 4
4.7719164 -5.5576673 -1.7004547 4
4.4519296 -5.1849914 -1.7070798 7
3.2943926 -3.8368523 -1.7397263 6
2.4420619 -2.8441753 -1.7474258 6
2.5638721 -3.0285683 1.047449 16
3.5373473 -4.1784835 1.0579319 30
3.9622128 -4.6803551 0.85790706 3
8.3449583 -9.8574638 1.1213216 10
13.819116 -16.323799 1.1002966 29
13.876011 -16.391006 0.72480768 32
8.7879152 -12.06008 0.41499114 27
13.827286 -14.115033 0.43321857 49
13.920892 -16.444023 0.34522989 26
8.819129 -12.102915 0.1515981 21
13.875273 -14.164019 0.083747216 43
13.961428 -16.491905 -0.035827402 24
13.910528 -14.200008 -0.26715997 29
10.772748 -12.725285 -0.32246453 0
12.259945 -12.515076 -0.54536968 0
10.653728 -12.584691 -0.61124021 0
8.8161602 -12.098842 -0.64314187 18
12.427428 -12.686045 -0.86699915 2
10.56509 -12.47999 -0.89558339 0
9.0996799 -12.487928 -0.93694115 1
12.275126 -12.530573 -1.1672381 1
10.581604 -12.499496 -1.186851 0
12.194703 -12.448477 -1.4679203 2
11.37732 -13.439434 -1.5876328 3
9.1543627 -12.562972 -1.4929292 1
10.852047 -11.07788 -1.5809495 1
9.7541733 -11.522096 -1.6282694 5
8.5341673 -10.080966 -1.6587542 2
7.4704337 -8.8244333 -1.656624 2
6.7208443 -7.938982 -1.6763391 3
6.1033616 -7.2095819 -1.6894141 3
5.5637908 -6.5722151 -1.6936307 3
5.117311 -6.0448122 -1.6980486 4
4.7279654 -5.5848985 -1.6986457 4
4.4231458 -5.2248311 -1.7099879 6
3.2699697 -3.8626444 -1.7410275 6
2.4244885 -2.8639219 -1.7491157 7
2.5302751 -3.0315478 1.0423445 20
3.5055735 -4.2000623 1.0571729 27
3.9573638 -4.7413568 0.8640033 3
8.2325277 -9.8634729 1.1154399 11
13.807208 -16.542553 1.1085169 25
13.879079 -16.628662 0.73101419 36
13.871505 -19.318466 0.66140604 46
13.822879 -14.309009 0.43619964 45
13.926204 -16.685123 0.34824193 27
13.866826 -19.311951 0.24067818 61
13.878881 -14.36698 0.084372319 38
13.908319 -14.397454 -0.26904139 3
10.640082 -12.747988 -0.32114962 0
10.53028 -14.665235 -0.45574018 11
12.125054 -12.551475 -0.5432539 0
10.522067 -12.606593 -0.60872114 0
12.044326 -12.467907 -0.84632385 18
10.403488 -12.464522 -0.88923949 0
9.0262489 -12.570611 -0.93839377 1
12.054245 -12.478175 -1.1544901 3
9.5993385 -11.501062 -1.0856578 6
8.9919395 -12.522829 -1.2079102 2
12.342896 -12.776977 -1.4964595 1
11.288324 -13.524653 -1.5883511 3
9.0734005 -12.636277 -1.4940764 0
10.818685 -11.199162 -1.5874405 1
9.6836901 -11.602124 -1.6299852 4
8.4712105 -10.149442 -1.6602495 2
7.4314804 -8.9037304 -1.6617301 2
6.6854997 -8.009964 -1.6814305 3
6.0554032 -7.2550383 -1.6901184 3
5.5202875 -6.6139116 -1.6944027 3
5.0875163 -6.0954037 -1.7022413 4
4.7163239 -5.6506748 -1.7085953 4
4.3940215 -5.2645211 -1.7128961 6
3.2477713 -3.891187 -1.7436299 7
2.4137282 -2.8919115 -1.7558756 6
2.5065928 -3.0461516 1.0413237 19
3.46369 -4.2092695 1.0533783 24
3.9619246 -4.8147521 0.8723163 2
8.1178923 -9.8653164 1.1092123 10
13.780226 -16.7465 1.1157098 18
9.4850044 -11.526707 0.50380343 11
13.807891 -19.516024 0.66485316 56
13.827463 -14.515192 0.43953142 63
9.4942694 -11.537967 0.23942435 29
13.851794 -19.578077 0.2427837 48
13.880323 -14.570681 0.084997423 41
9.4598923 -11.49619 -0.024685226 27
2.6428976 -3.7354624 -0.034501903 0
12.113605 -12.716092 -0.23603611 0
9.5292883 -11.580523 -0.29005563 6
10.434569 -14.748184 -0.456043 2
11.957161 -12.551868 -0.53964466 0
9.4838905 -11.525353 -0.55330205 20
9.2349548 -13.052653 -0.68692219 0
9.4660511 -11.503674 -0.81595653 26
8.9313517 -12.623542 -0.93766743 0
11.884252 -12.475332 -1.1465226 0
9.4529057 -11.4877 -1.0781406 42
2.6809621 -3.7892625 -0.36368531 0
12.630041 -13.258215 -1.5424579 5
9.4875031 -11.529743 -1.3462552 39
2.6653624 -3.7672141 -0.44321334 16
10.770429 -11.306111 -1.5919031 3
9.4735832 -11.512828 -1.6081091 28
8.4253683 -10.238978 -1.6652337 2
7.381721 -8.9706802 -1.6645666 2
6.6244001 -8.0503416 -1.6801577 3
6.014616 -7.3092971 -1.6929352 3
5.4689932 -6.6462264 -1.6928588 2
5.0473251 -6.1337914 -1.7030798 4
4.6544795 -5.6563835 -1.7004547 4
4.3596287 -5.2980642 -1.7138654 7
3.2181244 -3.9108446 -1.7423288 6
2.3819625 -2.8946941 -1.7474258 6
2.4730828 -3.048559 1.0362191 19
3.4292707 -4.2272477 1.0518605 17
6.2267442 -7.6756821 1.3827378 17
7.9986105 -9.8598537 1.1022927 10
9.3770952 -11.559107 0.76572752 41
9.3614855 -11.539865 0.50150973 39
13.832574 -14.725045 0.44295087 56
9.3605747 -11.538742 0.23807853 31
2.6418555 -3.7898302 0.046767041 19
13.868639 -14.763437 0.08555495 35
9.3264837 -11.496717 -0.024545949 35
2.6396282 -3.7866352 -0.034803491 26
11.953335 -12.724558 -0.2346385 1
9.3701038 -11.550488 -0.28765786 36
2.6320026 -3.775696 -0.11618094 31
11.784383 -12.544705 -0.53578651 0
9.3603868 -11.53851 -0.55078298 41
2.6441267 -3.7930884 -0.1986426 20
11.745976 -12.503821 -0.83754659 0
9.3377008 -11.510545 -0.81180018 47
2.643997 -3.7929022 -0.28035602 32
11.712154 -12.467817 -1.1382896 0
9.3247213 -11.494546 -1.0726473 48
2.6270773 -3.7686305 -0.35993597 39
12.657251 -13.473891 -1.5572311 4
9.3565817 -11.53382 -1.3390713 43
2.6207814 -3.7595987 -0.44015408 48
10.683061 -11.372327 -1.590686 2
9.3403635 -11.513827 -1.5991013 33
8.3586817 -10.303713 -1.6662306 2
7.3239031 -9.0281448 -1.6657014 2
6.5605726 -8.0871916 -1.6782484 3
5.9659209 -7.354166 -1.6936395 3
5.4372964 -6.7025332 -1.6974905 3
5.0019164 -6.1658416 -1.7022413 5
4.6099677 -5.6826882 -1.6986457 4
4.3274245 -5.3343987 -1.7158042 6
3.18836 -3.9302781 -1.7410275 6
2.3753998 -2.9281456 -1.7575656 4
2.4348311 -3.0446072 1.0290728 19
3.389864 -4.2388172 1.0488248 9
6.1606355 -7.7034974 1.3799667 24
7.8972249 -9.8749962 1.0977949 9
9.2537546 -11.571254 0.76223385 34
9.2407455 -11.554986 0.49935094 33
2.6076665 -3.7970161 0.12810016 43
13.827271 -14.926871 0.4461073 52
9.2248363 -11.535093 0.23666865 31
2.6085408 -3.7982893 0.046645567 60
13.882118 -14.986079 0.086281426 37
9.2085199 -11.51469 -0.024446465 30
2.6018071 -3.7884846 -0.034652699 35
11.826156 -12.766619 -0.23388593 0
9.2392826 -11.553157 -0.28611088 47
2.5987887 -3.7840893 -0.11587813 41
11.644896 -12.570944 -0.53342181 0
9.2246809 -11.534899 -0.54752302 47
2.6085329 -3.7982779 -0.19795585 41
11.590521 -12.512245 -0.83267027 0
9.2172022 -11.525547 -0.80830008 48
2.6084125 -3.7981026 -0.27938762 45
11.573296 -12.493649 -1.1332434 0
9.1969042 -11.500166 -1.0671539 48
2.6007042 -3.7868783 -0.35993597 32
12.592672 -13.594091 -1.5609244 4
9.2161169 -11.52419 -1.3304507 65
2.5944715 -3.7778029 -0.44015408 42
10.600702 -11.443712 -1.5902803 2
9.2125616 -11.519744 -1.5909514 36
8.2964592 -10.374215 -1.6682243 2
7.278007 -9.1007023 -1.6696727 2
6.5212193 -8.1543856 -1.6827034 2
5.916893 -7.3987126 -1.6943437 3
5.4026279 -6.7556553 -1.7013501 4
4.9734054 -6.2189388 -1.7072725 4
4.5993853 -5.7512493 -1.7094997 4
4.2949257 -5.3705416 -1.717743 6
3.1679308 -3.9613035 -1.7449311 7
2.3526354 -2.9418266 -1.7558756 7
2.4183049 -3.0676055 1.0311146 20
3.3553259 -4.2562113 1.047307 3
6.0699172 -7.6996541 1.3716537 21
5.8593502 -7.4325509 0.82170278 13
9.1158657 -11.563421 0.75750715 35
9.1103516 -11.556426 0.49665248 38
2.5698919 -3.7985697 0.12754416 36
13.838703 -15.150001 0.44987747 52
9.0846567 -11.523832 0.23513059 25
2.5729949 -3.8031561 0.046483602 40
13.893161 -15.209618 0.087007895 38
9.0783806 -11.515872 -0.024313821 32
2.561847 -3.7866783 -0.034471743 41
11.623448 -12.724837 -0.23162824 0
9.1064062 -11.551423 -0.28448659 50
2.5611038 -3.7855802 -0.11537343 42
11.502924 -12.592893 -0.53093266 0
9.0993834 -11.542514 -0.54485583 54
2.566277 -3.7932265 -0.19675402 47
11.416665 -12.49846 -0.82642871 0
9.0796423 -11.517473 -0.80326873 47
2.5684094 -3.7963781 -0.277935 44
11.413115 -12.494573 -1.1260728 0
9.0694666 -11.504564 -1.0616606 49
2.5585616 -3.7818222 -0.35774887 44
12.492088 -13.675785 -1.5602529 4
9.0910435 -11.531935 -1.3239852 52
2.5546474 -3.7760367 -0.43785959 48
10.544708 -11.54388 -1.5939314 2
9.0851336 -11.524438 -1.5828015 38
8.2484026 -10.46305 -1.6732086 2
7.2241001 -9.1637287 -1.6719421 2
6.4665761 -8.2028131 -1.6833397 3
5.8845973 -7.4645767 -1.6999774 3
5.3674817 -6.8086185 -1.7052097 4
4.9274459 -6.2504363 -1.706434 4
4.5591216 -5.7832189 -1.7094997 4
4.2669377 -5.4125853 -1.7216206 7
3.1448817 -3.989264 -1.7475336 7
2.3275514 -2.9524851 -1.7524956 6
2.3897107 -3.0752523 1.0280519 21
3.3014321 -4.2485209 1.0397178 0
5.9795547 -7.694922 1.3633406 23
5.8611126 -7.5425024 0.82931429 7
8.9809904 -11.557386 0.75298595 32
8.9828434 -11.559771 0.49408895 34
2.5322237 -3.799782 0.12698817 37
13.836978 -15.362127 0.45329693 35
8.9647179 -11.536446 0.23410523 25
2.5330727 -3.8010561 0.046240658 42
13.885689 -15.416206 0.087632999 40
8.9535847 -11.522119 -0.02419444 31
2.5309126 -3.7978146 -0.034411427 40
11.467409 -12.731378 -0.23028438 0
8.9789162 -11.554716 -0.28301695 50
2.523526 -3.7867305 -0.11486873 39
11.331781 -12.5808 -0.52707452 0
8.9646196 -11.536319 -0.54159588 52
2.528652 -3.7944224 -0.19589558 50
11.262284 -12.503643 -0.8215524 0
8.9622536 -11.533275 -0.79998738 23
2.5285583 -3.794282 -0.27648237 44
11.25616 -12.496843 -1.1191676 0
8.9252806 -11.485695 -1.0541434 8
2.52104 -3.7830002 -0.35618663 48
12.380302 -13.744892 -1.5582384 3
8.9663134 -11.538499 -1.3175197 49
2.5193915 -3.7805264 -0.43632996 40
10.506472 -11.664523 -1.6004224 2
8.9556513 -11.524778 -1.5742226 24
8.1848965 -10.532915 -1.6752023 2
7.1818151 -9.2420778 -1.6770481 2
6.4358068 -8.2820597 -1.6903404 2
5.8395901 -7.5148053 -1.70209 3
5.3294506 -6.8583217 -1.7082975 4
4.8764901 -6.2754192 -1.7039185 4
4.5234175 -5.8210597 -1.7113087 4
4.2242842 -5.4361134 -1.7196817 7
3.1169548 -4.0111222 -1.7475336 7
2.313556 -2.9772506 -1.7575656 6
2.3611288 -3.0826488 1.0249891 20
5.096199 -6.6535087 1.6195313 21
4.5695262 -5.9658942 1.051324 2
5.8592019 -7.649672 0.83657992 5
8.8563652 -11.562716 0.74928677 31
8.8533077 -11.558724 0.49139047 39
2.494664 -3.8006539 0.12643218 38
13.846239 -15.589913 0.45715475 32
8.8499155 -11.554296 0.23320803 29
2.4933057 -3.7985847 0.045997713 41
13.899911 -15.650344 0.088410161 37
8.865633 -11.574816 -0.024174543 23
2.4823883 -3.7819521 -0.034109835 39
11.285289 -12.706459 -0.22840297 0
8.8469648 -11.550443 -0.28139266 52
2.488251 -3.7908838 -0.11446498 38
11.137477 -12.540033 -0.52209628 0
8.85956 -11.566887 -0.54011405 63
2.4911358 -3.7952788 -0.19503716 43
11.097779 -12.495337 -0.81589597 1
8.8669491 -11.576534 -0.79867488 5
2.4888623 -3.791815 -0.27502975 41
11.105032 -12.503502 -1.1127936 0
8.8982515 -11.617402 -1.0605042 26
2.4858153 -3.787173 -0.35493687 40
12.273457 -13.819068 -1.5568954 2
8.8564749 -11.56286 -1.3132094 25
2.4754579 -3.7713933 -0.43327069 47
10.437995 -11.752464 -1.6024508 3
8.8870697 -11.602804 -1.5763673 21
8.1039267 -10.580345 -1.673707 2
7.1267519 -9.3045635 -1.6793175 2
6.3874378 -8.3393278 -1.6928861 2
5.7845922 -7.5522628 -1.7013859 3
5.2886028 -6.9047074 -1.7106134 3
4.8539667 -6.337254 -1.7114652 3
4.4874086 -5.8586826 -1.7131177 4
4.1956706 -5.4777942 -1.7235593 7
3.0888772 -4.032784 -1.7475336 6
2.2883062 -2.9875727 -1.7541857 6
2.3278992 -3.0836239 1.0198846 21
5.0590892 -6.7014623 1.6225669 28
4.515831 -5.9818416 1.048553 4
7.4527502 -9.8721972 1.0739223 8
8.7706137 -11.617888 0.74887574 29
8.82057 -11.684063 0.49408895 26
2.4615583 -3.8079031 0.12609859 34
13.834546 -15.797511 0.46039885 31
8.8389187 -11.708367 0.2350665 22
2.4558697 -3.7991025 0.045795258 38
13.895723 -15.86737 0.089085951 39
8.8713713 -11.751356 -0.024413304 24
2.4537544 -3.7958305 -0.034079678 40
11.1357 -12.71573 -0.22716662 0
8.8143034 -11.675762 -0.28293961 45
2.4508717 -3.7913711 -0.11396028 37
11.036489 -12.602442 -0.52147394 0
8.8532515 -11.727354 -0.54470766 39
2.4515629 -3.7924404 -0.19400702 45
10.931312 -12.482341 -0.81004447 0
8.8773584 -11.759287 -0.80698752 33
2.455828 -3.7990382 -0.27430344 41
10.941216 -12.493651 -1.1050917 0
8.8938494 -11.781132 -1.069756 38
2.4484916 -3.7876894 -0.35337463 43
10.987112 -12.54606 -1.4047984 0
8.8523445 -11.726153 -1.3247036 45
2.4296148 -3.7584879 -0.429829 41
10.347828 -11.816068 -1.6012338 2
8.8873196 -11.772482 -1.5909514 29
8.0609503 -10.677842 -1.6801865 2
7.0687766 -9.3635712 -1.6810194 2
6.3338208 -8.3900204 -1.6941589 2
5.7364712 -7.5987482 -1.7027943 3
5.2402697 -6.9414606 -1.7106134 3
4.8096061 -6.3709869 -1.7114652 3
4.4534411 -5.8991976 -1.7158312 4
4.1573262 -5.5069523 -1.7235593 6
3.0606477 -4.0542502 -1.7475336 7
2.2717619 -3.0092623 -1.7575656 5
2.3109319 -3.1060064 1.0219264 18
5.0004587 -6.7208629 1.6187723 26
4.4503131 -5.9814401 1.043011 6
7.3408298 -9.866437 1.0676947 7
8.7822886 -11.803828 0.75689059 26
8.8151474 -11.847993 0.49840647 25
2.419884 -3.801384 0.12532021 34
13.846765 -16.035967 0.46451974 31
8.8333588 -11.87247 0.23711726 24
2.4185476 -3.7992847 0.045592804 40
13.891794 -16.088118 0.089778632 34
8.8607454 -11.909279 -0.024612272 23
2.4100111 -3.7858748 -0.033838406 39
11.002222 -12.741697 -0.22625279 0
8.8089685 -11.839687 -0.28541476 35
2.409312 -3.7847767 -0.11325371 36
10.914274 -12.639844 -0.51985604 0
8.8451309 -11.888292 -0.54930121 37
2.4207349 -3.8027205 -0.19366366 45
10.791682 -12.49787 -0.80614346 0
8.8737221 -11.92672 -0.81420648 32
2.4206696 -3.802618 -0.27333501 39
10.78852 -12.494207 -1.0984521 0
8.9042616 -11.967766 -1.0810319 27
2.4134233 -3.7912347 -0.35212487 38
10.80548 -12.513849 -1.3927112 0
8.8534975 -11.899536 -1.3372753 38
2.4097311 -3.7854352 -0.43097621 39
10.301497 -11.930186 -1.6069133 2
8.890377 -11.949104 -1.6063933 25
7.9956851 -10.746594 -1.6821802 2
7.0126886 -9.4253988 -1.6832888 2
6.2798076 -8.4403706 -1.6954318 3
5.6997347 -7.6607242 -1.7077239 3
5.1916814 -6.9778757 -1.7106134 4
4.7766838 -6.4200983 -1.7156579 3
4.4261031 -5.9489007 -1.7212582 4
4.1257286 -5.5451822 -1.7264674 7
3.0345266 -4.0785532 -1.7488348 7
2.2506979 -3.025049 -1.7575656 7
2.2857051 -3.1150286 1.0198846 21
4.9464808 -6.7412148 1.6157366 29
4.3917961 -5.9852734 1.0385774 8
7.2398691 -9.8667145 1.0625049 7
8.7888851 -11.97776 0.76428896 28
8.8286104 -12.031898 0.50366849 26
2.3839951 -3.8004141 0.12476422 37
13.836061 -16.24008 0.46776384 38
8.8514318 -12.063001 0.23974477 21
2.382669 -3.7983003 0.045390349 40
13.896332 -16.310823 0.090505108 38
8.8549223 -12.067758 -0.024817871 6
2.3827233 -3.7983868 -0.033808246 40
10.842252 -12.726095 -0.22469391 0
8.8130579 -12.010703 -0.28812194 33
2.3756573 -3.787123 -0.11284995 37
10.744638 -12.611523 -0.51574898 0
8.8559504 -12.069159 -0.554932 36
2.386966 -3.8051503 -0.19297689 47
10.648962 -12.499222 -0.80165726 0
8.8558588 -12.069035 -0.81989408 7
2.3847876 -3.8016777 -0.2721245 41
10.630354 -12.477381 -1.0907501 0
2.3797488 -3.7936454 -0.35087508 40
10.644699 -12.494218 -1.3826386 0
8.8615828 -12.076835 -1.3505654 25
2.369761 -3.7777233 -0.42829937 39
10.235049 -12.013391 -1.6089418 2
8.8673964 -12.084758 -1.616688 9
7.9195385 -10.792988 -1.6811833 2
6.9687619 -9.497241 -1.6878275 2
6.2400441 -8.5041218 -1.6998868 3
5.6581187 -7.7110562 -1.7105407 3
5.161541 -7.0343051 -1.7160169 3
4.7386265 -6.4579444 -1.7173351 3
4.3819408 -5.9718423 -1.7194492 4
4.084269 -5.5661659 -1.7245287 6
3.0074098 -4.0985894 -1.7488348 7
2.2327302 -3.0428329 -1.7592555 6
2.2593708 -3.1246412 1.0178428 20
4.8992991 -6.7755818 1.6157366 27
4.3243723 -5.9804754 1.0324812 10
7.135787 -9.868577 1.0573152 6
8.7612295 -12.116514 0.76922119 2
13.918891 -19.249403 0.80171394 29
2.3405964 -3.7897491 0.12387463 40
13.84581 -16.483259 0.47197241 52
13.943777 -19.283819 0.38131016 34
2.3455849 -3.7978263 0.045187894 40
13.905613 -16.554455 0.091316052 40
10.828307 -14.97522 -0.030640986 12
2.3456383 -3.7979128 -0.03365745 37
10.709409 -12.749414 -0.22378008 0
2.3386543 -3.7866046 -0.11234526 36
10.594616 -12.612755 -0.51276201 0
2.3477433 -3.801321 -0.19194677 42
10.49977 -12.499842 -0.79697609 0
9.0849867 -12.56426 -0.84920728 0
2.3539927 -3.8114395 -0.2716403 43
10.489079 -12.487113 -1.0851729 0
9.046752 -12.511383 -1.1189071 2
2.34692 -3.7999878 -0.34993774 42
10.503376 -12.504135 -1.3755877 1
2.3328686 -3.7772367 -0.42638731 40
10.156049 -12.090647 -1.6097531 2
8.936614 -12.359066 -1.6449983 3
7.8486505 -10.854445 -1.6821802 2
2.7214746 -3.7637167 -0.66548628 5
6.1874661 -8.5570774 -1.7017961 2
5.599535 -7.7439871 -1.7091322 1
2.7159855 -3.7561255 -0.91165811 4
2.7179711 -3.7588713 -0.99451143 20
4.3424273 -6.005445 -1.7203537 3
2.7218874 -3.7642875 -1.160349 11
2.7061176 -3.7424784 -1.5887852 0
2.1965632 -3.0377803 -1.7474258 7
2.2464788 -3.1529377 1.0219264 19
4.8541565 -6.812819 1.6164956 28
4.2687235 -5.9911623 1.029156 9
7.025094 -9.8597345 1.0510876 6
12.54292 -17.604015 1.1120106 1
13.837521 -19.42099 0.8048172 33
2.3120055 -3.8025801 0.12376343 36
13.837526 -16.708878 0.4756549 60
13.885397 -19.488184 0.383425 27
2.308625 -3.7970202 0.04498544 40
12.429867 -15.009123 0.082311161 9
10.681717 -14.991812 -0.030521605 12
2.3024435 -3.7868533 -0.033416178 36
9.5410337 -11.520844 -0.20104192 8
10.633322 -14.923889 -0.35440934 0
2.3038533 -3.7891722 -0.11194149 38
9.5194254 -11.494751 -0.4645972 26
9.67237 -13.575191 -0.6179083 0
2.308692 -3.7971301 -0.19091664 44
9.527997 -11.505101 -0.72929358 0
2.6861365 -3.7699983 -0.25353715 0
2.3107336 -3.8004878 -0.26970348 42
9.5361147 -11.514904 -0.9948746 18
8.9337206 -12.538496 -1.1157267 2
2.3079045 -3.795835 -0.34806308 39
9.5209332 -11.496572 -1.2574019 34
8.9463921 -12.556279 -1.3900766 0
2.3023055 -3.7866261 -0.42562249 41
9.5079231 -11.480862 -1.5196913 38
8.9031916 -12.495648 -1.654864 2
7.7818928 -10.921903 -1.6841738 0
2.6882401 -3.7729504 -0.66378427 14
2.6788092 -3.7597146 -0.74397892 14
2.6732767 -3.7519495 -0.82393271 1
2.6942515 -3.7813876 -0.91320199 1
2.6303859 -3.6917522 -0.97187078 1
2.6724856 -3.7508392 -1.0691156 1
2.6977935 -3.7863588 -1.1613183 1
2.6711447 -3.7489574 -1.5835803 16
2.1900284 -3.0737097 -1.7592555 9
2.2122009 -3.1534896 1.0168219 22
4.7973199 -6.8385735 1.6142188 29
4.195116 -5.9801331 1.0219513 9
2.6547239 -3.7843056 0.40133694 1
13.606487 -19.396032 1.2188754 19
13.825651 -19.708448 0.81250781 6
2.2738085 -3.8022678 0.12320744 33
9.4397402 -11.570143 0.32739085 85
2.6666653 -3.8013282 0.074403547 1
2.2725182 -3.8001099 0.044823475 43
9.4191666 -11.544927 0.062932894 35
2.6601126 -3.7919872 -0.0076801432 21
2.2725699 -3.8001966 -0.033386018 38
9.3981724 -11.519195 -0.19980556 36
2.6550255 -3.7847354 -0.089414485 0
2.2678063 -3.7922308 -0.11153774 38
9.3818331 -11.499168 -0.46198362 39
2.6743593 -3.8122959 -0.17262904 2
2.2725911 -3.8002322 -0.19022989 42
9.4029942 -11.525105 -0.72617275 29
2.6584289 -3.7895873 -0.25353715 21
2.2643695 -3.7864838 -0.26752454 45
9.3959436 -11.516462 -0.98903179 49
2.6485758 -3.7755415 -0.33422649 39
2.265691 -3.7886937 -0.34587598 44
9.3834896 -11.501198 -1.2503512 47
2.6653843 -3.7995021 -0.41845977 5
2.2663121 -3.7897322 -0.42409283 39
9.3606186 -11.473166 -1.5095493 39
2.6447768 -3.7701261 -0.49671656 32
2.6485012 -3.775435 -0.57916838 31
2.644593 -3.7698641 -0.65981293 56
2.6489093 -3.7760172 -0.74334246 1
2.6411793 -3.764998 -0.82252431 22
2.6439204 -3.7689054 -0.90548259 10
2.6526678 -3.7813749 -0.99031872 26
2.6292553 -3.7480004 -1.0627842 17
2.6454501 -3.771086 -1.1506552 3
2.6414196 -3.7653406 -1.5822791 54
2.1674383 -3.0896807 -1.7592555 7
2.1967282 -3.1784015 1.0198846 21
4.7449946 -6.865437 1.6127009 4
2.6216922 -3.7932732 0.6450929 29
2.6078484 -3.773243 0.3982231 27
2.6164727 -3.7857213 0.23674667 27
2.611623 -3.7787044 0.15502681 24
2.2370672 -3.8008199 0.12265145 34
9.3061037 -11.570322 0.3255496 39
2.6082268 -3.7737906 0.073506348 23
2.2378173 -3.8020942 0.044661511 40
9.2831879 -11.54183 0.062561214 43
2.6222034 -3.794013 -0.0076469821 48
2.2338107 -3.7952869 -0.033205066 38
9.2698994 -11.525309 -0.19878423 35
2.6194429 -3.790019 -0.089105092 26
2.2331626 -3.7941861 -0.11113399 46
9.2562246 -11.508307 -0.45974338 40
2.6204071 -3.7914138 -0.1708509 37
2.239924 -3.8056736 -0.18971483 46
9.2797394 -11.537543 -0.72285688 44
2.6091993 -3.7751977 -0.2513496 42
2.2358544 -3.798759 -0.26728243 44
9.2677889 -11.522685 -0.98398572 48
2.6130798 -3.780812 -0.33307001 46
2.2310946 -3.7906721 -0.34462619 41
9.2555056 -11.507413 -1.2439718 39
2.6116133 -3.7786903 -0.41414946 41
2.2337403 -3.7951674 -0.42294562 41
9.2378969 -11.485519 -1.5026526 45
2.6161308 -3.7852266 -0.49628761 46
2.6107965 -3.7775085 -0.57667631 42
2.609205 -3.7752059 -0.65754354 41
2.6090117 -3.7749262 -0.73952395 20
2.610353 -3.7768667 -0.82111585 48
2.6130812 -3.7808142 -0.90393871 41
2.6084146 -3.7740624 -0.98361039 40
2.6030252 -3.7662647 -1.0627842 38
2.6058197 -3.7703075 -1.1448388 36
2.6150684 -3.7836895 -1.5822791 34
2.1519995 -3.1136844 -1.7643255 7
2.1723094 -3.1904628 1.0188637 20
2.5838754 -3.7949286 0.88717526 25
2.5817697 -3.791836 0.64176768 31
2.5814433 -3.7913568 0.3982231 33
2.5944769 -3.810499 0.23715769 29
2.58968 -3.8034537 0.15529665 30
2.2044659 -3.8059652 0.12231786 41
9.165472 -11.559802 0.32344532 41
2.579567 -3.7886009 0.073442265 27
2.1971862 -3.7933967 0.044378076 39
9.1551676 -11.546805 0.062240213 47
2.5843971 -3.7956948 -0.0076138205 34
2.201246 -3.800406 -0.03311459 41
9.1419973 -11.530196 -0.19776289 36
2.5861681 -3.7982957 -0.088873051 37
2.1945946 -3.7889228 -0.11052835 44
9.1284609 -11.513123 -0.45737872 43
2.5916252 -3.8063109 -0.17070271 53
2.2032857 -3.8039277 -0.18885639 48
9.1443586 -11.533173 -0.71856582 40
2.5827806 -3.7933209 -0.2513496 43
2.2012749 -3.8004558 -0.26631403 46
9.1375265 -11.524557 -0.97867405 50
2.5776408 -3.7857716 -0.3319135 53
2.1985803 -3.7958035 -0.34368885 43
9.1278925 -11.512405 -1.2375925 46
2.5851703 -3.7968304 -0.41414946 45
2.1912255 -3.7831061 -0.41988632 47
9.103096 -11.481132 -1.4937276 45
2.5672598 -3.7705252 -0.49199817 54
2.5731933 -3.7792399 -0.57418418 45
2.5694156 -3.7736914 -0.65413952 44
2.5803723 -3.7897837 -0.73888749 40
2.5728424 -3.7787244 -0.81759477 43
2.5667431 -3.7697666 -0.89699131 42
2.5754004 -3.7824814 -0.98109478 37
2.574476 -3.7811239 -1.0618798 35
2.575067 -3.7819917 -1.1429001 42
2.5694313 -3.7737148 -1.5705682 30
2.1342907 -3.1346252 -1.7677054 7
2.1499827 -3.2055509 1.0188637 20
2.5463808 -3.7965667 0.88338065 29
2.5464087 -3.7966084 0.63955086 34
2.5438132 -3.7927387 0.3964932 28
2.5455601 -3.7953432 0.23510259 29
2.55861 -3.8148 0.15502681 31
2.1719019 -3.8108408 0.12198427 43
9.0426817 -11.569943 0.32195479 42
2.5419157 -3.7899094 0.073121831 23
2.1666887 -3.8016934 0.044297092 42
9.0250683 -11.547407 0.061902318 47
2.5466948 -3.797035 -0.0075806594 31
2.1647575 -3.798305 -0.032963794 40
9.0095568 -11.52756 -0.19663404 37
2.5484498 -3.7996514 -0.088486306 45
2.1621499 -3.7937295 -0.11022554 42
8.9986219 -11.51357 -0.45488957 45
2.5538564 -3.8077126 -0.16996183 51
2.1628242 -3.7949126 -0.18765458 46
9.0119534 -11.530626 -0.71446973 43
2.5451117 -3.7946746 -0.25025582 43
2.1687582 -3.8053246 -0.26558772 45
9.01015 -11.528319 -0.97362798 49
2.5400367 -3.7871079 -0.33046788 45
2.1601794 -3.7902722 -0.34181419 43
9.0006628 -11.51618 -1.2312131 35
2.5452859 -3.7949345 -0.41199431 50
2.1529317 -3.7775552 -0.41759187 43
8.971261 -11.478561 -1.4852083 8
2.540874 -3.7883563 -0.49199817 54
2.5312715 -3.7740393 -0.57069522 45
2.5385966 -3.784961 -0.65300488 43
2.5318546 -3.7749088 -0.73252326 45
2.5244663 -3.7638929 -0.8105526 49
2.5359902 -3.7810748 -0.89544743 44
2.5402167 -3.7873762 -0.97774059 37
2.5349939 -3.7795894 -1.0564528 35
2.5334697 -3.7773166 -1.1361145 42
2.5303819 -3.7727129 -1.5627608 31
2.112355 -3.1494491 -1.7677054 7
2.1393402 -3.2358704 1.0239682 20
2.5081491 -3.7937145 0.87882715 37
2.5124335 -3.800195 0.63733405 32
2.5076141 -3.7929051 0.39476329 28
2.5093169 -3.7954807 0.23407505 27
2.5067959 -3.7916677 0.15340774 32
2.1348398 -3.8042393 0.12131707 37
8.9120312 -11.559985 0.32002586 42
2.5034897 -3.7866671 0.072737321 22
2.1355557 -3.8055151 0.044175621 42
8.9043255 -11.54999 0.061598212 43
2.4927778 -3.7704644 -0.0074944403 30
2.1297321 -3.7951374 -0.032812998 45
8.8913908 -11.533212 -0.19572023 39
2.5121653 -3.7997892 -0.088099569 46
2.1271574 -3.7905495 -0.10972083 39
8.8927698 -11.535001 -0.45339611 46
2.5131149 -3.8012257 -0.16892457 48
2.133697 -3.8022029 -0.1873112 49
8.8913727 -11.533188 -0.71095884 12
2.5066721 -3.7914803 -0.2489433 42
2.1337037 -3.8022149 -0.26437718 42
8.8774452 -11.515123 -0.96751952 31
2.5038626 -3.787231 -0.32902229 44
2.1291401 -3.7940824 -0.34087685 42
8.8827143 -11.521958 -1.2255052 11
2.5046813 -3.7884693 -0.40947995 48
2.1258829 -3.7882781 -0.41720948 39
8.9216604 -11.572475 -1.4896708 20
2.5047264 -3.7885373 -0.48985347 52
2.4952414 -3.7741907 -0.56820309 41
2.4959681 -3.77529 -0.64846617 41
2.5089407 -3.7949119 -0.73315972 42
2.5037906 -3.787122 -0.81196105 51
2.4978702 -3.7781672 -0.89081579 42
2.497786 -3.7780399 -0.97103226 35
2.4969778 -3.7768171 -1.0510257 35
2.4976604 -3.7778497 -1.1312675 41
2.4927886 -3.7704806 -1.5549536 32
2.0874217 -3.157341 -1.7643255 6
2.1272492 -3.266932 1.0290728 21
2.4751742 -3.8012593 0.87655044 41
2.4728725 -3.7977245 0.63400882 31
2.4680266 -3.7902825 0.39268741 30
2.4762189 -3.8028641 0.23345852 26
2.4671755 -3.7889755 0.1525982 31
2.102432 -3.8085489 0.12098348 37
8.8020802 -11.583711 0.31897372 48
2.4726281 -3.7973495 0.072609149 26
2.0954051 -3.7958195 0.043892182 39
8.8210564 -11.608685 0.061581317 31
2.4685769 -3.7911277 -0.0075010723 27
2.0973859 -3.799408 -0.032722522 40
8.8590565 -11.658693 -0.19679531 26
2.4703009 -3.7937753 -0.087558128 39
2.0948451 -3.794805 -0.10941802 42
8.8821745 -11.689117 -0.45700535 31
2.4756105 -3.8019295 -0.16818367 47
2.1032381 -3.8100092 -0.18696783 46
8.8275633 -11.617247 -0.7123242 17
2.4692445 -3.7921531 -0.24784952 39
2.0974593 -3.7995408 -0.26316667 44
8.8596239 -11.65944 -0.97442472 32
2.4686539 -3.7912459 -0.32786578 41
2.0968189 -3.7983806 -0.33993953 39
8.886466 -11.694765 -1.2372566 34
2.4673026 -3.7891705 -0.407684 46
2.0897624 -3.785598 -0.41529742 39
8.922513 -11.742204 -1.503464 34
2.4695361 -3.7926006 -0.48813769 51
2.4623349 -3.7815416 -0.56670779 42
2.4587479 -3.7760327 -0.64562947 40
2.4716117 -3.7957885 -0.72997761 42
2.4579535 -3.7748127 -0.80562311 46
2.4564414 -3.7724903 -0.88541222 40
2.4606788 -3.7789981 -0.96683955 33
2.4599192 -3.7778318 -1.0465033 34
2.462755 -3.7821865 -1.12739 41
2.4519572 -3.7656038 -1.545845 29
2.0534587 -3.1536081 -1.7541857 7
2.1190042 -3.3044925 1.0362191 21
2.4400969 -3.805222 0.87351471 42
2.4356079 -3.7982216 0.6312378 30
2.4242973 -3.7805834 0.38991958 30
2.4323595 -3.7931559 0.23181444 32
2.4428222 -3.8094721 0.15273312 26
2.0719764 -3.8161061 0.12076109 37
8.7953081 -11.744106 0.32169175 28
2.4374225 -3.8010514 0.072352804 27
2.0593114 -3.7927804 0.043689728 40
8.823719 -11.782042 0.062172633 33
2.437732 -3.8015339 -0.0074878079 28
2.0593586 -3.7928672 -0.032541566 39
8.8661575 -11.838708 -0.19878423 24
2.4286444 -3.7873621 -0.087016694 41
2.0625772 -3.798795 -0.10911521 41
8.8746481 -11.850045 -0.4608635 29
2.43822 -3.802295 -0.16744277 47
2.0613329 -3.7965035 -0.18559434 40
8.8348551 -11.796912 -0.71954107 27
2.4297752 -3.7891259 -0.246537 43
2.0651672 -3.803565 -0.26244035 43
8.8617468 -11.832819 -0.98372012 37
2.4292054 -3.7882373 -0.32613105 40
2.0607359 -3.795404 -0.3383773 43
8.8977871 -11.880943 -1.2503512 29
2.4300373 -3.7895346 -0.40588802 45
2.0518839 -3.7791004 -0.41300294 39
8.9428921 -11.94117 -1.5209084 29
2.4279721 -3.7863138 -0.48513508 50
2.4230213 -3.7785933 -0.56371725 39
2.4152284 -3.7664404 -0.64109081 41
2.4237361 -3.7797079 -0.72361332 43
2.4209139 -3.7753069 -0.80210203 46
2.4236896 -3.7796357 -0.8830964 38
2.4215698 -3.7763298 -0.96180826 33
2.4208663 -3.7752328 -1.0410763 33
2.4237218 -3.7796857 -1.1215737 40
2.4174423 -3.7698934 -1.5406401 30
2.0372641 -3.1770222 -1.7592555 6
2.0988519 -3.3264785 1.0382609 21
2.3974679 -3.7997563 0.86820233 39
2.3929031 -3.7925215 0.62735838 33
2.3922663 -3.791512 0.38922763 29
2.3959627 -3.7973704 0.23099241 26
2.3998992 -3.8036096 0.15178865 30
2.0326548 -3.810025 0.1200939 39
8.7896881 -11.917689 0.32467282 28
2.3902864 -3.7883742 0.071776032 23
2.0295711 -3.804245 0.043649238 41
8.8249617 -11.965515 0.06279774 30
2.3969934 -3.7990041 -0.0074480143 31
2.0296173 -3.8043315 -0.032511409 42
8.8456087 -11.99351 -0.20028935 26
2.3986824 -3.801681 -0.08693935 40
2.0252643 -3.7961724 -0.1086105 39
8.8800945 -12.040269 -0.46571732 27
2.4017503 -3.8065434 -0.16685005 46
2.0296857 -3.8044598 -0.18525095 46
8.8263988 -11.967464 -0.72597772 29
2.3934095 -3.793324 -0.24566197 40
2.0240746 -3.7939422 -0.26074564 39
8.8505774 -12.000247 -0.99221879 36
2.3907268 -3.7890723 -0.32468542 42
2.0234737 -3.7928159 -0.33681509 42
8.8743353 -12.032459 -1.2594166 19
2.3936901 -3.7937689 -0.40445125 47
2.0185041 -3.7835009 -0.41185573 47
8.9023581 -12.070456 -1.5290221 4
2.3916633 -3.7905564 -0.4834193 48
2.3867865 -3.7828271 -0.56172359 41
2.3812153 -3.7739975 -0.6393888 42
2.3917499 -3.7906935 -0.72234052 45
2.3847704 -3.7796316 -0.79928517 49
2.3875413 -3.7840233 -0.8800087 40
2.3854749 -3.7807484 -0.95845407 36
2.3827317 -3.7764006 -1.0365537 32
2.3918087 -3.790787 -1.119635 42
2.383688 -3.7779162 -1.5367365 32
2.0139208 -3.1918709 -1.7592555 7
2.0714958 -3.3344798 1.0362191 21
2.3625925 -3.803057 0.86516666 40
2.3600967 -3.7990398 0.62569577 34
2.353121 -3.7878108 0.38715175 29
2.3630698 -3.8038254 0.23037589 27
2.3627386 -3.8032923 0.15111405 29
1.9967201 -3.8064182 0.1195379 37
8.7932653 -12.098453 0.32791692 28
2.3574488 -3.7947776 0.071583778 28
1.9955317 -3.8041527 0.043487273 45
8.8211689 -12.136844 0.063372158 5
2.3556376 -3.7918618 -0.0074015888 33
2.0011516 -3.8148661 -0.032481249 49
2.3615313 -3.8013489 -0.086552605 45
2.0005713 -3.8137596 -0.10871144 44
2.3666797 -3.8096366 -0.16625734 48
1.9993643 -3.8114586 -0.18490759 49
8.7943115 -12.099891 -0.73026884 2
2.3542228 -3.7895846 -0.24434945 42
2.0012491 -3.8150518 -0.26122984 46
2.3515842 -3.7853374 -0.32295069 44
2.0025039 -3.8174438 -0.3377524 41
2.3545327 -3.7900836 -0.4022961 50
2.0031397 -3.8186562 -0.41415018 39
9.4542398 -13.007872 -1.6393681 1
2.3609447 -3.8004048 -0.48256141 48
2.3498476 -3.7825418 -0.55923146 44
2.3443625 -3.7737126 -0.6365521 38
2.3548081 -3.7905266 -0.71915841 43
2.3520918 -3.7861543 -0.79717249 50
2.3548522 -3.7905977 -0.87769288 40
2.3445749 -3.7740545 -0.95258433 37
2.3460288 -3.7763948 -1.0320313 34
2.350951 -3.7843177 -1.1128492 42
2.347275 -3.7784007 -1.5302304 34
2.0164592 -3.2458875 -1.7812251 6
2.0461483 -3.3455608 1.0351982 23
2.3257391 -3.8027065 0.86137205 42
2.3252494 -3.8019059 0.62347895 33
2.3162236 -3.7871485 0.38542184 31
2.326035 -3.8031905 0.22934833 29
2.3277855 -3.8060527 0.15057434 32
1.973763 -3.8273726 0.1197603 42
13.863891 -19.357735 0.52203673 52
2.3183782 -3.7906711 0.071199261 28
1.9762582 -3.832211 0.043649238 44
10.997722 -15.355789 0.07977695 2
2.3207598 -3.794565 -0.0073750596 30
1.9818031 -3.8429635 -0.032601885 25
2.3245022 -3.8006842 -0.086165868 43
1.9885595 -3.8560648 -0.10951896 23
10.640979 -14.857678 -0.568892 6
2.3316834 -3.8124259 -0.16566461 50
1.9782015 -3.8359795 -0.18542264 41
9.0911379 -12.693684 -0.7622571 0
2.3193736 -3.7922988 -0.24347442 45
1.989206 -3.8573184 -0.26316667 32
8.988925 -12.550965 -1.0272758 1
2.3167741 -3.7880483 -0.32179418 47
1.9922541 -3.8632293 -0.34056443 24
8.9677277 -12.521369 -1.2973568 2
2.3176229 -3.7894361 -0.40050012 49
2.001981 -3.882091 -0.41950393 23
9.372468 -13.086495 -1.6409907 0
2.3198304 -3.7930455 -0.47955883 47
2.3171709 -3.788697 -0.55773616 43
2.3096964 -3.7764759 -0.63428277 41
2.3200459 -3.7933979 -0.7166127 40
2.3173842 -3.789046 -0.79435563 44
2.313997 -3.7835076 -0.8722893 40
2.3140888 -3.7836578 -0.95090723 37
2.3155415 -3.7860329 -1.0302223 38
2.3143501 -3.7840848 -1.1080024 41
2.3089986 -3.7753348 -1.5224231 34
1.976725 -3.2320499 -1.7660154 7
2.0347111 -3.3796446 1.0413237 22
2.2869806 -3.7986629 0.85681856 36
2.286391 -3.7976837 0.62015373 32
2.2794511 -3.7861567 0.38369194 28
2.2788229 -3.7851133 0.22729324 34
2.2990956 -3.8187859 0.15043943 28
1.9650728 -3.8767235 0.12087228 23
13.786054 -19.535736 0.52422869 48
2.2856693 -3.7964852 0.071007006 25
1.9765822 -3.8994296 0.044256601 31
10.917927 -15.471412 0.079979688 1
2.2797701 -3.7866864 -0.0073286342 26
1.9820526 -3.9102216 -0.03305427 22
2.6589239 -3.767868 -0.061978966 0
2.2875981 -3.7996886 -0.085779123 44
1.9869013 -3.9197872 -0.1109321 22
2.6601815 -3.7696505 -0.14362314 7
2.2967639 -3.8149133 -0.1650719 48
1.9748617 -3.8960354 -0.18765458 28
2.653697 -3.7604613 -0.2246981 0
2.2866619 -3.7981334 -0.24281816 42
1.9875009 -3.9209702 -0.26655611 29
2.6740069 -3.7892418 -0.30860767 0
2.2882144 -3.8007123 -0.32150507 38
1.9976885 -3.9410684 -0.34618843 23
2.6704631 -3.7842197 -0.39014715 16
2.2870014 -3.7986977 -0.39978173 47
2.0018332 -3.9492452 -0.42524007 23
2.6500411 -3.7552805 -0.46856475 27
2.2850885 -3.7955203 -0.47784305 50
2.276335 -3.7809808 -0.5542472 45
2.2751062 -3.7789397 -0.63201338 42
2.2833223 -3.7925866 -0.71343058 43
2.2786899 -3.7848923 -0.79013038 53
2.2733562 -3.7760329 -0.86688572 39
2.2775311 -3.7829673 -0.94671452 34
2.2810149 -3.788754 -1.0266043 35
2.2738643 -3.7768769 -1.1012167 43
2.27088 -3.77192 -1.5146159 32
1.9597228 -3.2550895 -1.7710854 6
2.0201435 -3.4063706 1.0454072 23
2.2517207 -3.7968564 0.85302395 38
2.2550921 -3.8025417 0.61849111 30
2.2481928 -3.7909079 0.38265401 29
2.2557073 -3.8035791 0.22749875 28
2.2635226 -3.8167572 0.14976481 30
1.9589431 -3.929033 0.12209547 21
2.6426167 -3.7979827 0.10144382 5
2.2481999 -3.7909203 0.070622489 27
1.9792317 -3.9697254 0.044904456 27
2.6500816 -3.8087113 0.019597895 33
2.2464452 -3.787961 -0.007302105 30
1.9846312 -3.9805551 -0.033536814 24
2.6270223 -3.7755704 -0.061817702 12
2.2562282 -3.8044572 -0.085547082 44
1.9947609 -4.0008721 -0.11284995 22
2.6237042 -3.7708015 -0.14300086 43
2.2571399 -3.8059947 -0.16403463 47
1.975726 -3.9626939 -0.19022989 25
2.6218524 -3.7681403 -0.22411294 26
2.2512355 -3.7960386 -0.24172439 43
1.9935195 -3.9983826 -0.27091399 26
2.6146235 -3.757751 -0.3046239 29
2.2527823 -3.7986467 -0.32005945 38
1.9946377 -4.0006251 -0.35025018 22
2.6179879 -3.7625861 -0.38611811 57
2.2536294 -3.8000753 -0.39834496 47
2.0022461 -4.0158854 -0.43097621 23
2.6364403 -3.7891059 -0.47059315 42
2.2497232 -3.7934885 -0.47569832 50
2.241087 -3.7789261 -0.55175507 41
2.2398953 -3.7769167 -0.62917674 41
2.2460332 -3.7872663 -0.70961201 43
2.2434957 -3.7829876 -0.78660929 46
2.2422574 -3.7808998 -0.8645699 38
2.2404218 -3.7778044 -0.94168323 34
2.2419248 -3.7803385 -1.0202729 33
2.238868 -3.7751844 -1.0963699 41
2.2361674 -3.7706306 -1.5081098 31
1.934393 -3.2617781 -1.7677054 6
2.0002122 -3.4270713 1.047449 22
2.2192197 -3.8023086 0.85074717 39
2.2205031 -3.8045073 0.6162743 33
2.2136374 -3.7927439 0.38127008 26
2.2150028 -3.7950835 0.22606018 32
2.2146547 -3.7944872 0.14828065 31
1.9560935 -3.9928827 0.12365223 23
2.5911658 -3.7800555 0.10047936 39
2.2176476 -3.7996149 0.070494317 28
1.9743463 -4.0301414 0.045430839 27
2.6030731 -3.797426 0.019445842 43
2.2159128 -3.7966428 -0.0072888406 30
1.9831897 -4.048193 -0.033989199 22
2.589293 -3.7773235 -0.06154893 31
2.2175171 -3.7993915 -0.085082993 41
1.9896513 -4.0613828 -0.11416216 23
2.5860126 -3.7725377 -0.14237857 44
2.2204397 -3.8043985 -0.16329375 48
1.972628 -4.0266337 -0.19263352 27
2.5841875 -3.7698755 -0.22313769 39
2.2186394 -3.8013144 -0.24106811 42
1.9831232 -4.0480571 -0.27333501 29
2.5815563 -3.766037 -0.30382717 48
2.2141416 -3.793608 -0.31832471 48
1.9999937 -4.0824938 -0.35618663 23
2.5916564 -3.7807713 -0.38611811 38
2.2149961 -3.7950721 -0.39618981 49
1.9969341 -4.0762486 -0.43594757 23
2.5986736 -3.7910082 -0.46856475 41
2.2151661 -3.7953632 -0.47398254 48
2.2066481 -3.7807689 -0.54976141 44
2.209481 -3.7856226 -0.62804204 40
2.209585 -3.7858009 -0.7064299 42
2.2090917 -3.7849555 -0.78379244 49
2.2078934 -3.7829025 -0.86148214 42
2.2080786 -3.7832201 -0.93916762 34
2.205658 -3.7790725 -1.0157504 31
2.204633 -3.7773161 -1.0924923 43
2.2021625 -3.7730834 -1.5029049 33
1.9298495 -3.306515 -1.784605 6
1.9935734 -3.4711354 1.0566372 22
2.1867526 -3.8074918 0.84847045 39
2.1840239 -3.8027408 0.61350328 35
2.1771817 -3.7908273 0.37954018 29
2.1804962 -3.7965982 0.22523814 33
2.1881104 -3.8098557 0.14828065 31
1.9576477 -4.0676913 0.1255426 21
2.5714278 -3.8079951 0.10074239 38
2.1850915 -3.8045993 0.070302062 28
1.9721806 -4.097888 0.046038203 27
2.5630686 -3.7956161 0.019344473 43
2.1833768 -3.801614 -0.0072689438 29
1.9861023 -4.1268153 -0.034532063 23
2.5583835 -3.7886782 -0.061441422 34
2.1809797 -3.7974403 -0.084696248 45
1.9993991 -4.1544437 -0.11638282 20
2.552901 -3.7805591 -0.14200521 41
2.1838717 -3.8024757 -0.16255285 51
1.9739301 -4.1015234 -0.19555221 25
2.5600426 -3.7911348 -0.22333275 38
2.1801121 -3.7959297 -0.23975559 45
1.9877118 -4.1301594 -0.277935 28
2.550735 -3.7773516 -0.303296 48
2.1816425 -3.7985942 -0.31745735 41
1.9956546 -4.1466637 -0.36056086 22
2.5495851 -3.7756486 -0.38376781 39
2.1805112 -3.7966244 -0.39475304 49
2.001235 -4.1582589 -0.44321334 25
2.5543294 -3.7826741 -0.46531928 50
2.1747508 -3.7865946 -0.47097996 50
2.1722932 -3.7823155 -0.5477677 45
2.1711667 -3.7803543 -0.62463802 42
2.177201 -3.7908611 -0.70452064 42
2.1747696 -3.7866273 -0.78097552 46
2.1736112 -3.7846103 -0.85839444 41
2.1738214 -3.7849767 -0.93581343 38
2.1695187 -3.7774847 -1.0112278 34
2.1666121 -3.7724237 -1.086676 41
2.1719999 -3.7818053 -1.5003024 34
1.8886626 -3.2884686 -1.7677054 6
1.9845134 -3.5119057 1.0648044 22
2.1485252 -3.80215 0.84391695 44
2.1554737 -3.8144464 0.61294907 37
2.1447823 -3.7955265 0.37850225 32
2.1500072 -3.8047729 0.22482713 34
2.1496587 -3.8041561 0.14747111 28
1.9599601 -4.1463275 0.12754416 22
2.5270619 -3.7992165 0.10004096 38
2.1525741 -3.8093154 0.070109807 29
1.9674547 -4.1621828 0.046605077 27
2.5276468 -3.8000956 0.019276895 42
2.1528478 -3.8097994 -0.0072556795 30
1.9982685 -4.2273698 -0.035255879 21
2.523011 -3.7931259 -0.061226401 34
2.1465454 -3.7986467 -0.084386855 46
1.9993979 -4.2297587 -0.11809879 23
2.5153744 -3.7816451 -0.14138292 42
2.1533394 -3.8106697 -0.16225649 53
1.982821 -4.1946902 -0.19932935 24
2.520237 -3.7889557 -0.22216244 39
2.1456988 -3.7971485 -0.23888056 47
1.9878364 -4.2053003 -0.28205076 26
2.5154605 -3.7817745 -0.30223367 48
2.1472194 -3.7998395 -0.31630084 54
1.9990366 -4.2289944 -0.36649731 21
2.5143342 -3.7800813 -0.3824248 45
2.150033 -3.8048182 -0.39403465 51
2.0061882 -4.2441239 -0.45086154 22
2.5168395 -3.7838478 -0.46329084 48
2.1443496 -3.7947605 -0.47012207 53
2.139977 -3.7870228 -0.54627246 46
2.1330342 -3.7747362 -0.621234 39
2.1467974 -3.7990925 -0.70324779 45
2.1405325 -3.7880058 -0.77815866 50
2.1374824 -3.782608 -0.85453475 43
2.1377237 -3.7830353 -0.93162072 35
2.1354265 -3.7789698 -1.0076098 35
2.1344953 -3.7773218 -1.0837679 40
2.136241 -3.7804112 -1.4937963 33
1.8727933 -3.3141994 -1.7744653 6
1.9662294 -3.5398822 1.0688881 23
2.1148763 -3.8074973 0.84164017 41
2.1216848 -3.8197546 0.61128646 35
2.103358 -3.7867603 0.37608036 27
2.1123617 -3.8029699 0.22379959 29
2.1158926 -3.8093269 0.14706634 29
1.9597933 -4.2258759 0.12954573 21
2.4903834 -3.8042552 0.099690251 40
2.1129413 -3.8040137 0.06972529 28
1.9722302 -4.2526932 0.047455385 28
2.4909596 -3.8051353 0.019209316 42
2.1112673 -3.8009999 -0.0072092535 30
1.9907862 -4.2927055 -0.035678104 21
2.4819944 -3.7914405 -0.060903873 31
2.1128175 -3.8037906 -0.084154814 48
1.9952559 -4.3023434 -0.11971381 21
2.4744475 -3.7799118 -0.14063618 40
2.115644 -3.8088791 -0.16151559 53
1.9738762 -4.2562428 -0.20156129 25
2.4792657 -3.7872722 -0.22099215 42
2.1100502 -3.7988086 -0.23800555 47
1.9838333 -4.2777128 -0.2859244 27
2.4789274 -3.7867551 -0.30117133 47
2.1076853 -3.7945507 -0.31456611 50
1.9998598 -4.3122706 -0.37243375 20
2.4734588 -3.7784014 -0.38041028 39
2.1066098 -3.7926145 -0.39116111 51
2.0068514 -4.3273463 -0.45812735 22
2.4781373 -3.7855482 -0.46126243 47
2.1106825 -3.7999468 -0.46883523 53
2.1025245 -3.7852597 -0.54378033 47
2.0937715 -3.7695014 -0.61782998 40
2.1073866 -3.794013 -0.69942927 48
2.1031487 -3.7863834 -0.77463758 46
2.1020749 -3.7844501 -0.85144699 41
2.1061378 -3.791765 -0.92994368 36
2.1001008 -3.7808959 -1.0039918 37
2.1029809 -3.7860813 -1.0818291 43
2.0992897 -3.7794359 -1.4872903 30
1.8431681 -3.31833 -1.7693954 5
1.9600114 -3.5874627 1.0790972 24
2.0807116 -3.8083832 0.83860451 40
2.0759728 -3.79971 0.60574442 36
2.0806913 -3.8083465 0.37677234 31
2.0742683 -3.7965903 0.22256653 34
2.0777464 -3.8029563 0.1462568 28
1.9567533 -4.2976789 0.1313249 21
2.455096 -3.808104 0.099339537 35
2.0690746 -3.7870839 0.069148518 28
1.9673539 -4.3209615 0.048062749 25
2.4469948 -3.7955379 0.019074159 40
2.0770087 -3.8016059 -0.0071827243 28
1.9806585 -4.350183 -0.036040012 16
2.4446282 -3.7918673 -0.060635101 32
2.0747058 -3.7973909 -0.083690725 47
8.8250437 -19.382723 -0.53760183 10
2.441499 -3.7870135 -0.14026281 41
2.0813353 -3.8095253 -0.16092287 47
1.9755776 -4.3390236 -0.20482334 22
2.4441056 -3.7910566 -0.22021194 42
2.0719881 -3.7924166 -0.23669301 43
1.9853557 -4.3604994 -0.29052439 15
2.4416168 -3.7871964 -0.29984343 47
2.0754044 -3.7986696 -0.31369874 42
8.8967247 -19.540157 -1.6822008 8
2.438381 -3.7821772 -0.37906724 41
2.0762606 -3.8002367 -0.39044273 49
2.4387112 -3.7826893 -0.45882833 43
2.0726619 -3.7936499 -0.46626157 49
2.0684357 -3.7859142 -0.54178661 40
2.0579123 -3.7666533 -0.61499327 43
2.0694876 -3.7878401 -0.6956107 45
2.0728877 -3.7940633 -0.77322918 49
2.0680759 -3.7852561 -0.84835923 39
2.0721142 -3.7926474 -0.92658949 33
2.0661814 -3.7817883 -1.000374 32
2.063473 -3.7768314 -1.0750434 38
2.0619719 -3.7740836 -1.479483 24
1.8251717 -3.340662 -1.7744653 7
1.9513938 -3.6317205 1.0882852 24
2.0466378 -3.8089781 0.83556885 39
2.0437703 -3.8036416 0.60408181 33
2.0351915 -3.7876756 0.37331253 27
2.0344775 -3.7863467 0.22112796 35
2.0473619 -3.8103256 0.14598696 29
1.9332289 -4.3258367 0.13176969 1
2.4091606 -3.7947662 0.098550431 35
2.0369065 -3.7908671 0.068956263 29
8.8713551 -19.850746 0.22010878 25
2.4054301 -3.7888904 0.018955896 41
2.0466313 -3.8089664 -0.0071694599 31
18.989964 -42.492374 -0.35093018 28
2.4009471 -3.7818291 -0.060205065 32
2.0405729 -3.7976909 -0.083381332 45
8.7645664 -19.611794 -0.54224503 14
2.40643 -3.7904651 -0.13976498 39
2.0490134 -3.8133996 -0.16047834 49
8.6924267 -19.450371 -0.91526675 17
2.406873 -3.791163 -0.21923669 38
2.0397904 -3.7962344 -0.23603675 44
8.7252197 -19.52375 -1.2967072 4
2.4044223 -3.7873027 -0.2985155 45
2.0356159 -3.7884655 -0.31167489 44
8.921175 -19.962225 -1.7131327 1
2.405508 -3.7890131 -0.37805998 40
2.0345945 -3.7865648 -0.38756919 49
7.4632835 -16.700014 -1.7567922 1
2.4037125 -3.7861848 -0.45720559 44
2.0367148 -3.7905107 -0.46411684 52
2.0344405 -3.7862778 -0.53979295 42
2.0259435 -3.7704644 -0.61329126 48
2.0392547 -3.7952378 -0.69433784 43
2.0351677 -3.7876313 -0.76900387 45
2.0323112 -3.7823153 -0.84449953 43
2.0381813 -3.7932401 -0.9232353 37
2.0305078 -3.778959 -0.9958514 31
2.0370555 -3.7911448 -1.0750434 45
2.0463154 -3.8083782 -1.4872903 32
1.800089 -3.3501287 -1.7727753 6
1.9440594 -3.6794508 1.0984943 21
2.0071533 -3.7988663 0.8302564 39
2.0097635 -3.8038068 0.60186499 30
2.0031142 -3.7912219 0.37227461 31
2.004262 -3.7933939 0.22071694 35
2.0057702 -3.7962487 0.14490756 29
14.118999 -32.194508 0.97765326 24
2.3762507 -3.8013189 0.098287396 35
2.002918 -3.7908504 0.068699919 29
18.782381 -42.828072 0.47342011 16
2.3683195 -3.7886312 0.018871421 43
2.0181212 -3.8196249 -0.007162828 36
25.796644 -58.822174 -0.48429331 28
2.3702471 -3.7917147 -0.060097557 33
2.006537 -3.7976997 -0.08307194 45
9.9925375 -22.785242 -0.62804329 24
2.3714328 -3.7936115 -0.13926715 38
2.0111368 -3.8064055 -0.15958926 50
8.694458 -19.825329 -0.9300319 2
2.3676412 -3.7875459 -0.21806638 39
2.0076404 -3.7997885 -0.23538049 49
8.7169914 -19.876709 -1.3160754 0
2.3694615 -3.790458 -0.29745317 45
2.0128453 -3.8096392 -0.31225312 44
9.0987129 -20.747122 -1.7749968 3
2.3684337 -3.7888141 -0.37638122 40
2.0025265 -3.7901096 -0.3864916 51
7.3513112 -16.76265 -1.7579395 1
2.3666754 -3.786001 -0.45517719 43
2.0083447 -3.801121 -0.4636879 54
2.0116658 -3.8074074 -0.54078978 42
2.0069704 -3.7985203 -0.61556059 39
2.0090199 -3.8023989 -0.69306505 46
2.0141935 -3.8121912 -0.7711165 44
2.0150235 -3.8137622 -0.84835923 35
2.0226126 -3.8281255 -0.92826658 25
2.009537 -3.8033779 -0.9985649 36
2.0069129 -3.7984114 -1.0731046 35
2.0302801 -3.8426375 -1.4950976 18
1.7715758 -3.3529975 -1.7677054 6
1.9361538 -3.7272537 1.1087034 23
1.9733424 -3.7988451 0.82722074 38
1.9776815 -3.807198 0.60020238 36
1.9784354 -3.8086495 0.37262058 31
1.9758894 -3.8037481 0.22051144 31
1.982905 -3.8172538 0.14517741 32
13.944465 -32.409824 0.9812116 21
2.3328865 -3.79057 0.097585969 39
1.9874668 -3.8260355 0.069084436 31
