# .PCD v0.7 - Point Cloud Data file format
VERSION 0.7
FIELDS x y z intensity
SIZE 4 4 4 4
TYPE F F F F
COUNT 1 1 1 1
WIDTH 1379
HEIGHT 1
VIEWPOINT 0 0 0 1 0 0 0
POINTS 1379
DATA ascii
13.888967 -13.672495 0.31228983 25
13.888123 -15.819649 0.21310383 39
13.810139 -11.749196 0.076583847 49
13.927788 -13.710711 -0.032405164 26
11.378861 -12.961407 -0.13004564 1
13.824246 -11.761199 -0.24393803 28
13.853952 -13.638026 -0.37598947 39
11.093284 -12.636111 -0.42444906 0
13.861433 -11.792836 -0.56652731 37
12.721836 -12.523555 -0.66176939 0
10.975857 -12.502353 -0.71473563 0
13.79992 -11.740503 -0.88455373 49
12.714368 -12.516204 -0.97717899 3
10.957937 -12.481941 -1.0071512 0
13.843625 -11.777686 -1.2094659 49
12.611982 -12.415414 -1.2825508 3
10.949785 -12.472654 -1.3003937 0
12.783979 -10.876175 -1.4138638 45
12.366849 -12.174101 -1.5646445 3
10.948794 -12.471526 -1.5938854 1
11.559836 -9.8347158 -1.5472778 2
10.494734 -10.331164 -1.5883777 3
9.1977539 -9.0543995 -1.620874 3
8.1294222 -8.002718 -1.6344979 2
7.3114014 -7.1974468 -1.6534278 2
6.613812 -6.5107298 -1.6598371 3
6.033062 -5.9390316 -1.665069 4
5.5855756 -5.4985199 -1.6804392 4
5.1674762 -5.0869365 -1.6832693 4
4.8259354 -4.7507191 -1.6915697 5
3.5850296 -3.5291538 -1.7306178 6
2.6611567 -2.6196804 -1.7406659 12
3.8388052 -3.8294375 1.4313095 21
3.9649119 -3.9552364 1.0822172 27
7.6873198 -7.668561 1.5190718 17
7.4904647 -7.4721856 0.91857719 3
13.815466 -13.781753 1.0039127 25
13.859826 -13.826004 0.66071916 30
13.862051 -16.002789 0.58879369 46
13.774168 -11.87696 0.398761 45
13.885759 -13.851874 0.31427649 25
13.890269 -16.035366 0.21476397 42
13.810677 -11.90844 0.077023104 41
13.941327 -13.907307 -0.032650556 26
11.258603 -12.997287 -0.12965357 0
13.833785 -11.928367 -0.24549691 31
13.848138 -13.814344 -0.37830991 43
10.928072 -12.615711 -0.42131993 0
13.85256 -11.944554 -0.56938982 36
12.528129 -12.497557 -0.65599036 0
10.840365 -12.514461 -0.71130186 0
13.800423 -11.899599 -0.88962501 42
12.495352 -12.46486 -0.9666788 2
10.817401 -12.487949 -1.0018249 0
13.849847 -11.942215 -1.2169021 45
12.492644 -12.462159 -1.2787923 1
10.801547 -12.469647 -1.2925825 0
12.787034 -11.025791 -1.4222577 51
12.175837 -12.146125 -1.5506359 3
10.897123 -12.579984 -1.5984744 1
11.500387 -9.9163618 -1.5480893 2
10.445693 -10.420202 -1.5913804 3
9.1346912 -9.1124001 -1.6203756 3
8.0901833 -8.0704403 -1.6373345 2
7.2746887 -7.2569366 -1.6559736 2
6.5760612 -6.5600138 -1.6612456 3
6.0018759 -5.9872293 -1.6673849 3
5.5379095 -5.5243955 -1.677085 4
5.1336246 -5.1210971 -1.6832693 4
4.7970691 -4.7853627 -1.6925391 5
3.5615444 -3.5528533 -1.7306178 6
2.6539907 -2.6475143 -1.7474258 12
3.7956643 -3.8396404 1.425184 21
3.9316812 -3.9772329 1.0806993 24
7.5751133 -7.6628771 1.5074335 4
7.4885464 -7.5753069 0.92480481 4
13.822827 -13.982976 1.0115166 26
13.875388 -14.036146 0.66611606 32
13.861655 -16.229914 0.59357518 61
13.766172 -12.038647 0.40095297 44
13.889941 -14.050867 0.31658357 20
13.892281 -16.265772 0.21654557 45
13.8085 -12.075663 0.077479266 42
13.942322 -14.103855 -0.032882687 25
11.159798 -13.066445 -0.12956309 0
13.870604 -12.129972 -0.24764709 28
13.844142 -14.004538 -0.38086241 23
10.780002 -12.621761 -0.41899833 0
13.92834 -12.180464 -0.57598603 30
12.336601 -12.479531 -0.65050775 0
10.687849 -12.513865 -0.70700967 0
13.795205 -12.064035 -0.89469635 52
12.304136 -12.44669 -0.95858485 2
10.659945 -12.481193 -0.99528813 0
13.886312 -12.14371 -1.2275255 38
12.30437 -12.446926 -1.2683837 1
10.654664 -12.47501 -1.2853963 0
12.793759 -11.188262 -1.4316587 76
12.104752 -12.244995 -1.5524318 3
10.824549 -12.673919 -1.6007688 1
11.4818 -10.040941 -1.5549859 3
10.395061 -10.515496 -1.5948119 3
9.0987558 -9.2041721 -1.6253599 2
8.0475636 -8.1408014 -1.6401712 2
7.2238503 -7.3075442 -1.6559736 3
6.5356412 -6.611362 -1.662654 3
5.9820061 -6.0513124 -1.6735604 3
5.499208 -5.562921 -1.677085 4
5.1059666 -5.1651235 -1.6859828 5
4.7690015 -4.824254 -1.6944778 5
3.5393138 -3.5803196 -1.7319189 6
2.6405411 -2.671134 -1.7508057 12
3.7471685 -3.8438904 1.4170169 19
3.8846292 -3.9848993 1.075387 26
3.9985261 -4.1017361 0.80137825 2
7.4938936 -7.6873264 0.93207043 3
13.811314 -14.167811 1.0178874 24
13.857986 -14.215689 0.67002887 30
13.856181 -16.454748 0.5982455 71
13.813433 -12.251212 0.40481082 36
13.903182 -14.262052 0.31914702 25
13.899474 -16.506159 0.21844864 43
13.867502 -12.299167 0.078290209 40
13.944038 -14.303962 -0.033121448 23
11.104374 -13.186872 -0.12998532 0
13.890313 -12.319398 -0.2495285 30
10.622079 -12.614127 -0.41627297 0
13.90877 -12.335768 -0.57872409 31
12.16826 -12.482347 -0.64621055 0
10.548743 -12.527039 -0.70357591 0
13.863086 -12.295249 -0.90464389 42
12.175123 -12.489388 -0.95530349 1
10.510826 -12.48201 -0.98947763 0
13.899732 -12.327751 -1.2362897 39
12.119705 -12.432539 -1.2582644 2
10.518508 -12.491133 -1.27946 0
12.055122 -12.366289 -1.5571014 2
10.73324 -12.746135 -1.6003864 1
11.414398 -10.123495 -1.5553916 3
10.343604 -10.610594 -1.5982435 3
9.0425882 -9.2759953 -1.6268551 2
8.0015898 -8.208127 -1.6424406 2
7.1809273 -7.3662815 -1.6578828 3
6.5085659 -6.6765647 -1.6675835 3
5.9450932 -6.0985479 -1.6751043 4
5.4711585 -5.61238 -1.6804392 4
5.0725026 -5.203434 -1.6868873 4
4.7324967 -4.8546519 -1.6935085 6
3.5115921 -3.6022334 -1.7306178 6
2.6167674 -2.6843114 -1.7474258 11
3.6987996 -3.8476517 1.4088496 20
3.8431063 -3.9977655 1.0715923 27
3.9862654 -4.1466861 0.80470347 1
7.492516 -7.7940397 0.93864405 3
13.83111 -14.38772 1.0267242 28
13.866454 -14.424487 0.67529088 28
13.861014 -16.695669 0.60347182 63
13.816765 -12.42758 0.40744117 35
13.908602 -14.468329 0.32158226 24
13.909097 -16.753584 0.2204327 43
13.855649 -12.462555 0.078712583 45
13.940861 -14.501887 -0.033353575 26
9.5429211 -11.494502 -0.11264389 0
13.899127 -12.501661 -0.25124863 29
12.233752 -12.726079 -0.34141484 0
9.5529242 -11.506551 -0.37751237 21
13.92635 -12.526147 -0.58308005 30
12.025416 -12.509359 -0.64324695 0
10.417638 -12.548103 -0.70065725 0
13.866024 -12.471887 -0.9104954 38
11.974148 -12.456027 -0.94633454 0
9.5639515 -11.519834 -0.90788871 6
13.896417 -12.499224 -1.243726 36
11.971787 -12.453571 -1.2519038 0
9.5369606 -11.487322 -1.1697919 30
13.320864 -11.981539 -1.5092181 6
11.979538 -12.461635 -1.5585382 1
9.5147409 -11.460559 -1.4305964 36
11.337527 -10.197614 -1.5545802 3
10.277545 -10.691147 -1.5995302 2
8.9913616 -9.3532038 -1.6293472 2
7.9550676 -8.2752066 -1.6447099 2
7.1293263 -7.416234 -1.6578828 3
6.4617958 -6.7218399 -1.6675835 4
5.9050927 -6.1427336 -1.6758761 3
5.4481063 -5.667356 -1.6854705 4
5.030652 -5.2331018 -1.6850783 4
4.7092476 -4.8987632 -1.697386 6
3.4916008 -3.6321144 -1.7332202 6
2.5979636 -2.7025144 -1.7474258 10
3.6345973 -3.8340852 1.3945569 20
3.8151028 -4.024498 1.0715923 26
3.9626694 -4.1801639 0.80581188 1
7.4790444 -7.8895383 0.94383371 1
13.812777 -14.570902 1.0328895 29
13.861675 -14.622485 0.68001318 30
9.4489231 -11.544328 0.41487995 64
13.82126 -12.607278 0.41015917 37
13.914565 -14.678278 0.3240816 24
9.4419584 -11.535818 0.15090975 42
13.862876 -12.645239 0.079253212 43
13.943851 -14.709171 -0.033605602 21
9.4320402 -11.523701 -0.11228198 39
13.897207 -12.676555 -0.25280753 29
12.029051 -12.689276 -0.33816621 0
9.4115753 -11.498697 -0.37508982 37
13.924225 -12.7012 -0.58668929 28
11.858041 -12.50888 -0.63894975 0
9.4413347 -11.535056 -0.64039487 30
13.864219 -12.646463 -0.91615188 38
11.804463 -12.452362 -0.93977189 0
9.4200726 -11.50908 -0.9018361 46
13.903177 -12.682001 -1.2522247 36
11.804957 -12.452882 -1.2435192 0
9.4085417 -11.49499 -1.1638554 48
13.325238 -12.154824 -1.5192908 4
11.916915 -12.570985 -1.5617709 1
9.3865824 -11.468162 -1.4233305 44
11.310161 -10.316739 -1.5606654 3
10.224545 -10.785728 -1.6029618 1
8.96134 -9.4531908 -1.6358267 3
7.899826 -8.333415 -1.6452773 2
7.0882449 -7.4772892 -1.6604285 2
6.4255466 -6.7782183 -1.6704004 4
5.8620644 -6.1838088 -1.6758761 3
5.4164801 -5.7137685 -1.6879861 4
4.996676 -5.2709227 -1.6859828 4
4.6669235 -4.9230714 -1.6944778 6
3.468761 -3.659147 -1.7345214 7
2.5865159 -2.7284791 -1.7524956 7
3.5892549 -3.8395882 1.3874105 22
3.7815504 -4.0452952 1.0700746 27
3.9388013 -4.2135139 0.80692029 0
7.5027032 -8.0259809 0.95386714 0
13.82802 -14.792459 1.0417265 31
13.882108 -14.850319 0.68608475 32
9.3178816 -11.547777 0.41265598 49
13.829784 -12.793076 0.41305256 37
13.910078 -14.880239 0.32638869 26
9.3109589 -11.539199 0.15009993 43
13.865284 -12.825913 0.07977695 45
13.944624 -14.917194 -0.033857625 25
9.3036366 -11.530123 -0.11170896 42
13.899389 -12.857462 -0.25447392 30
11.869164 -12.696981 -0.33615515 0
9.2783384 -11.498772 -0.3729701 43
13.932069 -12.887692 -0.59079641 31
11.713102 -12.530035 -0.63583797 0
9.3103838 -11.538486 -0.6369611 45
13.869444 -12.829762 -0.9223935 40
11.651786 -12.464441 -0.93452179 0
9.2993793 -11.524847 -0.89796245 46
13.902199 -12.860062 -1.2601923 30
11.633277 -12.444642 -1.2345563 0
9.2829866 -11.504532 -1.1582315 43
13.234206 -12.242144 -1.5186193 5
11.837028 -12.662603 -1.5628484 1
9.2612848 -11.477636 -1.4164472 42
11.243704 -10.400853 -1.5614768 3
10.143567 -10.851032 -1.6021039 2
8.91681 -9.5387154 -1.6398141 3
7.8414574 -8.388361 -1.6452773 2
7.0358725 -7.5265908 -1.6604285 2
6.3726931 -6.8171577 -1.6689919 4
5.8321528 -6.2389174 -1.6797359 4
5.3818011 -5.7571559 -1.6896632 5
4.9624176 -5.3085227 -1.6868873 4
4.6483417 -4.9725413 -1.7002941 6
3.4431317 -3.6832736 -1.7345214 6
2.5599778 -2.7385237 -1.7474258 7
3.5348098 -3.8373497 1.3772016 21
3.7464738 -4.0671296 1.0685567 29
7.0614324 -7.6658115 1.4581094 22
9.1149168 -9.895051 1.1680288 17
13.824768 -15.008013 1.0497413 26
13.862258 -15.048712 0.69053721 27
9.185709 -11.556299 0.4105432 42
13.823105 -12.97622 0.41568291 38
13.911727 -15.102414 0.32901621 20
9.1663904 -11.531994 0.14912815 41
13.870048 -13.020288 0.080351368 45
13.954144 -15.148462 -0.034149446 24
9.1665993 -11.532257 -0.11107562 41
13.889332 -13.03839 -0.25603279 29
11.697195 -12.698343 -0.33391207 0
9.1539879 -11.516391 -0.37135506 39
13.915924 -13.063354 -0.59415674 32
11.539693 -12.527361 -0.6313926 0
9.1783056 -11.546984 -0.63369906 47
13.871149 -13.021321 -0.92883015 33
11.484335 -12.467264 -0.92839664 0
9.1575069 -11.520818 -0.89239407 44
13.906493 -13.054501 -1.269222 34
11.484979 -12.467963 -1.2284847 0
9.1413336 -11.50047 -1.1510452 43
13.155735 -12.349738 -1.5199623 5
11.792472 -12.801775 -1.569314 1
9.1347818 -11.492229 -1.4099462 40
11.170061 -10.485718 -1.5618825 2
10.085308 -10.948498 -1.6055355 1
8.8762274 -9.6359329 -1.6452968 2
7.7824397 -8.4485292 -1.6458446 2
6.9805107 -7.5779643 -1.6604285 2
6.3385558 -6.8810649 -1.6732172 4
5.7915807 -6.2872748 -1.6812798 4
5.3500543 -5.8079586 -1.6930174 5
4.9392104 -5.3619514 -1.6923143 5
4.6143961 -5.0093365 -1.7012635 6
3.418602 -3.7111959 -1.7358227 6
2.5300093 -2.7465496 -1.7406659 6
3.4845307 -3.8361685 1.3680134 21
3.6995044 -4.0728364 1.0632442 30
6.9704537 -7.6738706 1.4503506 14
9.032217 -9.9436951 1.166299 16
13.827093 -15.222441 1.0579617 28
13.872442 -15.272367 0.69633889 27
9.0530186 -11.554049 0.40820804 42
13.830657 -13.166156 0.41866398 37
13.905451 -15.308706 0.33138737 25
9.0437202 -11.542182 0.14843979 41
13.871519 -13.205055 0.080892004 39
13.950249 -15.358025 -0.034401469 27
9.0315914 -11.526703 -0.11041212 38
13.887773 -13.220528 -0.25769919 28
11.554481 -12.72049 -0.3323651 0
9.0215731 -11.513917 -0.36923534 38
13.925738 -13.256669 -0.59851271 12
11.392827 -12.542522 -0.62813264 0
9.0506372 -11.551011 -0.63043702 47
13.881186 -13.214257 -0.93565691 27
11.324512 -12.467313 -0.92249024 0
9.0349903 -11.53104 -0.88827831 42
13.898849 -13.231072 -1.276924 15
11.311819 -12.45334 -1.2192328 0
9.0190105 -11.510646 -1.1457337 39
12.832467 -12.215925 -1.4924304 2
11.734956 -12.919177 -1.5736243 1
8.9929342 -11.477366 -1.400386 23
11.131171 -10.596369 -1.5667506 2
10.03002 -11.04219 -1.6089671 1
8.8220825 -9.7123547 -1.6477889 2
7.7365799 -8.5173092 -1.6486813 2
6.9619546 -7.6645136 -1.668702 2
6.2903628 -6.925149 -1.6732172 4
5.7554636 -6.3362708 -1.6835955 4
5.3014879 -5.836482 -1.6905017 4
4.8937974 -5.3876505 -1.6896008 4
4.5819211 -5.044301 -1.7022328 6
3.3976965 -3.7405715 -1.738425 6
2.513211 -2.7668293 -1.7423559 7
3.42928 -3.8287117 1.3567834 20
3.66836 -4.0956392 1.0624853 25
3.9671307 -4.4292097 0.83185947 1
8.9758701 -10.021352 1.1680288 11
13.827091 -15.437628 1.066182 27
13.869504 -15.484981 0.70160091 28
8.9281464 -11.560007 0.40620649 41
13.833348 -13.354047 0.42155737 33
13.915646 -15.536496 0.33420715 24
8.9140253 -11.541724 0.14762998 43
13.87396 -13.393251 0.081449531 43
13.952106 -15.577205 -0.034673393 22
8.9020052 -11.526159 -0.10980894 42
13.895854 -13.414386 -0.25958058 31
11.38001 -12.705517 -0.32988995 0
8.8994226 -11.522816 -0.36751938 47
11.238313 -12.547316 -0.62442815 0
8.9184818 -11.547493 -0.62683153 31
11.178573 -12.480618 -0.91767764 0
8.8786154 -11.495875 -0.88077307 12
11.142087 -12.439882 -1.21027 9
8.8799334 -11.497581 -1.138235 23
12.769814 -12.327361 -1.4951165 3
11.676372 -13.036398 -1.5779346 2
8.9174595 -11.546169 -1.4011507 5
11.054061 -10.671057 -1.566345 2
9.9898329 -11.153417 -1.6149722 2
8.7646542 -9.7855339 -1.6497827 2
7.6901379 -8.5858612 -1.651518 2
6.889833 -7.6923389 -1.664247 2
6.2602525 -6.9894266 -1.6781467 4
5.7163243 -6.3821435 -1.6851394 3
5.2632217 -5.876265 -1.6913402 4
4.8612647 -5.4274893 -1.6914098 4
4.5465932 -5.0761662 -1.7022328 7
3.366452 -3.7585659 -1.7358227 6
2.5083466 -2.8005109 -1.7524956 7
3.3794255 -3.8264697 1.3475952 20
3.6552763 -4.1388111 1.0670389 27
3.9518466 -4.4746127 0.83518469 2
8.7896194 -9.9523468 1.1528057 21
13.824754 -15.653548 1.0744025 26
13.880147 -15.716269 0.70767242 29
8.8060513 -11.567969 0.40431613 50
13.836947 -13.545408 0.42453843 33
13.910095 -15.750179 0.33670649 23
8.8211184 -11.587761 0.14742753 36
13.865873 -13.573725 0.081956372 39
13.940988 -15.785158 -0.034918785 24
8.8576612 -11.635765 -0.11026133 30
13.901901 -13.608994 -0.261462 26
11.219551 -12.703719 -0.32780156 0
8.8841572 -11.670572 -0.37024474 30
12.793626 -12.524069 -0.5573175 0
11.09223 -12.559555 -0.6211682 0
8.8328056 -11.603115 -0.62648815 7
11.006563 -12.462556 -0.91067749 0
8.8634386 -11.643355 -0.88730991 30
12.76017 -12.491318 -1.1882192 2
11.023277 -12.481482 -1.2068005 0
8.886404 -11.673524 -1.149483 31
12.751802 -12.483127 -1.5031745 3
11.608809 -13.14447 -1.5811673 2
8.9041634 -11.696852 -1.4118582 29
10.99067 -10.759101 -1.5679678 1
9.9591103 -11.276542 -1.6226932 1
8.696125 -9.8464832 -1.6497827 2
7.643115 -8.6541777 -1.6543546 2
6.8647184 -7.7728109 -1.6712477 2
6.2243371 -7.0477176 -1.6816678 4
5.6872177 -6.4395461 -1.6897711 3
5.2220693 -5.9128661 -1.6913402 4
4.8361516 -5.4758973 -1.6959323 4
4.5213199 -5.1194186 -1.7061104 6
3.3476417 -3.7904816 -1.7397263 6
2.4839342 -2.8125191 -1.7491157 6
3.3272316 -3.820802 1.3373863 20
3.6133983 -4.1494193 1.0632442 27
3.9543326 -4.5409288 0.84238935 2
8.6257153 -9.9052763 1.1403505 9
13.820074 -15.870181 1.0826228 23
13.869856 -15.927347 0.71279955 32
8.7922668 -11.718719 0.40742967 29
13.835703 -13.734652 0.42743182 32
13.910118 -15.973581 0.33939812 25
8.8192196 -11.754642 0.14876373 31
13.864453 -13.763191 0.082513899 40
13.94866 -16.017841 -0.035217237 25
8.8578291 -11.806103 -0.11128673 30
13.905903 -13.804338 -0.26334342 27
11.070187 -12.712367 -0.32602254 0
8.884057 -11.841061 -0.37367666 31
12.615082 -12.522945 -0.55333489 0
10.941278 -12.564337 -0.61761189 0
8.8259344 -11.763593 -0.63181049 38
12.609015 -12.516922 -0.86738926 1
10.848475 -12.457766 -0.90477109 0
8.8562174 -11.803955 -0.89481509 38
12.573516 -12.481683 -1.1789237 2
10.870375 -12.482915 -1.1995724 0
8.8956337 -11.856491 -1.1613559 33
12.559679 -12.467947 -1.4907516 2
11.540311 -13.252231 -1.5844001 2
8.9178686 -11.886127 -1.4271547 28
10.94918 -10.86921 -1.5728359 1
9.8932047 -11.360788 -1.6248379 3
8.6402063 -9.921917 -1.6522747 2
7.5721121 -8.6953793 -1.6520853 2
6.8154755 -7.8265014 -1.6725205 3
6.1879139 -7.1058455 -1.6851889 3
5.6318145 -6.4672527 -1.6866833 3
5.1806641 -5.9491773 -1.6913402 4
4.8080416 -5.5212789 -1.6995503 4
4.4829226 -5.1479311 -1.7051411 6
3.3161306 -3.8080542 -1.7371238 6
2.4523349 -2.8161206 -1.7406659 7
3.2917361 -3.8310516 1.3333026 7
3.5781202 -4.1643567 1.0609676 26
3.9602723 -4.6091204 0.8501482 3
8.4975014 -9.8897266 1.1320469 14
13.831667 -16.097837 1.0918707 27
13.881157 -16.155436 0.71887106 30
8.792841 -11.88284 0.4110992 26
13.834524 -13.916867 0.43023753 31
13.915949 -16.195929 0.34215379 30
8.8290977 -11.931838 0.15026189 32
13.880026 -13.96264 0.0831559 41
13.95421 -16.240458 -0.035502423 26
8.8626089 -11.977125 -0.1123423 31
13.909915 -13.992706 -0.26517105 28
10.928291 -12.718775 -0.32432088 0
8.8862019 -12.00901 -0.3771086 26
12.452827 -12.526946 -0.54985011 0
10.810818 -12.582054 -0.6149447 0
8.8380537 -11.943941 -0.63833463 34
12.590505 -12.665442 -0.87187546 3
10.710952 -12.465826 -0.90017724 0
8.8774862 -11.997231 -0.90498346 32
12.38916 -12.4629 -1.1693628 1
10.714547 -12.47001 -1.1914769 0
8.9021988 -12.030628 -1.1726038 31
12.344639 -12.418114 -1.4749712 2
11.449569 -13.325458 -1.5840409 3
8.9004221 -12.028228 -1.4370973 9
10.910517 -10.975455 -1.5777041 2
9.8409643 -11.453301 -1.6286985 4
8.5923166 -10.000075 -1.6557637 2
7.5297585 -8.7634287 -1.6554893 2
6.7737122 -7.883512 -1.6750662 2
6.1483479 -7.1556888 -1.6873015 3
5.6015873 -6.5193472 -1.6905429 2
5.1538382 -5.998239 -1.6955329 4
4.7738562 -5.5560012 -1.7004547 4
4.4562688 -5.1863804 -1.7080492 6
3.2981966 -3.8385708 -1.7410275 6
2.4477799 -2.8488224 -1.7508057 6
2.5549295 -3.0158696 1.0433654 16
3.5464215 -4.1862388 1.0602086 27
3.9561646 -4.6699042 0.85624444 3
8.3483992 -9.8545513 1.1213216 11
13.824813 -16.318975 1.1002966 28
13.884315 -16.389214 0.72494262 30
8.7991924 -12.066703 0.41532472 28
13.829416 -14.107347 0.43313089 31
13.926631 -16.439163 0.34522989 24
8.8186398 -12.093372 0.15151711 20
13.883018 -14.162026 0.083764106 42
13.959426 -16.477875 -0.035807505 30
13.912687 -14.192291 -0.26710624 30
10.764264 -12.706267 -0.32207778 0
12.269913 -12.516502 -0.54561859 0
10.663286 -12.587071 -0.61153656 0
8.8156738 -12.089305 -0.64279848 17
12.417874 -12.667438 -0.8660239 1
10.564282 -12.470206 -0.89514583 0
12.27112 -12.517734 -1.1664413 1
10.585967 -12.495803 -1.186851 0
12.204631 -12.449909 -1.4685918 2
11.379436 -13.432424 -1.5872736 3
9.1868982 -12.598381 -1.4975181 1
10.833631 -11.051354 -1.5777041 1
9.7581949 -11.518691 -1.6282694 5
8.5556431 -10.099184 -1.6622432 2
7.4683943 -8.8157825 -1.6554893 2
6.7261677 -7.9396491 -1.6769755 3
6.0931516 -7.1924295 -1.6858931 3
5.5711584 -6.5762625 -1.6951746 3
5.1244769 -6.0489945 -1.6997257 4
4.7349515 -5.5891938 -1.7004547 4
4.429986 -5.2292089 -1.7119267 6
3.268873 -3.8586171 -1.7397263 7
2.4325185 -2.8713744 -1.7541857 8
2.5214162 -3.018791 1.0382609 20
3.5095568 -4.2018523 1.0579319 27
3.9514003 -4.730854 0.86234069 3
8.2334156 -9.8575401 1.1150939 12
13.815541 -16.540796 1.1087224 24
13.882319 -16.620747 0.73087925 28
13.880581 -19.316872 0.6615172 47
13.841771 -14.318561 0.43663803 29
13.932027 -16.68026 0.34824193 24
13.864228 -19.294115 0.2405162 64
13.878334 -14.356383 0.084338531 40
13.910564 -14.389724 -0.26898763 2
10.63684 -12.735065 -0.32091758 0
10.535398 -14.661558 -0.45574018 11
12.115541 -12.53287 -0.54263163 0
10.516217 -12.590647 -0.60812843 0
12.048677 -12.463703 -0.84632385 17
10.405277 -12.457824 -0.88902068 0
9.028306 -12.564218 -0.93815166 1
12.050279 -12.46536 -1.1536933 2
9.6007948 -11.494649 -1.0853688 6
8.9893293 -12.509975 -1.2069728 2
12.344584 -12.769802 -1.4961237 1
11.285383 -13.511539 -1.5872736 3
9.0824575 -12.639577 -1.4948412 0
10.811529 -11.18394 -1.5858178 1
9.6673431 -11.574325 -1.6265537 5
8.4874735 -10.161714 -1.6627417 2
7.4371257 -8.9041739 -1.6622974 2
6.6731057 -7.9894433 -1.6776119 3
6.0503626 -7.2438579 -1.6880058 2
5.5301437 -6.6210203 -1.6967185 3
5.0921507 -6.0966291 -1.7030798 5
4.6858249 -5.6101513 -1.6968367 4
4.3908834 -5.2570295 -1.7109573 6
3.2467046 -3.88715 -1.7423288 6
2.405441 -2.8799386 -1.7491157 7
2.4967628 -3.0342057 1.03724 18
3.4487171 -4.1910739 1.0488248 27
3.9619246 -4.8147521 0.8723163 2
8.1102962 -9.8560848 1.1081743 10
13.792917 -16.761923 1.1167374 20
9.4926252 -11.535968 0.50420821 8
13.807891 -19.516024 0.66485316 46
13.830222 -14.518087 0.43961909 40
9.4841042 -11.525614 0.239168 27
13.840243 -19.561752 0.24258125 46
13.880323 -14.570681 0.084997423 39
9.4624338 -11.499278 -0.024691859 35
10.597003 -14.977767 -0.13833936 0
12.119122 -12.721884 -0.23614362 0
9.5292883 -11.580523 -0.29005563 6
10.420712 -14.728599 -0.45543736 2
11.954404 -12.548973 -0.5395202 0
9.4864302 -11.52844 -0.55345023 20
9.2441883 -13.065703 -0.68760896 0
9.4685888 -11.506758 -0.81617528 26
8.9382696 -12.63332 -0.93839377 0
11.870486 -12.460882 -1.1451946 0
9.4503708 -11.484618 -1.0778515 42
2.6924782 -3.8055394 -0.36524752 1
12.613546 -13.2409 -1.5404433 5
9.48244 -11.523591 -1.3455367 40
2.6699617 -3.7737145 -0.44397816 16
10.759449 -11.294586 -1.5902803 3
9.4710569 -11.509757 -1.6076802 29
8.4354553 -10.251237 -1.6672275 2
7.3691416 -8.9553928 -1.6617301 2
6.6168723 -8.041193 -1.6782484 3
6.0046077 -7.2971349 -1.6901184 3
5.4814625 -6.6613793 -1.6967185 2
5.037385 -6.1217117 -1.6997257 4
4.6619067 -5.6654096 -1.7031683 4
4.3546972 -5.2920713 -1.7119267 6
3.2181244 -3.9108446 -1.7423288 6
2.3842661 -2.8974936 -1.7491157 5
2.4682097 -3.042552 1.0341773 19
3.4342194 -4.2333479 1.0533783 17
6.2317357 -7.6818352 1.3838462 19
8.0036316 -9.866044 1.1029845 9
9.3695459 -11.5498 0.76511097 36
9.3640041 -11.54297 0.50164467 34
13.835313 -14.72796 0.44303855 55
9.3454561 -11.520106 0.23769403 27
2.6441429 -3.7931116 0.046807531 17
13.882332 -14.778013 0.085639425 36
9.3441229 -11.518462 -0.024592375 31
2.637341 -3.783354 -0.034773335 26
11.950596 -12.721642 -0.23458473 1
9.3701038 -11.550488 -0.28765786 36
2.6388628 -3.7855372 -0.11648376 34
11.778909 -12.538878 -0.5355376 0
9.3578682 -11.535406 -0.5506348 45
2.6441267 -3.7930884 -0.1986426 20
11.715887 -12.47179 -0.835401 0
9.3402166 -11.513647 -0.81201893 42
2.6462801 -3.7961774 -0.28059813 32
11.712154 -12.467817 -1.1382896 0
9.3297482 -11.500742 -1.0732256 46
2.6270773 -3.7686305 -0.35993597 36
12.627233 -13.441936 -1.5535378 4
9.3565817 -11.53382 -1.3390713 38
2.6162276 -3.7530661 -0.43938926 46
10.674887 -11.363626 -1.589469 2
9.327836 -11.498385 -1.5969566 32
8.3636827 -10.309877 -1.6672275 2
7.3263974 -9.0312204 -1.6662687 2
6.5705247 -8.0994587 -1.6807941 3
5.9733629 -7.3633404 -1.6957521 3
5.4447141 -6.7116766 -1.6998062 3
5.0068445 -6.1719165 -1.7039185 4
4.6271505 -5.7038693 -1.7049773 4
4.3323145 -5.340426 -1.717743 6
3.1931257 -3.9361532 -1.7436299 7
2.3594117 -2.908437 -1.7457359 5
2.4348311 -3.0446072 1.0290728 20
3.3972225 -4.2480187 1.0511016 9
6.1655831 -7.7096844 1.3810751 24
7.8847804 -9.8594351 1.0960649 10
9.248765 -11.565015 0.76182282 34
9.2357512 -11.548742 0.4990811 34
2.6121933 -3.8036077 0.12832256 44
13.838141 -14.938605 0.44645801 51
9.21984 -11.528846 0.23654048 29
2.6085408 -3.7982893 0.046645567 61
13.89299 -14.997816 0.086349003 38
9.2160149 -11.524062 -0.024466362 31
2.5995426 -3.785187 -0.034622539 34
11.826156 -12.766619 -0.23388593 0
9.2392826 -11.553157 -0.28611088 45
2.6010525 -3.7873855 -0.11597906 38
11.639461 -12.565077 -0.53317291 0
9.2196884 -11.528655 -0.54722667 47
2.6085329 -3.7982779 -0.19795585 41
11.549795 -12.468281 -0.82974452 0
9.2147083 -11.522429 -0.80808133 46
2.6106727 -3.8013937 -0.27962971 46
11.559733 -12.479009 -1.1319156 0
9.1969042 -11.500166 -1.0671539 46
2.6007042 -3.7868783 -0.35993597 41
12.592672 -13.594091 -1.5609244 4
9.2161169 -11.52419 -1.3304507 63
2.5967257 -3.7810855 -0.44053647 44
10.595294 -11.437874 -1.589469 2
9.215045 -11.52285 -1.5913804 34
8.3162899 -10.399012 -1.6722116 2
7.2730613 -9.0945187 -1.6685381 2
6.5261517 -8.160553 -1.6839762 2
5.9218116 -7.4048629 -1.6957521 3
5.4050794 -6.7587209 -1.7021221 4
4.9636345 -6.2067208 -1.7039185 4
4.5993853 -5.7512493 -1.7094997 4
4.2900782 -5.36448 -1.7158042 6
3.1632061 -3.9553957 -1.7423288 7
2.3526354 -2.9418266 -1.7558756 5
2.4159105 -3.0645683 1.0300937 21
3.3553259 -4.2562113 1.047307 3
6.065012 -7.6934319 1.3705453 23
5.8692188 -7.4450693 0.82308668 13
9.1158657 -11.563421 0.75750715 31
9.105402 -11.550148 0.49638262 36
2.5654109 -3.7919462 0.12732176 37
13.836006 -15.147047 0.44978979 57
9.0871315 -11.526973 0.23519468 29
2.5707538 -3.7998435 0.046443112 39
13.893161 -15.209618 0.087007895 39
9.083333 -11.522155 -0.024327086 33
2.5596058 -3.7833657 -0.034441587 39
11.612659 -12.713025 -0.23141323 0
9.1014547 -11.545141 -0.28433189 49
2.5611038 -3.7855802 -0.11537343 42
11.470567 -12.557469 -0.52943921 0
9.0969076 -11.539374 -0.54470766 53
2.5640378 -3.7899165 -0.19658233 45
11.408582 -12.489611 -0.82584351 0
9.0821152 -11.520609 -0.80348748 48
2.5616977 -3.7864575 -0.27720869 50
11.418498 -12.500466 -1.1266038 0
9.0694666 -11.504564 -1.0616606 47
2.5630307 -3.7884281 -0.35837376 41
12.502841 -13.687557 -1.5615959 3
9.0935097 -11.535064 -1.3243444 63
2.5524163 -3.7727389 -0.4374772 40
10.544708 -11.54388 -1.5939314 2
9.0851336 -11.524438 -1.5828015 37
8.238574 -10.450583 -1.6712148 2
7.2191973 -9.1575089 -1.6708074 2
6.4788008 -8.2183199 -1.6865219 3
5.8821602 -7.4614854 -1.6992732 3
5.3650517 -6.8055367 -1.7044379 4
4.9274459 -6.2504363 -1.706434 4
4.5591216 -5.7832189 -1.7094997 4
4.2669377 -5.4125853 -1.7216206 6
3.1448817 -3.989264 -1.7475336 7
2.3230622 -2.9467907 -1.7491157 7
2.3860366 -3.0683112 1.02601 20
3.3053269 -4.2504678 1.0404767 0
4.656908 -5.9885263 1.0612997 1
5.8710856 -7.5498919 0.83035225 6
8.9825745 -11.551094 0.75278044 33
8.9795189 -11.547165 0.49368417 37
2.5335495 -3.7988977 0.12698817 36
13.84234 -15.357296 0.45329693 55
8.9662924 -11.530156 0.23404114 29
2.534399 -3.8001716 0.046240658 41
13.896425 -15.417301 0.087666795 40
8.9551535 -11.515832 -0.024187809 32
2.5322378 -3.7969308 -0.034411427 39
11.434362 -12.685781 -0.22953181 0
8.9878616 -11.557893 -0.28317165 51
2.527066 -3.789176 -0.11496967 40
11.333494 -12.573874 -0.52695006 0
8.9858255 -11.555275 -0.54263312 54
2.5299761 -3.7935393 -0.19589558 48
11.255949 -12.487842 -0.82077223 0
8.9540234 -11.514379 -0.79889363 24
2.5298824 -3.7933989 -0.27648237 43
11.255177 -12.486984 -1.1186364 0
8.9317417 -11.485725 -1.0544325 7
2.5245726 -3.7854373 -0.35649908 45
12.393106 -13.749454 -1.5592456 3
8.963007 -11.525931 -1.3164421 52
2.5140831 -3.7697089 -0.43518275 44
10.494557 -11.64312 -1.5979884 2
8.9596767 -11.521649 -1.5742226 25
8.1788301 -10.517524 -1.6732086 2
7.1704597 -9.2208147 -1.6736441 2
6.4386992 -8.2798109 -1.6903404 3
5.8446317 -7.5158734 -1.7027943 3
5.3222089 -6.8440661 -1.7052097 3
4.8954883 -6.2953277 -1.7097882 4
4.5230589 -5.8164034 -1.7104042 5
4.2357121 -5.4468913 -1.7235593 7
3.1137118 -4.0040612 -1.7449311 7
2.3145957 -2.9764421 -1.7575656 6
2.3645575 -3.0848942 1.02601 19
5.1009097 -6.6548467 1.6202902 20
4.5836577 -5.9800191 1.054095 1
5.8545985 -7.6381383 0.83554196 6
8.8652611 -11.565967 0.7496978 34
8.8573418 -11.555634 0.49139047 41
2.4981856 -3.8031249 0.12654339 36
13.841054 -15.573123 0.45680404 47
8.8515148 -11.548033 0.23314394 29
2.4990234 -3.8044004 0.046078693 36
13.892087 -15.630543 0.088325687 35
8.8745394 -11.578071 -0.024187809 23
2.4924922 -3.7944574 -0.034230471 37
11.289723 -12.702518 -0.22840297 0
8.8534279 -11.550529 -0.28147 52
2.4873786 -3.7866728 -0.11436404 37
11.173725 -12.572005 -0.52358973 0
8.863596 -11.563794 -0.54011405 62
2.4968486 -3.8010893 -0.19538052 46
11.10214 -12.491462 -0.81589597 1
8.853981 -11.55125 -0.79714358 6
2.4901855 -3.790946 -0.27502975 42
11.109395 -12.499625 -1.1127936 0
8.8998785 -11.61113 -1.060215 25
2.4827583 -3.7796388 -0.35431197 43
12.272985 -13.808825 -1.5562239 2
8.8556633 -11.553444 -1.3124909 24
2.4833324 -3.7805128 -0.4344179 37
10.450027 -11.757743 -1.6036679 2
8.8959579 -11.606014 -1.5772252 22
8.110033 -10.580667 -1.6742054 2
7.1227727 -9.2926474 -1.6776154 2
6.3855429 -8.3308296 -1.6916133 2
5.7872276 -7.5502434 -1.7013859 2
5.2790737 -6.8872857 -1.7067536 3
4.8395228 -6.3138309 -1.7055955 3
4.4989347 -5.8694863 -1.7167357 4
4.1952214 -5.4732499 -1.7225899 7
3.0879836 -4.0287042 -1.7462324 7
2.2827322 -2.9781418 -1.7491157 6
2.3336382 -3.0889831 1.0219264 20
5.0614281 -6.6996961 1.6225669 28
4.5203066 -5.9834261 1.0491072 5
7.4537935 -9.866415 1.0735763 8
8.7818918 -11.624388 0.74949229 29
8.822238 -11.677794 0.493954 27
2.4542 -3.7936151 0.1256538 37
13.840058 -15.792682 0.46039885 60
8.8454151 -11.708473 0.23513059 23
2.4550228 -3.7948871 0.045754768 39
13.903896 -15.865526 0.089102842 42
8.877883 -11.75145 -0.024419937 25
2.4637694 -3.8084073 -0.034200314 37
11.140137 -12.711843 -0.22716662 0
8.8159676 -11.669494 -0.28286228 34
2.4500227 -3.787158 -0.11385934 37
11.009267 -12.562508 -0.51998049 0
8.8549347 -11.721074 -0.54455942 40
2.4593983 -3.8016503 -0.19452208 45
10.946199 -12.490542 -0.81082463 0
8.879055 -11.753001 -0.80676877 33
2.4528162 -3.7914758 -0.27381924 41
10.942945 -12.486829 -1.1048261 0
8.9051752 -11.787577 -1.0706235 34
2.4498136 -3.7868345 -0.35337463 41
10.954712 -12.500257 -1.4000978 0
8.8540363 -11.719884 -1.3243444 38
2.4503913 -3.7877276 -0.43327069 38
10.365065 -11.827419 -1.6032622 2
8.8890314 -11.766206 -1.5905224 26
8.0551081 -10.662361 -1.6781927 2
7.0553374 -9.3389883 -1.6770481 2
6.3415098 -8.3941107 -1.6954318 3
5.7367496 -7.5936036 -1.70209 2
5.2355943 -6.9302359 -1.7082975 4
4.823617 -6.3849111 -1.7156579 3
4.4578485 -5.9007516 -1.7167357 4
4.1592479 -5.5055008 -1.7235593 7
3.0666227 -4.0592179 -1.750136 7
2.2749977 -3.0113621 -1.7592555 5
2.3097062 -3.1020975 1.0209055 20
5.0074959 -6.7254181 1.6202902 29
4.4524007 -5.9798865 1.043011 6
7.3418937 -9.8606787 1.0673486 9
8.7887936 -11.803967 0.75709611 28
8.8264456 -11.854535 0.49881124 24
2.4233592 -3.8039114 0.1254314 34
13.84713 -16.02508 0.46434438 43
8.8518343 -11.888634 0.23750177 21
2.4177244 -3.7950668 0.045552313 40
13.886949 -16.071161 0.089711055 37
8.8816242 -11.928644 -0.024658699 23
2.4156303 -3.79178 -0.033898722 40
11.022358 -12.756013 -0.22657531 0
8.8131008 -11.836613 -0.28541476 36
2.4106328 -3.7839353 -0.11325371 35
10.874246 -12.584605 -0.51774025 0
8.8492804 -11.885204 -0.54930121 36
2.4263563 -3.8086164 -0.19400702 43
10.793431 -12.49108 -0.80594838 0
8.880271 -11.926826 -0.81442523 33
2.4198513 -3.7984054 -0.27309293 39
10.792879 -12.490441 -1.0984521 0
8.9084387 -11.964658 -1.0810319 27
2.4126036 -3.7870288 -0.35181242 38
10.804635 -12.504046 -1.3920397 0
8.8528919 -11.890055 -1.3365569 35
2.4131916 -3.7879517 -0.43135864 35
10.295253 -11.914546 -1.6052907 2
8.8897972 -11.939621 -1.6055355 25
7.9923253 -10.734254 -1.6806849 2
7.0207081 -9.4293032 -1.6844234 2
6.2898288 -8.4476814 -1.6973411 3
5.7094631 -7.6682096 -1.7098365 3
5.1988049 -6.9823594 -1.7121572 3
4.7789245 -6.4184308 -1.7156579 3
4.4142179 -5.9286041 -1.7158312 4
4.1299815 -5.5468545 -1.7274368 6
3.0382092 -4.0805283 -1.750136 7
2.2495885 -3.0213554 -1.7558756 7
2.2960522 -3.1314209 1.0249891 20
4.9534163 -6.755609 1.6187723 27
4.3943915 -5.9931951 1.0396857 8
7.2340679 -9.8660259 1.0621589 7
8.7752552 -11.967941 0.76346689 26
8.8267736 -12.038203 0.50380343 26
2.3847919 -3.8046339 0.12487541 37
13.835577 -16.250998 0.4679392 68
8.8401251 -12.056413 0.23955251 22
2.3792186 -3.7957423 0.045349859 39
13.898417 -16.324808 0.090555795 40
8.8814573 -12.112782 -0.024904091 7
2.3813972 -3.7992182 -0.033808246 40
10.83781 -12.729879 -0.22469391 0
8.8135948 -12.020228 -0.28827664 35
2.3722117 -3.7845638 -0.11274901 37
10.755787 -12.633537 -0.5164957 0
8.851737 -12.072248 -0.554932 38
2.3877602 -3.8093693 -0.19314858 42
10.63424 -12.49077 -0.80087709 0
8.8587313 -12.081787 -0.82055038 8
2.372858 -3.7855947 -0.27091399 38
10.633759 -12.490207 -1.0915469 0
2.3763068 -3.7910969 -0.35056263 41
10.640338 -12.497933 -1.3826386 0
8.8620787 -12.086352 -1.3512838 24
2.3705571 -3.7819238 -0.42868176 39
10.225697 -12.010903 -1.6081305 2
8.8584747 -12.081438 -1.6158301 9
7.922811 -10.805353 -1.6826786 2
6.9677877 -9.5028658 -1.6883948 2
6.2324047 -8.4999294 -1.6986139 3
5.6484418 -7.7035046 -1.708428 3
5.1521225 -7.0266099 -1.7137011 3
4.7294335 -6.4501352 -1.7148194 3
4.3683362 -5.9576602 -1.7149267 4
4.0915046 -5.5801096 -1.7284062 7
3.0104523 -4.1057396 -1.7514372 6
2.2295241 -3.040688 -1.7575656 6
2.2696054 -3.141104 1.0229473 20
4.8946338 -6.7741089 1.6149777 28
4.3222847 -5.9819851 1.0324812 9
7.1370096 -9.8775272 1.0580071 6
8.7523212 -12.113097 0.76881015 3
13.902805 -19.241299 0.80117428 27
2.3497729 -3.8075795 0.12443062 36
13.84777 -16.49728 0.47223544 66
13.930017 -19.278959 0.38111791 33
2.3484602 -3.8054523 0.045268875 42
13.89212 -16.550117 0.091265373 40
10.827765 -14.985483 -0.03065425 13
2.3401115 -3.791924 -0.033597134 41
10.704959 -12.753152 -0.22378008 0
2.3415325 -3.7942269 -0.11254713 39
10.561938 -12.582767 -0.51139295 0
2.3464162 -3.8021405 -0.19194677 46
10.495407 -12.503506 -0.79697609 0
9.1063309 -12.603042 -0.85161358 0
2.3484685 -3.8054659 -0.2711561 40
10.482153 -12.487717 -1.0849073 0
9.0400476 -12.511307 -1.1186179 2
2.3393106 -3.7906263 -0.34900042 41
10.499012 -12.507801 -1.3755877 1
2.329459 -3.7746627 -0.42600489 40
10.154387 -12.097239 -1.6101588 3
8.9299698 -12.358961 -1.6445693 3
7.8471851 -10.8604 -1.6826786 2
2.7224798 -3.7678761 -0.66605359 5
6.1752272 -8.5464325 -1.6992503 2
5.6037498 -7.7555156 -1.7112449 1
2.7192714 -3.7634356 -0.91320199 4
2.7120776 -3.7534797 -0.99283433 20
4.3403311 -6.0069609 -1.7203537 3
2.7205732 -3.7652376 -1.160349 11
2.7269635 -3.7740815 -1.6017973 0
2.2231059 -3.0767491 -1.7693954 7
2.245378 -3.1537216 1.0219264 21
4.844945 -6.804915 1.6142188 27
4.2620363 -5.9861975 1.0280476 8
7.0308976 -9.8751717 1.0524715 5
12.539091 -17.611645 1.1122161 1
13.840016 -19.438845 0.80535686 32
2.3169053 -3.8136392 0.12409703 36
13.846991 -16.732193 0.47618097 60
13.883234 -19.499546 0.38355318 28
2.3135288 -3.8080814 0.04510691 40
12.424626 -15.01346 0.082311161 11
10.678803 -14.998797 -0.030528238 10
2.3073514 -3.7979133 -0.033506654 40
9.5370121 -11.524173 -0.20104192 8
10.655946 -14.966694 -0.3553375 0
2.3066819 -3.7968113 -0.11214337 40
9.5128641 -11.494993 -0.46447274 26
9.6629944 -13.572055 -0.61761189 0
2.3094404 -3.8013518 -0.19108833 44
9.5163383 -11.499192 -0.72870845 0
8.9833765 -12.617504 -0.84833229 0
2.315625 -3.8115315 -0.27042979 39
9.5295506 -11.515157 -0.99460906 19
8.9293432 -12.541613 -1.1157267 2
2.3024375 -3.789825 -0.34743819 43
9.5194607 -11.502965 -1.2577378 34
8.9604931 -12.585364 -1.3929502 0
2.2947805 -3.7772217 -0.42447525 42
9.4963036 -11.474982 -1.5184743 36
8.8988295 -12.498755 -1.654864 2
7.7573633 -10.895521 -1.6796881 0
2.6892195 -3.7771142 -0.66435158 14
2.6820774 -3.7670829 -0.74525172 13
2.6833856 -3.7689204 -0.82745379 1
2.6747205 -3.7567501 -0.90702647 1
2.6812708 -3.76595 -0.99115723 1
2.6711762 -3.7517717 -1.0691156 1
2.6627095 -3.7398801 -1.1467776 1
2.6654487 -3.7437272 -1.5809779 11
2.1910582 -3.0774271 -1.7609456 9
2.214422 -3.1566558 1.0178428 19
4.8040857 -6.8482184 1.6164956 29
4.197391 -5.983376 1.0225055 9
2.6524353 -3.7810435 0.40099093 1
13.604193 -19.392761 1.2186699 19
13.855496 -19.750994 0.81426179 4
2.2738085 -3.8022678 0.12320744 36
9.4346838 -11.563947 0.32721549 66
2.6620717 -3.79478 0.074275374 2
2.2745709 -3.8035426 0.044863965 42
9.4141092 -11.538728 0.062899105 38
2.6601126 -3.7919872 -0.0076801432 22
2.2746227 -3.8036294 -0.033416178 39
9.4032297 -11.525393 -0.19991307 36
2.6366513 -3.7585433 -0.088795699 0
2.265754 -3.7887988 -0.1114368 40
9.3818331 -11.499168 -0.46198362 37
2.6720636 -3.8090234 -0.17248087 2
2.27054 -3.7968023 -0.19005822 43
9.4029942 -11.525105 -0.72617275 29
2.6584289 -3.7895873 -0.25353715 21
2.2725663 -3.8001904 -0.26849294 42
9.3908968 -11.510277 -0.9885006 48
2.6439936 -3.7690096 -0.33364826 38
2.265691 -3.7886937 -0.34587598 42
9.38097 -11.49811 -1.2500154 36
2.6676724 -3.8027637 -0.41881895 5
2.2622249 -3.7828975 -0.42332801 41
9.3706818 -11.485499 -1.5111719 38
2.6493447 -3.7766378 -0.49757445 31
2.6530597 -3.7819335 -0.58016527 37
2.6423194 -3.766623 -0.65924555 60
2.6579809 -3.7889488 -0.74588817 1
2.6366568 -3.7585511 -0.82111585 21
2.6394124 -3.7624793 -0.90393871 10
2.6549141 -3.7845769 -0.99115723 25
2.6337304 -3.7543797 -1.0645932 17
2.6432214 -3.7679088 -1.1496857 3
2.6501086 -3.7777264 -1.587484 40
2.1757665 -3.1015527 -1.7660154 6
2.1967282 -3.1784015 1.0198846 20
4.7494607 -6.8718982 1.6142188 5
2.6239443 -3.7965317 0.64564711 29
2.6146455 -3.7830775 0.39926106 27
2.6119301 -3.7791488 0.23633565 27
2.6138961 -3.7819932 0.15516174 25
2.2370672 -3.8008199 0.12265145 36
9.2960787 -11.557858 0.32519889 44
2.6105006 -3.7770805 0.073570438 23
2.2357886 -3.7986472 0.044621021 39
9.2831879 -11.54183 0.062561214 44
2.6222034 -3.794013 -0.0076469821 44
2.2378685 -3.8021812 -0.033265382 41
9.2724056 -11.528424 -0.19883798 36
2.6217167 -3.793309 -0.089182444 26
2.2331626 -3.7941861 -0.11113399 41
9.2587299 -11.511422 -0.45986786 43
2.6226797 -3.7947023 -0.17099908 36
2.2338426 -3.7953413 -0.18919978 45
9.277235 -11.53443 -0.72266185 42
2.6069286 -3.7719121 -0.25113085 42
2.2378795 -3.8021998 -0.26752454 41
9.2627869 -11.516465 -0.98345453 48
2.6176164 -3.7873764 -0.33364826 46
2.2290719 -3.7872355 -0.34431374 43
9.2605019 -11.513625 -1.2446433 41
2.6229384 -3.7950764 -0.41594541 40
2.229701 -3.7883048 -0.4221808 40
9.2354021 -11.482419 -1.502247 41
2.6161308 -3.7852266 -0.49628761 52
2.6130528 -3.7807734 -0.57717472 41
2.6114564 -3.7784634 -0.65811092 40
2.613502 -3.7814233 -0.7407968 19
2.6125915 -3.7801056 -0.82182008 45
2.6108496 -3.7775853 -0.90316677 43
2.6106384 -3.7772799 -0.98444891 38
2.6141019 -3.7822909 -1.0673068 36
2.6058197 -3.7703075 -1.1448388 37
2.6064663 -3.7712431 -1.5770743 34
2.1499381 -3.1107018 -1.7626355 7
2.1799562 -3.1992927 1.0219264 20
2.5829885 -3.790781 0.88641638 25
2.5875547 -3.7974823 0.64287609 31
2.5805228 -3.7871623 0.39787713 31
2.5890584 -3.7996893 0.23654115 30
2.5797515 -3.7860305 0.15462205 34
2.2077994 -3.8086545 0.12242906 38
9.1670208 -11.55347 0.32335764 40
2.5853934 -3.7943106 0.073570438 26
2.2085397 -3.8099318 0.04458053 40
9.1591969 -11.54361 0.062240213 49
2.5812171 -3.7881813 -0.0076005561 33
2.2005663 -3.7961767 -0.03308443 40
9.1460218 -11.527004 -0.19776289 37
2.5919976 -3.8040028 -0.089027748 36
2.199928 -3.7950754 -0.11073023 45
9.134964 -11.513067 -0.45750317 45
2.5952046 -3.8087091 -0.1708509 53
2.2066176 -3.8066158 -0.18902808 49
9.1533499 -11.53624 -0.71895587 46
2.5841045 -3.792419 -0.2513496 46
2.200599 -3.7962332 -0.26607192 47
9.1390676 -11.51824 -0.97840846 46
2.5767155 -3.7815747 -0.33162439 49
2.1979051 -3.7915859 -0.34337643 47
9.1294327 -11.506097 -1.2372566 43
2.5864954 -3.7959278 -0.41414946 48
2.1945429 -3.7857857 -0.42026874 45
9.1194696 -11.49354 -1.495756 45
2.5775332 -3.7827749 -0.49371395 52
2.5722775 -3.7750616 -0.57368577 46
2.5729623 -3.7760665 -0.6547069 44
2.5772476 -3.7823555 -0.73761469 41
2.5741611 -3.7778261 -0.81759477 47
2.5746889 -3.7786007 -0.89930713 43
2.5701134 -3.7718856 -0.9785791 35
2.580184 -3.786665 -1.0636888 34
2.5785723 -3.7842999 -1.1438695 42
2.5686183 -3.7696915 -1.5692669 29
2.127219 -3.1218958 -1.7609456 7
2.148946 -3.2015889 1.0178428 20
2.5520833 -3.8021994 0.88489848 29
2.5499413 -3.7990081 0.64010507 33
2.5451369 -3.7918503 0.3964932 30
2.5535634 -3.8044045 0.23571911 30
2.5510297 -3.8006294 0.15448712 31
2.1672888 -3.7996624 0.12165067 37
9.0417929 -11.560486 0.32177943 42
2.5476966 -3.7956638 0.073250003 26
2.166034 -3.7974627 0.044256601 47
9.0266352 -11.541106 0.061885424 49
2.5457907 -3.7928243 -0.0075740269 30
2.1660833 -3.7975492 -0.032963794 44
9.0135803 -11.524415 -0.19663404 37
2.5520046 -3.8020821 -0.088563658 47
2.1614926 -3.789501 -0.1101246 41
9.0100298 -11.519876 -0.45526296 44
2.5574131 -3.8101399 -0.17011 51
2.1720688 -3.8080428 -0.18834133 50
9.0159779 -11.52748 -0.71446973 43
2.5464361 -3.793786 -0.25025582 45
2.168108 -3.8010988 -0.2653456 49
9.0117149 -11.52203 -0.97336239 51
2.5413585 -3.7862213 -0.33046788 47
2.1634781 -3.7929819 -0.34212664 43
8.9973154 -11.503619 -1.2302059 36
2.5399497 -3.784122 -0.41091672 51
2.1562231 -3.7802622 -0.41797429 49
8.9899769 -11.494236 -1.4876423 7
2.5399795 -3.7841668 -0.49156922 55
2.5370126 -3.7797463 -0.57169205 44
2.5332973 -3.7742114 -0.65130287 43
2.5375741 -3.7805829 -0.73379612 45
2.5411408 -3.785897 -0.81548214 45
2.5373099 -3.7801893 -0.89544743 44
2.5415385 -3.7864892 -0.97774059 39
2.5363131 -3.7787042 -1.0564528 37
2.5391135 -3.7828765 -1.1380532 43
2.5295904 -3.7686887 -1.5614597 30
2.1195157 -3.1577423 -1.7727753 7
2.1339469 -3.2301631 1.0219264 19
2.5024955 -3.7880363 0.87730932 37
2.5154741 -3.8076823 0.63844246 33
2.5040936 -3.7904553 0.39441732 28
2.507992 -3.7963564 0.23407505 29
2.5120831 -3.8025491 0.1538125 30
2.1296008 -3.7980092 0.12109468 34
8.9104376 -11.566264 0.32011354 42
2.5043728 -3.7908778 0.072801404 22
2.1303148 -3.7992828 0.044094637 43
8.8954105 -11.54676 0.061564423 46
2.5091004 -3.7980342 -0.0075474982 31
2.1303635 -3.7993693 -0.032843158 39
8.8898058 -11.539483 -0.19577397 40
2.510839 -3.8006661 -0.088099569 44
2.12779 -3.7947795 -0.10982177 41
8.8887434 -11.538104 -0.45339611 46
2.5206013 -3.8154433 -0.16951728 46
2.1343243 -3.8064332 -0.18748289 48
8.877594 -11.523632 -0.71017861 11
2.509752 -3.7990205 -0.24938081 44
2.1323764 -3.8029594 -0.26437718 44
8.8709898 -11.515059 -0.96725398 29
2.5003417 -3.784776 -0.32873315 45
2.129766 -3.7983036 -0.3411893 41
8.8543673 -11.493483 -1.2221477 11
2.5033591 -3.7893434 -0.40947995 49
2.1187186 -3.7786014 -0.41606224 38
8.9103355 -11.566133 -1.4884537 18
2.5034039 -3.7894113 -0.48985347 54
2.4961116 -3.7783728 -0.56870151 44
2.4837377 -3.7596426 -0.64562947 39
2.507616 -3.7957876 -0.73315972 43
2.5046391 -3.7912812 -0.81266528 47
2.4943881 -3.775764 -0.89004385 41
2.4986231 -3.7821748 -0.97187078 35
2.4935119 -3.7744377 -1.0501213 34
2.4963417 -3.7787213 -1.1312675 40
2.4914725 -3.7713506 -1.5549536 33
2.078326 -3.1459694 -1.7575656 7
2.1261086 -3.2676744 1.0290728 21
2.4695632 -3.7955391 0.8750326 38
2.4715466 -3.7985876 0.63400882 32
2.4645302 -3.7878036 0.39234143 27
2.4596412 -3.7802896 0.23201996 32
2.476754 -3.8065908 0.15327281 29
2.0991716 -3.8057816 0.12087228 36
8.8004541 -11.589967 0.3190614 48
2.4756649 -3.8049169 0.072737321 27
2.09408 -3.7965508 0.043892182 40
8.8170033 -11.611763 0.061581317 33
2.4716165 -3.7986946 -0.0075143371 28
2.0960598 -3.8001399 -0.032722522 35
8.8525667 -11.658599 -0.19674155 24
2.4667954 -3.7912855 -0.087480783 41
2.0935204 -3.7955363 -0.10941802 39
8.8756762 -11.689033 -0.4568809 32
2.4764633 -3.806144 -0.16833185 46
2.098048 -3.8037446 -0.18662445 44
8.8235064 -11.620327 -0.7123242 16
2.4635644 -3.7863193 -0.24741201 38
2.096133 -3.8002727 -0.26316667 41
8.8531399 -11.659353 -0.97415912 36
2.4673305 -3.7921076 -0.32786578 43
2.0916409 -3.7921288 -0.33931464 38
8.8896141 -11.707389 -1.238264 32
2.4681525 -3.793371 -0.40804318 48
2.0845952 -3.7793548 -0.4145326 38
8.9208202 -11.748487 -1.5038697 28
2.466043 -3.7901287 -0.48770875 49
2.4566858 -3.7757473 -0.56571096 41
2.4574296 -3.7768908 -0.64562947 40
2.4659796 -3.7900312 -0.72870475 42
2.4695201 -3.7954729 -0.80984843 47
2.4572649 -3.7766376 -0.88618416 39
2.4572263 -3.7765782 -0.96600097 32
2.4543505 -3.7721581 -1.0446943 34
2.4572017 -3.7765403 -1.1254512 41
2.4527056 -3.7696302 -1.5471462 30
2.0681756 -3.1786354 -1.7677054 5
2.1178508 -3.3052318 1.0362191 21
2.4324121 -3.7961531 0.87123799 37
2.4406936 -3.8090777 0.63290042 31
2.4251275 -3.7847846 0.39026555 27
2.4288805 -3.7906413 0.23160894 26
2.4371789 -3.8035922 0.15246327 25
2.0687375 -3.8133144 0.12064989 38
8.7936049 -11.750378 0.32177943 27
2.4317801 -3.795167 0.072224632 23
2.0618019 -3.8005302 0.043770712 37
8.824399 -11.791526 0.062206421 33
2.434247 -3.799017 -0.0074811755 28
2.0618491 -3.800617 -0.032601885 38
8.8548346 -11.832196 -0.19862296 26
2.4316378 -3.7949445 -0.087171391 40
2.0574374 -3.792485 -0.10891332 39
8.8753014 -11.859545 -0.46111241 31
2.4368927 -3.8031456 -0.16744277 47
2.0638189 -3.8042479 -0.1859377 44
8.8283434 -11.796797 -0.71934599 31
2.4306073 -3.7933366 -0.24675575 41
2.0657432 -3.807795 -0.26268247 39
8.86479 -11.845498 -0.98451686 34
2.4214258 -3.7790074 -0.32526368 40
2.055608 -3.7891126 -0.3377524 39
8.8936396 -11.884048 -1.2503512 28
2.4308639 -3.7937369 -0.4062472 47
2.048666 -3.7763164 -0.41262054 40
8.9291859 -11.931546 -1.5192857 26
2.4287958 -3.7905092 -0.48556402 49
2.4217021 -3.7794387 -0.56371725 39
2.4203219 -3.7772846 -0.64279282 39
2.4288082 -3.7905285 -0.72552264 40
2.4238446 -3.7827823 -0.80351049 45
2.4244878 -3.7837861 -0.88386834 39
2.4202516 -3.7771747 -0.96180826 34
2.4174464 -3.7727969 -1.0401717 33
2.4224024 -3.7805316 -1.1215737 40
2.4222484 -3.7802911 -1.5445439 31
2.0478909 -3.1960485 -1.7693954 8
2.0926607 -3.3166659 1.0351982 21
2.3932767 -3.7931135 0.8666845 37
2.3929031 -3.7925215 0.62735838 33
2.3858871 -3.7814016 0.38818967 30
2.3916993 -3.7906137 0.23058139 27
2.3998992 -3.8036096 0.15178865 30
2.0307727 -3.8064973 0.1199827 36
8.7968092 -11.927344 0.32493585 32
2.3881524 -3.784992 0.07171195 27
2.0295711 -3.804245 0.043649238 36
8.8249617 -11.965515 0.06279774 32
2.3969934 -3.7990041 -0.0074480143 31
2.0202034 -3.7866862 -0.032360613 39
8.8503571 -11.999949 -0.20039687 25
2.3965485 -3.7982988 -0.086861998 41
2.0252643 -3.7961724 -0.1086105 42
8.8777208 -12.03705 -0.46559286 29
2.4038835 -3.8099239 -0.16699824 48
2.0240424 -3.7938821 -0.18473589 45
8.8240271 -11.964249 -0.72578263 30
2.3934095 -3.793324 -0.24566197 40
2.0353506 -3.8150783 -0.26219824 42
8.862422 -12.016307 -0.99354672 37
2.3949845 -3.7958202 -0.32526368 43
2.0253508 -3.7963343 -0.33712754 43
8.8837986 -12.04529 -1.2607596 17
2.3936901 -3.7937689 -0.40445125 44
2.0166299 -3.7799881 -0.4114733 47
8.8858242 -12.048038 -1.5261823 4
2.3916633 -3.7905564 -0.4834193 48
2.3889043 -3.7861836 -0.562222 43
2.3812153 -3.7739975 -0.6393888 40
2.3896427 -3.787354 -0.72170407 43
2.382669 -3.7763014 -0.79858094 45
2.3917298 -3.7906621 -0.88155252 41
2.3854749 -3.7807484 -0.95845407 36
2.3827317 -3.7764006 -1.0365537 32
2.3855965 -3.780941 -1.1167268 40
2.383688 -3.7779162 -1.5367365 31
2.0216591 -3.2041354 -1.7660154 6
2.0653732 -3.3246243 1.0331564 20
2.3646648 -3.8063929 0.86592555 39
2.3642778 -3.8057699 0.62680417 34
2.3552237 -3.7911959 0.38749772 31
2.3588538 -3.797039 0.22996487 28
2.3690672 -3.8134797 0.15151881 32
1.9985776 -3.8099592 0.1196491 35
8.7909145 -12.095218 0.32782924 27
2.3511171 -3.7845855 0.071391523 27
1.9955317 -3.8041527 0.043487273 45
8.8141136 -12.127137 0.063321479 6
2.357748 -3.7952592 -0.0074082208 30
1.9992936 -3.8113239 -0.032451089 45
2.3615313 -3.8013489 -0.086552605 41
2.0005713 -3.8137596 -0.10871144 44
2.3666797 -3.8096366 -0.16625734 49
1.9956514 -3.8043807 -0.1845642 51
8.8224983 -12.138673 -0.73260945 2
2.3563304 -3.7929771 -0.2445682 45
2.0049584 -3.8221231 -0.26171404 44
2.3579001 -3.7955039 -0.32381806 45
2.0062087 -3.8245068 -0.3383773 45
2.3587375 -3.7968519 -0.40301448 46
1.9957412 -3.8045521 -0.41262054 39
9.4519005 -13.004653 -1.6389624 1
2.3588459 -3.7970264 -0.48213246 50
2.3498476 -3.7825418 -0.55923146 40
2.3568993 -3.7938931 -0.63995612 38
2.3548081 -3.7905266 -0.71915841 45
2.3520918 -3.7861543 -0.79717249 47
2.3548522 -3.7905977 -0.87769288 41
2.3487027 -3.7806988 -0.95426136 37
2.3480849 -3.7797043 -1.0329359 37
2.350951 -3.7843177 -1.1128492 44
2.3492708 -3.7816133 -1.5315317 32
1.9973277 -3.2150917 -1.7643255 7
2.0522022 -3.355459 1.0382609 22
2.3277881 -3.8060567 0.86213094 41
2.3252494 -3.8019059 0.62347895 34
2.3224614 -3.7973473 0.38645977 30
2.3239508 -3.7997823 0.22914283 29
2.3236141 -3.799232 0.1503045 32
1.9664325 -3.8131578 0.11931551 45
13.84759 -19.334974 0.52142298 54
2.3162916 -3.7872593 0.071135178 28
1.974425 -3.8286562 0.043608747 40
