# .PCD v0.7 - Point Cloud Data file format
VERSION 0.7
FIELDS x y z intensity
SIZE 4 4 4 4
TYPE F F F F
COUNT 1 1 1 1
WIDTH 1367
HEIGHT 1
VIEWPOINT 0 0 0 1 0 0 0
POINTS 1367
DATA ascii
8.858614 -11.807149 -0.8950572 35
12.565018 -12.473247 -1.1781271 2
10.857275 -12.467872 -1.1981268 0
8.8884544 -11.846921 -1.1604186 33
12.554022 -12.462331 -1.4900801 2
11.521998 -13.231201 -1.5818857 2
8.9250383 -11.895681 -1.4283018 27
10.966125 -10.886031 -1.5752701 1
9.898428 -11.366786 -1.6256958 2
8.6558437 -9.9398746 -1.6552653 2
7.5747123 -8.6983652 -1.6526526 2
6.8180685 -7.8294787 -1.673157 2
6.1801562 -7.0969367 -1.6830763 3
5.6421247 -6.4790921 -1.6897711 3
5.1935067 -5.9639249 -1.6955329 4
4.813159 -5.5271559 -1.7013593 4
4.4931169 -5.1596375 -1.7090186 6
3.3161306 -3.8080542 -1.7371238 6
2.4666202 -2.8325253 -1.7508057 6
2.5824335 -3.0076611 1.0464281 10
3.5894582 -4.1805038 1.0647621 26
3.9560823 -4.6074967 0.849594 3
8.4628973 -9.856411 1.1278951 9
13.818239 -16.093571 1.0912541 26
13.880724 -16.166346 0.71914095 27
8.7958221 -11.895555 0.4114328 29
13.832484 -13.924533 0.43032521 43
13.91811 -16.209887 0.34234604 27
8.8249302 -11.934921 0.15026189 32
13.866693 -13.958969 0.083105214 41
13.969386 -16.269606 -0.035555482 28
8.8584251 -11.980221 -0.1123423 32
13.905029 -13.997561 -0.26517105 27
10.90822 -12.704385 -0.3238568 0
8.8796301 -12.008898 -0.37700766 27
12.417459 -12.500091 -0.54848111 0
10.803821 -12.582794 -0.61479652 0
8.8338814 -11.947027 -0.63833463 37
12.586082 -12.669837 -0.87187546 3
10.701396 -12.463504 -0.89973968 0
8.8709211 -11.99712 -0.90474135 31
12.393247 -12.475718 -1.1701596 1
10.71539 -12.479803 -1.1920552 0
8.8956251 -12.030531 -1.1722915 32
12.354349 -12.436561 -1.4766499 2
11.444917 -13.329454 -1.5840409 2
8.9080572 -12.047343 -1.4390093 7
10.90949 -10.982086 -1.5781099 3
9.8214216 -11.438632 -1.6261247 5
8.593996 -10.009096 -1.6567606 2
7.5241194 -8.763052 -1.654922 2
6.7761049 -7.8918686 -1.6763391 3
6.1432843 -7.1548471 -1.6865973 3
5.5916405 -6.5123687 -1.6882272 2
5.1542916 -6.003005 -1.6963716 4
4.7719164 -5.5576673 -1.7004547 4
4.4519296 -5.1849914 -1.7070798 6
3.2943926 -3.8368523 -1.7397263 7
2.449147 -2.8524275 -1.7524956 6
2.5624292 -3.0247223 1.0464281 16
3.5388057 -4.177249 1.0579319 29
3.9587252 -4.6729269 0.85679865 3
8.3458233 -9.85151 1.1209755 10
13.824813 -16.318975 1.1002966 27
13.897235 -16.404465 0.72561723 31
8.7944803 -12.060242 0.41510233 29
13.843413 -14.121626 0.43356928 47
13.926631 -16.439163 0.34522989 25
8.8162832 -12.09014 0.15147662 21
13.877418 -14.156313 0.083730318 41
13.962011 -16.480927 -0.03581414 27
13.907087 -14.186579 -0.26699871 29
10.800455 -12.748988 -0.32316068 0
12.264316 -12.510793 -0.54536968 0
10.673622 -12.599272 -0.61212927 0
8.8203831 -12.095763 -0.64314187 18
12.420671 -12.670291 -0.86621898 2
10.561701 -12.467159 -0.89492708 0
12.282295 -12.529134 -1.1675037 1
10.570494 -12.477539 -1.1851163 0
12.19626 -12.44137 -1.4675845 2
11.371711 -13.423305 -1.5861961 3
9.172823 -12.579079 -1.4952236 1
10.850345 -11.068405 -1.5801382 1
9.7581949 -11.518691 -1.6282694 5
8.5505123 -10.093128 -1.6612464 2
7.4632754 -8.8097401 -1.6543546 2
6.7261677 -7.9396491 -1.6769755 3
6.1109676 -7.21346 -1.6908226 3
5.5635476 -6.5672789 -1.6928588 3
5.1093082 -6.0310888 -1.6946944 5
4.7198396 -5.5713558 -1.6950277 4
4.4199524 -5.2173648 -1.7080492 6
3.2713177 -3.8615029 -1.7410275 6
2.4372053 -2.8769066 -1.7575656 6
2.5214162 -3.018791 1.0382609 20
3.5070393 -4.1988382 1.0571729 26
3.9590185 -4.739975 0.8640033 3
8.2359705 -9.8605986 1.1154399 11
13.810419 -16.534664 1.1083114 24
13.872068 -16.608475 0.73033953 30
13.875914 -19.310377 0.66129482 45
13.841771 -14.318561 0.43663803 53
13.921771 -16.66798 0.3479856 27
13.866562 -19.297363 0.2405567 58
13.886675 -14.365012 0.08438921 40
13.849406 -14.32646 -0.26780504 2
10.608639 -12.7013 -0.32006675 0
10.540065 -14.668053 -0.45594206 11
12.109983 -12.527121 -0.54238272 0
10.536716 -12.615191 -0.60931385 0
12.048677 -12.463703 -0.84632385 17
10.418079 -12.47315 -0.89011449 0
9.0306358 -12.56746 -0.93839377 1
12.0586 -12.473968 -1.1544901 2
9.6033516 -11.49771 -1.0856578 6
8.9916563 -12.513213 -1.2072853 2
12.330733 -12.755474 -1.494445 1
11.303259 -13.532941 -1.589788 3
9.0615463 -12.610476 -1.4913995 0
10.814295 -11.186801 -1.5862235 1
9.6724424 -11.58043 -1.6274116 5
8.4823847 -10.155621 -1.6617448 2
7.4320493 -8.8980961 -1.6611626 2
6.6680431 -7.9833817 -1.6763391 3
6.0629835 -7.2589684 -1.6915269 3
5.5351758 -6.6270452 -1.6982623 3
5.0796146 -6.0816202 -1.6988871 4
4.7008119 -5.6280942 -1.7022637 4
4.3958588 -5.2629867 -1.7128961 6
3.2418551 -3.8813438 -1.7397263 6
2.4077652 -2.8827212 -1.7508057 7
2.5016778 -3.0401785 1.0392818 18
3.4562035 -4.2001715 1.0511016 22
3.9568901 -4.8086338 0.87120789 2
8.1102962 -9.8560848 1.1081743 10
13.780226 -16.7465 1.1157098 20
9.4850044 -11.526707 0.50380343 9
13.807891 -19.516024 0.66485316 35
13.835738 -14.523878 0.43979445 61
9.4917278 -11.534879 0.23936026 29
13.854104 -19.581343 0.2428242 45
13.880323 -14.570681 0.084997423 42
9.4649754 -11.502367 -0.024698492 35
2.6914122 -3.8040326 -0.035135243 0
12.105328 -12.707404 -0.23587485 0
9.5242062 -11.574347 -0.28990096 6
10.432261 -14.744921 -0.45594206 2
11.940617 -12.5345 -0.53889793 0
9.4813509 -11.522267 -0.55315387 20
9.2372637 -13.055916 -0.68709391 0
9.4736643 -11.512926 -0.81661278 26
8.9244337 -12.613763 -0.93694115 0
11.881498 -12.472442 -1.146257 0
9.4503708 -11.484618 -1.0778515 42
2.6763556 -3.7827518 -0.36306041 0
12.616295 -13.243785 -1.5407791 5
9.484971 -11.526667 -1.3458959 40
2.6699617 -3.7737145 -0.44397816 16
10.770429 -11.306111 -1.5919031 3
9.4710569 -11.509757 -1.6076802 28
8.4253683 -10.238978 -1.6652337 2
7.3666258 -8.9523354 -1.6611626 2
6.6244001 -8.0503416 -1.6801577 3
5.9971023 -7.2880135 -1.6880058 3
5.4789686 -6.658349 -1.6959466 2
5.0348997 -6.1186914 -1.6988871 4
4.6520038 -5.6533747 -1.6995503 4
4.3546972 -5.2920713 -1.7119267 7
3.2229309 -3.9166856 -1.7449311 6
2.3911772 -2.9058921 -1.7541857 6
2.4755192 -3.0515623 1.03724 18
3.4193738 -4.2150478 1.0488248 17
6.234231 -7.6849108 1.3844004 18
7.9910784 -9.8505697 1.1012547 10
9.3695459 -11.5498 0.76511097 41
9.3640041 -11.54297 0.50164467 39
13.78792 -19.779234 0.67052424 2
13.838051 -14.730875 0.44312623 46
9.3555355 -11.53253 0.23795037 28
2.6418555 -3.7898302 0.046767041 17
13.876855 -14.772182 0.085605636 33
9.3416033 -11.515356 -0.024585743 29
2.6396282 -3.7866352 -0.034803491 27
11.950596 -12.721642 -0.23458473 1
9.3701038 -11.550488 -0.28765786 36
2.6342893 -3.7789764 -0.11628188 33
11.795333 -12.556362 -0.53628433 0
9.3503132 -11.526093 -0.55019027 43
2.6441267 -3.7930884 -0.1986426 20
11.726829 -12.483438 -0.83618122 0
9.3377008 -11.510545 -0.81180018 46
2.6462801 -3.7961774 -0.28059813 32
11.717621 -12.473637 -1.1388206 0
9.3272352 -11.497644 -1.0729364 39
2.6293578 -3.7719021 -0.36024842 37
12.66271 -13.479702 -1.5579026 3
9.3565817 -11.53382 -1.3390713 44
2.6162276 -3.7530661 -0.43938926 50
10.691235 -11.381027 -1.5919031 2
9.3353529 -11.507651 -1.5982435 32
8.3611822 -10.306795 -1.6667291 2
7.3338814 -9.0404453 -1.6679707 2
6.5705247 -8.0994587 -1.6807941 3
5.9708824 -7.3602824 -1.695048 3
5.4422417 -6.7086291 -1.6990343 3
4.9920602 -6.1536922 -1.6988871 4
4.6345148 -5.7129474 -1.7076907 4
4.3249798 -5.3313847 -1.7148348 6
3.190743 -3.9332159 -1.7423288 6
2.3662639 -2.9168837 -1.7508057 5
2.4372466 -3.0476274 1.0300937 19
3.3849583 -4.2326832 1.047307 9
6.1507382 -7.6911221 1.3777499 22
7.8972249 -9.8749962 1.0977949 10
9.2462702 -11.561895 0.7616173 31
9.2182732 -11.526887 0.49813664 38
2.6008756 -3.787128 0.12776656 30
13.838141 -14.938605 0.44645801 53
9.2223387 -11.53197 0.23660457 31
2.6040123 -3.7916951 0.046564586 64
13.884836 -14.989014 0.086298317 38
9.2160149 -11.524062 -0.024466362 31
2.6018071 -3.7884846 -0.034652699 36
11.845182 -12.787158 -0.23426221 0
9.2392826 -11.553157 -0.28611088 47
2.5987887 -3.7840893 -0.11587813 38
11.625877 -12.550413 -0.53255063 0
9.2221842 -11.531777 -0.54737484 49
2.6085329 -3.7982779 -0.19795585 41
11.555225 -12.474142 -0.83013463 0
9.2147083 -11.522429 -0.80808133 46
2.6084125 -3.7981026 -0.27938762 44
11.562445 -12.481936 -1.1321812 0
9.1944132 -11.497051 -1.0668648 46
2.6029618 -3.7901657 -0.36024842 34
12.592672 -13.594091 -1.5609244 4
9.2235813 -11.533525 -1.3315282 48
2.5922174 -3.7745209 -0.43977165 43
10.597998 -11.440792 -1.5898746 2
9.2175293 -11.525955 -1.5918093 36
8.3014174 -10.380415 -1.6692212 2
7.2804799 -9.1037951 -1.67024 2
6.5261517 -8.160553 -1.6839762 3
5.9267297 -7.4110131 -1.6971606 3
5.4075303 -6.7617855 -1.702894 3
4.9685197 -6.2128296 -1.7055955 5
4.5969515 -5.7482061 -1.7085953 4
4.2900782 -5.36448 -1.7158042 6
3.1655686 -3.9583497 -1.7436299 7
2.3616927 -2.9531522 -1.7626355 7
2.4206994 -3.0706427 1.0321355 21
3.3456004 -4.2438745 1.0442713 4
6.065012 -7.6934319 1.3705453 23
5.8618174 -7.4356809 0.82204872 13
9.1133919 -11.560285 0.75730163 30
9.1029263 -11.547009 0.49624771 37
2.5676513 -3.7952578 0.12743297 39
13.836006 -15.147047 0.44978979 48
9.0896082 -11.530114 0.23525877 25
2.5729949 -3.8031561 0.046483602 43
13.885068 -15.200758 0.086957216 36
9.0684748 -11.503306 -0.024287293 30
2.561847 -3.7866783 -0.034471743 41
11.639634 -12.742557 -0.23195077 0
9.1039305 -11.548282 -0.28440922 51
2.5633447 -3.788892 -0.11547437 40
11.486746 -12.575181 -0.53018594 0
9.0969076 -11.539374 -0.54470766 52
2.5640378 -3.7899165 -0.19658233 47
11.395109 -12.474861 -0.82486826 0
9.0845881 -11.523746 -0.80370623 50
2.5661721 -3.7930713 -0.27769288 43
11.413115 -12.494573 -1.1260728 0
9.0719357 -11.507697 -1.0619497 46
2.560796 -3.785125 -0.35806131 43
12.462518 -13.643414 -1.5565596 3
9.0959759 -11.538192 -1.3247036 54
2.5524163 -3.7727389 -0.4374772 40
10.550076 -11.549756 -1.5947429 2
9.0900583 -11.530684 -1.5836593 37
8.2434883 -10.456816 -1.6722116 2
7.2265515 -9.1668377 -1.6725094 2
6.4836898 -8.2245226 -1.6877947 3
5.8748465 -7.452208 -1.6971606 3
5.3480434 -6.7839613 -1.6990343 3
4.9177604 -6.2381501 -1.7030798 5
4.5615339 -5.7862787 -1.7104042 4
4.2621326 -5.4064898 -1.7196817 6
3.1425402 -3.9862938 -1.7462324 7
2.3320401 -2.9581792 -1.7558756 6
2.3849647 -3.0691445 1.02601 19
3.2966125 -4.2423186 1.0382 0
5.9771237 -7.6917939 1.3627864 20
5.8684483 -7.5519423 0.83035225 8
8.9809904 -11.557386 0.75298595 34
8.9681253 -11.540831 0.4932794 33
2.5277889 -3.7931273 0.12676579 40
13.831626 -15.356185 0.45312157 50
8.9573555 -11.526972 0.23391296 25
2.5352907 -3.8043845 0.046281148 42
13.885689 -15.416206 0.087632999 38
8.9462214 -11.512643 -0.024174543 32
2.5309126 -3.7978146 -0.034411427 40
11.456702 -12.71949 -0.23006935 0
8.981369 -11.557874 -0.28309432 48
2.5213084 -3.7834029 -0.11476779 38
11.326428 -12.574858 -0.52682561 0
8.9719782 -11.545789 -0.54204041 53
2.528652 -3.7944224 -0.19589558 47
11.254262 -12.494738 -0.82096726 0
8.9549017 -11.523813 -0.79933113 24
2.5285583 -3.794282 -0.27648237 46
11.25883 -12.499808 -1.1194332 0
8.9326248 -11.495146 -1.0550108 7
2.5232515 -3.7863185 -0.35649908 42
12.374968 -13.73897 -1.5575669 3
8.9663134 -11.538499 -1.3175197 49
2.5193915 -3.7805264 -0.43632996 41
10.487829 -11.643826 -1.5975826 2
8.9532118 -11.521639 -1.5737936 25
8.1654148 -10.507844 -1.6712148 2
7.1769562 -9.2358246 -1.6759135 2
6.4333835 -8.2789421 -1.6897039 3
5.8226771 -7.493041 -1.6971606 3
5.3270426 -6.8552227 -1.7075256 3
4.8980889 -6.3032141 -1.7114652 4
4.5305901 -5.8302898 -1.7140222 4
4.2219033 -5.4330492 -1.7187123 6
3.114634 -4.0081358 -1.7462324 6
2.3246789 -2.9915643 -1.7660154 7
2.3728876 -3.0980005 1.0300937 19
5.103363 -6.6628618 1.6218081 21
4.5815701 -5.9816184 1.054095 2
5.8422394 -7.6275258 0.83415806 5
8.8587952 -11.565888 0.74949229 34
8.8508768 -11.555551 0.49125555 40
2.494664 -3.8006539 0.12643218 35
8.8499155 -11.554296 0.23320803 27
2.4933057 -3.7985847 0.045997713 38
13.889286 -15.638382 0.088342585 44
8.865633 -11.574816 -0.024174543 24
2.4867783 -3.78864 -0.034170154 39
11.306537 -12.730383 -0.228833 0
8.8518286 -11.556793 -0.28154734 52
2.4860568 -3.7875409 -0.11436404 39
11.169336 -12.575905 -0.52358973 0
8.8571291 -11.563714 -0.53996587 59
2.4933286 -3.7986197 -0.19520883 46
11.092473 -12.489363 -0.81550586 1
8.859663 -11.567021 -0.79801857 6
2.4888623 -3.791815 -0.27502975 45
11.089129 -12.485598 -1.1112001 0
8.8934002 -11.611068 -1.0599259 25
2.4880035 -3.7905068 -0.35524932 39
12.257576 -13.801188 -1.5548809 2
8.8540525 -11.559696 -1.3128502 27
2.4798276 -3.7780507 -0.43403551 40
10.419497 -11.731637 -1.599611 2
8.8894882 -11.605961 -1.5767963 19
8.1159935 -10.596099 -1.6761991 2
7.1123056 -9.2857018 -1.6759135 2
6.3898387 -8.3424616 -1.6935226 2
5.7821975 -7.5491366 -1.7006817 3
5.2909889 -6.9078231 -1.7113853 3
4.8492098 -6.3310442 -1.7097882 3
4.4921474 -5.8648696 -1.7149267 4
4.1909509 -5.4716325 -1.7216206 6
3.091177 -4.0357866 -1.7488348 7
2.2905107 -2.9904509 -1.7558756 6
2.3302295 -3.0867107 1.0209055 20
5.0590892 -6.7014623 1.6225669 30
4.5086708 -5.9723568 1.0468904 4
7.4551511 -9.8753767 1.0742682 9
8.7850542 -11.637017 0.75010878 30
8.822979 -11.687254 0.49422386 26
2.4593878 -3.8045452 0.1259874 34
13.831912 -15.794504 0.46031117 58
8.8389187 -11.708367 0.2350665 23
2.4515269 -3.7923846 0.045714274 39
13.890452 -15.86135 0.089052163 43
8.8786011 -11.760933 -0.024433201 24
2.4537544 -3.7958305 -0.034079678 37
11.156781 -12.739802 -0.22759666 0
8.8118944 -11.67257 -0.28286228 45
2.4443591 -3.7812965 -0.11365746 35
11.033855 -12.599435 -0.52134949 0
8.8508434 -11.724164 -0.54455942 38
2.4580712 -3.8025086 -0.19452208 46
10.960265 -12.515403 -0.81219 0
8.8725452 -11.752912 -0.80655003 33
2.455828 -3.7990382 -0.27430344 43
10.935957 -12.487646 -1.1045605 0
8.9010611 -11.790684 -1.0706235 35
2.4506567 -3.7910383 -0.35368708 39
10.973982 -12.531066 -1.4031196 0
8.8499451 -11.722974 -1.3243444 40
2.444746 -3.7818952 -0.43250588 41
10.35045 -11.819061 -1.6016395 2
8.8897161 -11.775656 -1.5913804 31
8.0561686 -10.671507 -1.6791897 2
7.0640059 -9.3572512 -1.6798848 2
6.3314414 -8.3868685 -1.6935226 3
5.7435884 -7.6081758 -1.7049069 2
5.2426343 -6.944593 -1.7113853 3
4.8072491 -6.3678651 -1.7106267 3
4.4510937 -5.8960876 -1.7149267 4
4.1620026 -5.5131469 -1.7254981 6
3.0583689 -4.0512319 -1.7462324 7
2.2804997 -3.0208366 -1.7643255 7
2.3109319 -3.1060064 1.0219264 19
5.0028038 -6.7240148 1.6195313 26
4.4526777 -5.9846182 1.0435652 6
7.3384514 -9.8632402 1.0673486 8
8.7822886 -11.803828 0.75689059 25
8.8270798 -11.86403 0.4990811 26
2.419884 -3.801384 0.12532021 34
13.833696 -16.020834 0.46408135 63
8.8405218 -11.882096 0.23730952 22
2.4142518 -3.7925365 0.045511819 39
13.894408 -16.091145 0.08979553 35
8.8679085 -11.918906 -0.024632169 23
2.412159 -3.7892489 -0.033868562 37
10.986538 -12.723534 -0.22593026 0
8.8065815 -11.836479 -0.28533742 34
2.4114594 -3.7881498 -0.11335465 38
10.851562 -12.567218 -0.51686907 0
8.8499031 -11.894706 -0.54959756 38
2.4228809 -3.8060918 -0.19383533 45
10.794293 -12.500895 -0.80633849 0
8.8761072 -11.929925 -0.81442523 33
2.4163816 -3.795882 -0.27285081 40
10.778086 -12.482124 -1.0973897 0
8.899498 -11.961364 -1.0804536 27
2.4112818 -3.7878706 -0.35181242 40
10.818505 -12.528934 -1.39439 0
8.8463621 -11.889947 -1.3361977 36
2.4054549 -3.7787175 -0.4302114 40
10.296295 -11.924162 -1.606102 2
8.883255 -11.939532 -1.6051065 24
7.998054 -10.749779 -1.6826786 2
7.0245066 -9.4412832 -1.6861255 2
6.2892365 -8.4530439 -1.6979775 3
5.6879826 -7.6449289 -1.7042028 3
5.1916814 -6.9778757 -1.7106134 4
4.76968 -6.4106846 -1.7131424 3
4.4191256 -5.9395227 -1.7185447 4
4.1257286 -5.5451822 -1.7264674 6
3.0367846 -4.0815883 -1.750136 7
2.2463696 -3.0192316 -1.7541857 6
2.2971451 -3.1306193 1.0249891 19
4.9511275 -6.7475471 1.6172545 28
4.3964834 -5.9916611 1.0396857 9
7.2398691 -9.8667145 1.0625049 7
8.7865219 -11.97454 0.76408345 28
8.8238802 -12.025453 0.50339866 24
2.3861196 -3.8038011 0.12487541 36
13.836061 -16.24008 0.46776384 64
8.8466997 -12.056552 0.2396166 19
2.378418 -3.7915235 0.045309365 37
13.898926 -16.313868 0.090521999 36
8.8667536 -12.083882 -0.024851033 7
2.3805978 -3.7949984 -0.033778086 42
10.852627 -12.738274 -0.22490893 0
8.8130579 -12.010703 -0.28812194 34
2.3777823 -3.7905104 -0.11295089 35
10.716119 -12.578047 -0.51437992 0
8.8559504 -12.069159 -0.554932 36
2.386966 -3.8051503 -0.19297689 45
10.641189 -12.490098 -0.80107212 0
8.8558588 -12.069035 -0.81989408 7
2.3869092 -3.8050599 -0.27236661 40
10.638119 -12.486494 -1.0915469 0
2.3776298 -3.7902672 -0.35056263 41
10.644699 -12.494218 -1.3826386 0
8.8545122 -12.067199 -1.3494879 25
2.369761 -3.7777233 -0.42829937 39
10.23763 -12.01642 -1.6093475 2
8.8626909 -12.078345 -1.6158301 9
7.9289303 -10.805788 -1.683177 2
6.9687619 -9.497241 -1.6878275 2
6.2330351 -8.4945698 -1.6979775 3
5.6557899 -7.7078824 -1.7098365 3
5.1429658 -7.0089903 -1.7098414 3
4.7270575 -6.4421778 -1.7131424 3
4.3750257 -5.9624181 -1.7167357 4
4.0865645 -5.5692945 -1.7254981 6
3.0118852 -4.1046886 -1.7514372 6
2.2305853 -3.0399096 -1.7575656 7
2.2707016 -3.1403115 1.0229473 20
4.8946972 -6.769217 1.6142188 29
4.331336 -5.9901061 1.0341438 9
7.1404572 -9.8750353 1.0580071 6
8.7799559 -12.142412 0.77086526 3
13.902493 -19.226727 0.80076951 25
2.3468997 -3.7999551 0.12420823 36
13.843237 -16.480196 0.47188473 58
13.932059 -19.267614 0.38098976 32
2.3455849 -3.7978263 0.045187894 38
13.908185 -16.557516 0.09133295 40
10.830651 -14.978461 -0.030647617 13
2.3435366 -3.7945096 -0.03362729 38
10.719699 -12.761664 -0.2239951 0
2.3428569 -3.7934091 -0.11254713 42
10.561186 -12.572957 -0.51114404 0
2.3477433 -3.801321 -0.19194677 47
10.502338 -12.5029 -0.79717112 0
9.1060495 -12.59339 -0.85117608 0
2.3518946 -3.8080425 -0.27139819 41
10.499347 -12.499337 -1.0862353 0
9.046752 -12.511383 -1.1189071 2
2.3448246 -3.7965951 -0.34962532 41
10.493122 -12.491927 -1.3742447 1
2.3328686 -3.7772367 -0.42638731 41
10.171406 -12.108929 -1.6121873 3
8.9412746 -12.365511 -1.6458561 3
7.8509755 -10.85766 -1.6826786 2
2.7168348 -3.7572999 -0.66435158 5
6.1805239 -8.5474768 -1.6998868 2
5.6087637 -7.7567496 -1.7119491 1
2.7228847 -3.7656665 -0.91397393 4
2.711096 -3.7493634 -0.99199581 19
4.3378611 -5.9991302 -1.7185447 3
2.7150657 -3.7548535 -1.1574408 12
2.701685 -3.7363482 -1.5861827 0
2.2093091 -3.0554075 -1.7575656 6
2.2375019 -3.1403384 1.0178428 20
4.8450408 -6.8000255 1.6134599 30
4.2687235 -5.9911623 1.029156 9
7.025094 -9.8597345 1.0510876 6
12.547556 -17.610521 1.1124216 1
13.839841 -19.424246 0.80495209 31
2.3099284 -3.7991636 0.12365223 34
13.837526 -16.708878 0.4756549 54
13.883077 -19.484928 0.38336092 28
2.310703 -3.8004377 0.04502593 38
12.422214 -14.999881 0.082260475 11
10.670113 -14.975525 -0.030488444 12
2.3045218 -3.7902713 -0.033446338 37
9.5410337 -11.520844 -0.20104192 8
10.677414 -14.985773 -0.35587895 0
2.3038533 -3.7891722 -0.11194149 37
9.5168753 -11.491673 -0.46447274 26
9.6654119 -13.565426 -0.61746371 0
2.3066158 -3.7937155 -0.19074497 45
9.5229006 -11.498947 -0.72890347 0
2.6791835 -3.7602396 -0.2528809 0
2.3065848 -3.7936645 -0.26921925 45
9.5335693 -11.51183 -0.99460906 19
8.9406652 -12.548244 -1.1165941 2
2.2996178 -3.7822058 -0.34681329 44
9.5234756 -11.499641 -1.2577378 38
8.9556389 -12.569258 -1.3915135 0
2.2960999 -3.7764196 -0.42447525 39
9.5079231 -11.480862 -1.5196913 36
8.8985758 -12.48917 -1.6540061 2
7.7749834 -10.912206 -1.6826786 0
2.6905377 -3.7761753 -0.66435158 14
2.6811008 -3.7629309 -0.74461532 13
2.6892707 -3.7743971 -0.82886225 1
2.6805868 -3.7622092 -0.90857035 1
2.6815295 -3.7635324 -1.0727336 1
2.7000453 -3.7895193 -1.1622877 1
2.6667552 -3.7427967 -1.5809779 13
2.1837173 -3.0648518 -1.7541857 7
2.2155235 -3.1558826 1.0178428 20
4.8042192 -6.843327 1.6157366 30
4.2017555 -5.9851527 1.0230597 9
2.6652033 -3.7964251 0.40272084 1
12.366923 -17.615953 1.1072839 0
13.841717 -19.716709 0.81304753 5
2.2854021 -3.8186283 0.12376343 36
9.4311352 -11.551357 0.32695246 55
2.67029 -3.8036709 0.074467637 2
2.2779522 -3.8061805 0.044904456 39
9.4156094 -11.532341 0.062882215 38
2.663734 -3.794332 -0.0076867752 22
2.2738962 -3.7994032 -0.033386018 36
9.4047251 -11.51901 -0.19985932 34
2.6540482 -3.7805352 -0.08933714 0
2.262969 -3.7811456 -0.11123493 39
9.3833208 -11.492794 -0.46185917 39
2.6756897 -3.8113623 -0.17262904 2
2.2718651 -3.7960098 -0.19005822 44
9.4070196 -11.52182 -0.72617275 29
2.6597514 -3.7886591 -0.25353715 21
2.275943 -3.8028235 -0.26873505 42
9.3923922 -11.503904 -0.98823506 52
2.6476009 -3.7713516 -0.33393738 39
2.2629173 -3.781059 -0.34525108 40
9.3925476 -11.504095 -1.2510227 45
2.6689994 -3.8018322 -0.41881895 5
2.263545 -3.7821078 -0.42332801 38
9.3772097 -11.485309 -1.5115777 40
2.6506627 -3.7757127 -0.49757445 31
2.6498187 -3.7745104 -0.57916838 37
2.6481838 -3.7721817 -0.66038024 54
2.6388819 -3.7589316 -0.74016035 1
2.6379683 -3.7576306 -0.82111585 21
2.6474907 -3.7711947 -0.90625453 10
2.6517403 -3.7772477 -0.9894802 32
2.6350408 -3.7534602 -1.0645932 17
2.6467662 -3.7701623 -1.1506552 3
2.6427338 -3.7644184 -1.5822791 49
2.1747658 -3.0978258 -1.7643255 6
2.1945293 -3.17522 1.0188637 21
4.7405286 -6.8589745 1.6111832 5
2.6171873 -3.7867553 0.6439845 25
2.6123798 -3.7797992 0.39891505 26
2.6051164 -3.7692902 0.23571911 25
2.6138961 -3.7819932 0.15516174 24
2.2370672 -3.8008199 0.12265145 35
9.2985849 -11.560973 0.32528657 43
2.6105006 -3.7770805 0.073570438 23
2.2398462 -3.8055415 0.044702001 36
9.2806807 -11.538713 0.062544316 44
2.6222034 -3.794013 -0.0076469821 44
2.2419262 -3.8090754 -0.033325702 41
9.2724056 -11.528424 -0.19883798 35
2.6217167 -3.793309 -0.089182444 26
2.2331626 -3.7941861 -0.11113399 42
9.2637415 -11.517653 -0.46011677 43
2.6249526 -3.7979906 -0.17114726 35
2.2338426 -3.7953413 -0.18919978 44
9.2747316 -11.531317 -0.72246683 40
2.6069286 -3.7719121 -0.25113085 40
2.2358544 -3.798759 -0.26728243 40
9.2627869 -11.516465 -0.98345453 50
2.622153 -3.7939401 -0.33422649 49
2.2310946 -3.7906721 -0.34462619 45
9.2580032 -11.510519 -1.2443075 39
2.6116133 -3.7786903 -0.41414946 40
2.2256618 -3.7814415 -0.42141598 46
9.2403908 -11.48862 -1.5030583 40
2.6161308 -3.7852266 -0.49628761 50
2.6107965 -3.7775085 -0.57667631 39
2.6137075 -3.7817206 -0.65867823 40
2.613502 -3.7814233 -0.7407968 20
2.610353 -3.7768667 -0.82111585 50
2.6153126 -3.7840428 -0.90471065 41
2.6128621 -3.7804971 -0.98528749 37
2.6118865 -3.7790859 -1.0664022 37
2.6058197 -3.7703075 -1.1448388 37
2.6086166 -3.7743547 -1.5783755 42
2.1499381 -3.1107018 -1.7626355 7
2.1744859 -3.1936598 1.0198846 19
2.5860856 -3.7981749 0.88793421 26
2.5839994 -3.7951107 0.64232188 29
2.5859289 -3.7979445 0.39891505 31
2.5764909 -3.7840831 0.23551361 35
2.5919297 -3.8067577 0.15543158 29
2.2044659 -3.8059652 0.12231786 37
9.1629877 -11.556669 0.32335764 40
2.5818181 -3.7919071 0.073506348 24
2.2011955 -3.8003187 0.044459056 40
9.1551676 -11.546805 0.062240213 50
2.5821457 -3.7923882 -0.0076071885 31
2.2032506 -3.8038669 -0.033144746 45
9.1469679 -11.536464 -0.1978704 37
2.5861681 -3.7982957 -0.088873051 37
2.1986032 -3.7958431 -0.11073023 41
9.1210089 -11.503724 -0.45700535 43
2.5938749 -3.8096149 -0.1708509 53
2.2032857 -3.8039277 -0.18885639 51
9.1418753 -11.530042 -0.71837074 41
2.5872765 -3.7999237 -0.25178713 45
2.2012749 -3.8004558 -0.26631403 44
9.1375265 -11.524557 -0.97867405 50
2.5866218 -3.7989624 -0.33307001 49
2.1985803 -3.7958035 -0.34368885 44
9.1254158 -11.509282 -1.2372566 44
2.5851703 -3.7968304 -0.41414946 44
2.1892297 -3.7796602 -0.41950393 44
9.1154575 -11.496722 -1.495756 41
2.580689 -3.7902489 -0.49457183 51
2.5709598 -3.7759595 -0.57368577 46
2.5627303 -3.7638729 -0.65243751 44
2.5825949 -3.7930481 -0.73952395 40
2.5750582 -3.7819788 -0.818299 42
2.5667431 -3.7697666 -0.89699131 43
2.5754004 -3.7824814 -0.98109478 38
2.5722833 -3.7779033 -1.0609752 35
2.575067 -3.7819917 -1.1429001 44
2.5673025 -3.7705879 -1.5692669 29
2.1383717 -3.1406188 -1.7710854 6
2.1435199 -3.1959147 1.015801 21
2.550756 -3.8030899 0.88489848 29
2.5552349 -3.809768 0.64176768 34
2.5460329 -3.7960482 0.39683917 32
2.5544605 -3.8086135 0.23592463 32
2.5563831 -3.8114798 0.15489189 30
2.1659622 -3.8004189 0.12165067 40
9.0377569 -11.563642 0.32177943 41
2.5374601 -3.7832663 0.072993666 22
2.1627276 -3.7947431 0.044216111 41
9.0176792 -11.537953 0.061851632 50
2.5466948 -3.797035 -0.0075806594 32
2.1687188 -3.8052554 -0.03302411 42
9.0120192 -11.530711 -0.1966878 39
2.5439944 -3.7930086 -0.08833161 44
2.1641297 -3.7972035 -0.11032647 43
9.0010834 -11.516719 -0.45501405 43
2.5583096 -3.814352 -0.17025818 50
2.1707394 -3.8088009 -0.18834133 50
9.0119534 -11.530626 -0.71446973 42
2.542887 -3.7913578 -0.25003707 44
2.1687582 -3.8053246 -0.26558772 45
9.0126076 -11.531464 -0.97389352 49
2.5422592 -3.7904215 -0.33075702 46
2.162154 -3.7937369 -0.34212664 41
9.0006628 -11.51618 -1.2312131 37
2.5386286 -3.7850084 -0.41091672 50
2.1608179 -3.7913926 -0.4191215 41
8.971261 -11.478561 -1.4852083 8
2.540874 -3.7883563 -0.49199817 55
2.5356929 -3.7806318 -0.57169205 46
2.5297742 -3.771807 -0.6507355 45
2.5362542 -3.7814684 -0.73379612 42
2.5354328 -3.7802436 -0.81407368 48
2.5338039 -3.7778153 -0.89467549 43
2.5358596 -3.78088 -0.97606349 37
2.5328236 -3.7763536 -1.0555482 37
2.5399544 -3.7869854 -1.1390226 44
2.5303819 -3.7727129 -1.5627608 31
2.1022577 -3.1343944 -1.7592555 7
2.1329412 -3.2261918 1.0209055 21
2.514647 -3.8035431 0.88110393 39
2.5189877 -3.8101084 0.63899666 32
2.5054164 -3.7895811 0.39441732 30
2.5115201 -3.7988131 0.23428056 28
2.5178196 -3.8083417 0.15408236 30
2.1348398 -3.8042393 0.12131707 37
8.9169149 -11.56632 0.32020122 45
2.510107 -3.7966759 0.072929576 27
2.1296835 -3.7950509 0.044054147 39
8.8994408 -11.543653 0.061564423 47
2.5148377 -3.8038313 -0.0075607626 30
2.1316895 -3.7986255 -0.032843158 39
8.8913908 -11.533212 -0.19572023 40
2.5099597 -3.7964532 -0.088022217 44
2.1291144 -3.7940366 -0.10982177 40
8.8952112 -11.538168 -0.45352057 47
2.5219328 -3.814563 -0.16951728 48
2.133697 -3.8022029 -0.1873112 50
8.9011297 -11.545845 -0.711739 11
2.5066721 -3.7914803 -0.2489433 42
2.1337037 -3.8022149 -0.26437718 43
8.8750086 -11.511963 -0.96725398 31
2.5038626 -3.787231 -0.32902229 44
2.125237 -3.7871273 -0.34025198 47
8.8754139 -11.512488 -1.224498 12
2.5046813 -3.7884693 -0.40947995 49
2.1258829 -3.7882781 -0.41720948 40
8.9265194 -11.578778 -1.4904821 18
2.5003395 -3.7819021 -0.48899558 55
2.4952414 -3.7741907 -0.56820309 41
2.4894171 -3.7653813 -0.64676416 42
2.5111187 -3.7982061 -0.73379612 44
2.4994476 -3.7805529 -0.8105526 51
2.4978702 -3.7781672 -0.89081579 42
2.499943 -3.7813025 -0.97187078 34
2.4991267 -3.7800677 -1.0519303 37
2.501941 -3.7843242 -1.1332062 41
2.4927886 -3.7704806 -1.5549536 33
2.0914204 -3.1633894 -1.7677054 7
2.1230283 -3.2604499 1.0270309 21
2.473031 -3.7979684 0.87579149 39
2.4815187 -3.811003 0.63622564 32
2.4636776 -3.7836039 0.39199546 27
2.4674997 -3.7894733 0.23263648 26
2.4715381 -3.7956755 0.15286805 30
2.102432 -3.8085489 0.12098348 38
8.7996607 -11.580526 0.31888604 48
2.4726281 -3.7973495 0.072609149 25
2.097338 -3.7993212 0.043932673 41
8.8234768 -11.61187 0.061598212 33
2.4751246 -3.8011835 -0.007520969 30
2.0915868 -3.7889028 -0.032632045 41
8.8614769 -11.661878 -0.19684906 24
2.4681187 -3.7904241 -0.087480783 44
2.0948451 -3.794805 -0.10941802 40
8.884594 -11.692301 -0.45712981 28
2.4756105 -3.8019295 -0.16818367 49
2.1013067 -3.8065104 -0.18679614 44
8.8299799 -11.620427 -0.71251923 17
2.4692445 -3.7921531 -0.24784952 40
2.0955298 -3.7960453 -0.26292455 40
8.8620386 -11.662618 -0.97469032 32
2.4621232 -3.7812161 -0.32699841 40
2.091037 -3.7879071 -0.33900219 42
8.8888779 -11.697938 -1.2375925 30
2.4694765 -3.7925091 -0.40804318 46
2.0897624 -3.785598 -0.41529742 38
8.922513 -11.742204 -1.503464 33
2.4651957 -3.7859349 -0.4872798 49
2.4601691 -3.7782154 -0.56620938 42
2.4544268 -3.7693968 -0.64449483 38
2.4694571 -3.7924795 -0.72934115 40
2.4643993 -3.7847118 -0.80773574 46
2.4521582 -3.7659128 -0.88386834 37
2.4628129 -3.7822754 -0.96767807 32
2.455667 -3.7713013 -1.0446943 33
2.4585197 -3.7756822 -1.1254512 38
2.456085 -3.7719433 -1.5484475 31
2.0593936 -3.1627226 -1.7592555 6
2.1085658 -3.2882142 1.0311146 21
2.429497 -3.788692 0.86972016 40
2.4356079 -3.7982216 0.6312378 30
2.4242973 -3.7805834 0.38991958 27
2.4323595 -3.7931559 0.23181444 30
2.4385061 -3.8027413 0.15246327 26
2.0757921 -3.8231339 0.12098348 37
8.8024998 -11.753709 0.32195479 31
2.4352639 -3.7976849 0.072288722 25
2.0612199 -3.7962954 0.043730218 38
8.8309126 -11.791647 0.062223319 32
2.4312546 -3.7914329 -0.0074679111 27
2.0574498 -3.7893517 -0.032511409 38
8.8517714 -11.8195 -0.1984617 26
2.4308031 -3.7907288 -0.087094039 42
2.0625772 -3.798795 -0.10911521 43
8.8818378 -11.859646 -0.46123686 29
2.4403775 -3.8056595 -0.16759095 46
2.0689604 -3.8105514 -0.18628109 47
8.8276701 -11.787318 -0.71895587 32
2.4340873 -3.79585 -0.2469745 41
2.0651672 -3.803565 -0.26244035 38
8.8737087 -11.848792 -0.98504806 37
2.4227448 -3.7781622 -0.32526368 40
2.0569303 -3.7883949 -0.3377524 38
8.8930082 -11.874562 -1.2496797 25
2.4343383 -3.796242 -0.40660641 45
2.0556839 -3.786099 -0.41376778 39
8.9261932 -11.918874 -1.5180687 25
2.4258254 -3.7829661 -0.48470613 49
2.4251635 -3.781934 -0.56421572 42
2.419503 -3.7731066 -0.64222544 39
2.4322629 -3.793005 -0.72615904 44
2.4209139 -3.7753069 -0.80210203 49
2.4279268 -3.7862432 -0.88464028 38
2.4236813 -3.7796223 -0.96264684 34
2.4187632 -3.7719529 -1.0401717 32
2.4195323 -3.7731524 -1.119635 39
2.4194841 -3.7730772 -1.5419414 31
2.0372641 -3.1770222 -1.7592555 6
2.0938182 -3.3159351 1.0351982 21
2.3966973 -3.7955985 0.86744338 41
2.4048021 -3.8084338 0.6301294 33
2.3935895 -3.7906768 0.38922763 29
2.3972878 -3.7965338 0.23099241 26
2.4012268 -3.8027716 0.15178865 28
2.0339844 -3.8093154 0.1200939 37
8.7938471 -11.91462 0.32467282 28
2.3852026 -3.7773945 0.071583778 28
2.0290148 -3.8000081 0.043608747 39
8.8267612 -11.959215 0.062780842 32
2.3983192 -3.7981672 -0.0074480143 28
2.0234091 -3.7895095 -0.032390773 40
8.8545446 -11.996859 -0.20039687 25
2.3957388 -3.7940805 -0.086784653 42
2.0265892 -3.7954652 -0.1086105 42
8.8819218 -12.033951 -0.46559286 30
2.4009447 -3.8023248 -0.16670187 47
2.0310135 -3.8037512 -0.18525095 44
8.8258305 -11.957953 -0.72558761 31
2.3947334 -3.7924883 -0.24566197 41
2.0310404 -3.8038018 -0.26147196 41
8.8642454 -12.010001 -0.99328113 32
2.3920493 -3.7882376 -0.32468542 41
2.0210407 -3.785074 -0.33619019 41
8.8832684 -12.035774 -1.2600881 16
2.3950143 -3.792933 -0.40445125 46
2.0179491 -3.779284 -0.4114733 43
8.8947554 -12.051338 -1.5269936 3
2.3929863 -3.7897213 -0.4834193 47
2.3881068 -3.7819939 -0.56172359 41
2.3867607 -3.7798622 -0.64052343 42
2.3930728 -3.7898583 -0.72234052 45
2.3818846 -3.77214 -0.79787672 46
2.3909574 -3.7865083 -0.88078064 40
2.3909709 -3.7865295 -0.96013117 36
2.3840497 -3.7755687 -1.0365537 34
2.3848441 -3.7768266 -1.1157575 41
2.3870258 -3.7802818 -1.5380378 31
2.0401986 -3.2310188 -1.7812251 6
2.0747015 -3.3370411 1.03724 21
2.3639197 -3.8022323 0.86516666 38
2.3635144 -3.8015802 0.62624997 34
2.3565469 -3.7903736 0.38749772 29
2.3559604 -3.7894299 0.22955385 27
2.3661766 -3.8058622 0.15124896 30
1.9980484 -3.8057208 0.1195379 38
8.7951355 -12.092149 0.32782924 28
2.3545499 -3.7871614 0.071455605 27
1.9987185 -3.8069971 0.043527763 46
8.8112869 -12.114355 0.063270792 6
2.3590727 -3.794436 -0.0074082208 30
1.9987642 -3.8070841 -0.03242093 41
2.3628581 -3.8005245 -0.086552605 46
2.0000434 -3.8095205 -0.1086105 46
2.3658988 -3.8054156 -0.16610916 47
2.0006943 -3.8107605 -0.18490759 55
8.8220348 -12.129132 -0.73221934 3
2.3576543 -3.7921546 -0.2445682 43
2.0025804 -3.8143528 -0.26122984 48
2.3571184 -3.7912924 -0.32352895 43
2.0075436 -3.823806 -0.3383773 41
2.3642695 -3.8027947 -0.40373287 49
1.9989198 -3.8073804 -0.41300294 41
9.456439 -13.001354 -1.6389624 1
2.3580713 -3.7928255 -0.48170352 52
2.3532631 -3.7850916 -0.55972987 42
2.3519518 -3.7829823 -0.63825411 42
2.3540459 -3.7863507 -0.71852195 45
2.3367813 -3.7585814 -0.79153877 46
2.3582475 -3.7931087 -0.87846482 42
2.3479571 -3.7765574 -0.95342284 36
2.3494041 -3.7788846 -1.0329359 34
2.3502226 -3.7802012 -1.1118799 44
2.3505907 -3.7807932 -1.5315317 32
1.9984498 -3.2143943 -1.7643255 8
2.0522022 -3.355459 1.0382609 23
2.3257391 -3.8027065 0.86137205 41
2.3211157 -3.7951469 0.62237054 32
2.3203824 -3.7939479 0.38611379 30
2.317698 -3.7895589 0.22852629 30
2.3277855 -3.8060527 0.15057434 32
1.9700975 -3.8202651 0.1195379 39
13.849919 -19.338226 0.52151066 52
2.3204651 -3.7940834 0.071263351 27
1.974425 -3.8286562 0.043608747 43
10.995393 -15.352537 0.079760052 2
2.324934 -3.8013899 -0.007388324 29
1.9891365 -3.8571837 -0.032722522 24
10.738325 -14.993601 -0.2478621 0
2.3245022 -3.8006842 -0.086165868 46
1.9903922 -3.8596189 -0.1096199 25
10.636322 -14.851176 -0.56864309 6
2.3295977 -3.8090158 -0.16551644 47
1.9727064 -3.8253238 -0.18490759 39
9.0911379 -12.693684 -0.7622571 0
2.3193736 -3.7922988 -0.24347442 47
1.985546 -3.8502214 -0.26268247 28
8.9819527 -12.54123 -1.026479 1
2.3230188 -3.7982585 -0.32266158 45
1.9940819 -3.8667734 -0.34087685 26
8.9723692 -12.527849 -1.2980283 2
2.3197014 -3.7928345 -0.40085933 50
1.9928563 -3.8643968 -0.41759187 23
9.3794193 -13.096201 -1.6422079 0
2.3219054 -3.7964382 -0.47998777 49
2.308888 -3.7751539 -0.5557425 43
2.3096964 -3.7764759 -0.63428277 41
2.3200459 -3.7933979 -0.7166127 43
2.3071125 -3.7722509 -0.79083455 47
2.3037579 -3.7667663 -0.8684296 41
2.312048 -3.7803209 -0.95006865 37
2.3135087 -3.7827091 -1.0293179 34
2.3143501 -3.7840848 -1.1080024 40
2.3089986 -3.7753348 -1.5224231 32
1.9880747 -3.2506073 -1.7761552 7
2.0367057 -3.3829579 1.0423445 20
2.2869806 -3.7986629 0.85681856 40
2.286391 -3.7976837 0.62015373 34
2.2856174 -3.7963984 0.38472989 29
2.2870646 -3.7988026 0.22811528 30
2.2949717 -3.8119364 0.15016958 30
1.9524181 -3.8517582 0.1200939 23
13.783748 -19.532467 0.52414101 48
2.2856693 -3.7964852 0.071007006 27
1.9729652 -3.8922939 0.044175621 30
10.901782 -15.448535 0.079861425 1
2.2859597 -3.7969673 -0.0073485309 30
1.9856695 -3.917357 -0.03311459 22
2.668148 -3.7809393 -0.062193982 0
2.2875981 -3.7996886 -0.085779123 44
1.9869013 -3.9197872 -0.1109321 22
2.6624866 -3.7729168 -0.1437476 7
2.2967639 -3.8149133 -0.1650719 47
1.9784755 -3.9031646 -0.18799795 27
2.6652148 -3.7767828 -0.22567335 0
2.2804816 -3.7878683 -0.24216188 43
1.9784749 -3.9031634 -0.2653456 31
2.6648021 -3.7761979 -0.30754533 0
2.2861567 -3.7972944 -0.32121596 43
1.9976885 -3.9410684 -0.34618843 25
2.6704631 -3.7842197 -0.39014715 16
2.2870014 -3.7986977 -0.39978173 45
1.9964328 -3.938591 -0.42409283 23
2.6523354 -3.7585316 -0.46897042 27
2.2850885 -3.7955203 -0.47784305 49
2.276335 -3.7809808 -0.5542472 40
2.2730639 -3.7755475 -0.63144606 42
2.2853591 -3.79597 -0.71406698 45
2.2827518 -3.7916389 -0.79153877 46
2.2733562 -3.7760329 -0.86688572 39
2.2795484 -3.7863181 -0.94755304 35
2.2790051 -3.7854156 -1.0256999 37
2.269861 -3.7702274 -1.099278 41
2.268929 -3.7686796 -1.5133146 31
1.9709426 -3.2737255 -1.7812251 6
2.0169828 -3.4037483 1.0443863 18
2.2503953 -3.7976422 0.85302395 37
2.2537649 -3.8033288 0.61849111 30
2.2468696 -3.7916923 0.38265401 27
2.2401242 -3.7803094 0.22606018 33
2.2560766 -3.8072295 0.14936003 30
1.9593543 -3.9332952 0.12220666 23
2.6435738 -3.8021879 0.1015315 5
2.2509546 -3.7985861 0.070750661 26
1.9635783 -3.9417748 0.04458053 29
2.641902 -3.7997835 0.019547211 34
2.2451229 -3.7887449 -0.007302105 29
1.9814582 -3.9776676 -0.033506654 23
2.6279876 -3.7797709 -0.061871458 12
2.2528615 -3.8018038 -0.08546973 40
1.9844493 -3.9836719 -0.11234526 22
2.62467 -3.7749991 -0.14312531 43
2.2558115 -3.8067822 -0.16403463 47
1.9761245 -3.9669604 -0.19040158 25
2.6205373 -3.7690549 -0.22411294 26
2.2478745 -3.7933881 -0.24150562 42
1.9867829 -3.9883566 -0.27018768 30
2.6155903 -3.76194 -0.3048895 28
2.2473888 -3.7925684 -0.31948122 39
1.9932411 -4.0013208 -0.35025018 23
2.6121237 -3.7569542 -0.38544658 67
2.2482412 -3.7940071 -0.39762658 45
1.995518 -4.0058918 -0.429829 20
2.6373894 -3.7932932 -0.47099885 42
2.248399 -3.7942734 -0.47569832 47
2.2417912 -3.7831223 -0.55225354 42
2.2345397 -3.7708855 -0.62804204 41
2.2487376 -3.7948449 -0.71088487 43
2.2441826 -3.787158 -0.78731352 46
2.2369359 -3.774929 -0.86302602 38
2.2450848 -3.7886806 -0.94419891 33
2.2366326 -3.7744169 -1.0184639 31
2.2375503 -3.7759657 -1.0963699 39
2.2348511 -3.7714109 -1.5081098 31
1.9240134 -3.2468584 -1.7592555 7
1.9963132 -3.4203908 1.0454072 21
2.2152603 -3.7955246 0.84922934 37
2.2244968 -3.8113501 0.61738271 32
2.2136374 -3.7927439 0.38127008 28
2.2109756 -3.7881835 0.22564916 32
2.2227154 -3.8082976 0.14882034 29
1.9578526 -3.9964733 0.12376343 23
2.5934269 -3.783354 0.10056704 39
2.2196634 -3.8030689 0.070558406 28
1.9673076 -4.0157733 0.045268875 29
2.5985498 -3.7908275 0.019412054 40
2.2179289 -3.800097 -0.0072954725 29
1.9849496 -4.051785 -0.034019358 22
2.5938158 -3.7839217 -0.061656438 31
2.2155013 -3.7959375 -0.085005641 41
1.9896513 -4.0613828 -0.11416216 22
2.588273 -3.7758358 -0.14250302 48
2.2264843 -3.8147552 -0.16373828 48
1.972628 -4.0266337 -0.19263352 26
2.5864463 -3.7731707 -0.22333275 39
2.2125995 -3.7909656 -0.24041185 43
1.9848797 -4.0516424 -0.27357712 26
2.5792994 -3.7627447 -0.30356157 49
2.2161527 -3.7970536 -0.31861383 40
1.9982393 -4.0789127 -0.35587418 23
2.5848956 -3.7709084 -0.38511083 41
2.2109799 -3.7881908 -0.39547142 47
2.0021892 -4.0869756 -0.43709478 23
2.6009235 -3.7942903 -0.46897042 41
2.2151661 -3.7953632 -0.47398254 50
2.2106493 -3.7876241 -0.55075824 43
2.1975057 -3.7651048 -0.62463802 40
2.2115757 -3.7892118 -0.70706636 43
2.2110763 -3.7883558 -0.78449661 47
2.2039366 -3.776123 -0.85993832 39
2.2100501 -3.7865977 -0.94000614 35
2.1997657 -3.7689772 -1.0130368 37
2.2065892 -3.780668 -1.0934616 38
2.2021625 -3.7730834 -1.5029049 31
1.9261945 -3.3002527 -1.7812251 6
1.987795 -3.4610741 1.0535744 23
2.1828406 -3.8006804 0.84695262 41
2.1899426 -3.8130462 0.61516589 35
2.1771817 -3.7908273 0.37954018 32
2.1824858 -3.8000627 0.22544366 33
2.1861193 -3.8063891 0.14814574 31
1.9611157 -4.0748973 0.125765 22
2.5759037 -3.8146234 0.10091775 38
2.1850915 -3.8045993 0.070302062 29
1.9721806 -4.097888 0.046038203 26
2.5653074 -3.7989314 0.019361369 42
2.1833768 -3.801614 -0.0072689438 30
1.9878368 -4.1304193 -0.034562219 22
2.5539069 -3.7820487 -0.06133391 31
2.1829715 -3.8009081 -0.0847736 49
1.9993991 -4.1544437 -0.11638282 21
2.552901 -3.7805591 -0.14200521 40
2.1759088 -3.7886109 -0.16196012 46
1.9808624 -4.1159277 -0.19623896 24
2.5555708 -3.784513 -0.22294265 38
2.1801121 -3.7959297 -0.23975559 45
1.9894434 -4.1337576 -0.27817708 28
2.5529685 -3.7806592 -0.30356157 48
2.1756818 -3.7882156 -0.31658998 50
1.9939252 -4.1430702 -0.36024842 22
2.5495851 -3.7756486 -0.38376781 41
2.1785269 -3.7931695 -0.39439383 48
1.9995084 -4.1546712 -0.44283095 21
2.5565562 -3.7859719 -0.46572495 47
2.1767313 -3.7900431 -0.4714089 54
2.1742697 -3.7857568 -0.54826611 44
2.1711667 -3.7803543 -0.62463802 42
2.1870351 -3.8079834 -0.70770276 43
2.1728086 -3.7832131 -0.78027135 53
2.1736112 -3.7846103 -0.85839444 42
2.1777172 -3.7917595 -0.93749052 36
2.163697 -3.7673483 -1.0085144 37
2.1704776 -3.7791543 -1.0886148 43
2.1719999 -3.7818053 -1.5003024 33
1.8940794 -3.2979002 -1.7727753 6
1.9864161 -3.5152729 1.0658253 23
2.1504574 -3.8055696 0.84467584 40
2.1535246 -3.8109975 0.61239487 36
2.1389008 -3.7851181 0.37746429 35
2.1480422 -3.8012953 0.22462162 29
2.1555591 -3.8145976 0.14787588 29
1.968504 -4.1644025 0.12810016 24
2.5292768 -3.8025463 0.10012864 39
2.1525741 -3.8093154 0.070109807 29
1.969164 -4.1657987 0.046645567 30
2.5276468 -3.8000956 0.019276895 41
2.1430085 -3.7923872 -0.0072225179 37
1.9931403 -4.2165213 -0.035165399 21
2.5163655 -3.7831352 -0.061065137 33
2.1406431 -3.7882013 -0.084154814 50
1.9993979 -4.2297587 -0.11809879 23
2.5153744 -3.7816451 -0.14138292 43
2.1454732 -3.7967491 -0.16166377 51
1.9759895 -4.1802382 -0.1986426 25
2.5224497 -3.7922823 -0.2223575 39
2.1515937 -3.80758 -0.23953684 46
1.9844239 -4.1980815 -0.28156656 28
2.5176709 -3.7850976 -0.30249926 48
2.1413312 -3.7894194 -0.31543347 51
1.9905155 -4.210968 -0.36493507 23
2.5143342 -3.7800813 -0.3824248 43
2.1461129 -3.7978811 -0.39331627 50
2.0010834 -4.2333245 -0.44971433 23
2.5168395 -3.7838478 -0.46329084 47
2.1423929 -3.7912979 -0.46969312 54
2.1360722 -3.7801123 -0.54527557 46
2.1388779 -3.7850778 -0.62293601 43
2.1429117 -3.7922161 -0.70197493 45
2.1385956 -3.7845781 -0.7774545 53
2.1413443 -3.7894421 -0.85607862 43
2.141572 -3.7898452 -0.93329781 36
2.1335094 -3.7755773 -1.0067054 38
2.1383135 -3.7840791 -1.0857066 42
2.1399627 -3.7869973 -1.4963988 34
1.8710096 -3.311043 -1.7727753 7
1.9756192 -3.556787 1.0739926 22
2.1053414 -3.7903309 0.83784556 42
2.1178374 -3.8128283 0.61017805 34
2.1091628 -3.7972112 0.37711832 28
2.1104217 -3.7994776 0.22359407 34
2.1139514 -3.8058319 0.14693142 32
1.9614756 -4.2295032 0.12965693 22
2.488193 -3.8009093 0.099602573 36
2.1109993 -3.8005176 0.069661207 30
1.973913 -4.2563219 0.047495876 28
2.4887686 -3.8017886 0.019192422 42
2.1170943 -3.8114903 -0.0072291503 34
1.984055 -4.2781911 -0.035557467 22
2.4863756 -3.7981329 -0.061011385 33
2.1069918 -3.7933023 -0.083922766 48
1.9952559 -4.3023434 -0.11971381 22
2.478827 -3.786602 -0.14088508 42
2.111762 -3.8018906 -0.16121924 50
1.9738762 -4.2562428 -0.20156129 23
2.4814539 -3.7906146 -0.22118719 41
2.1100502 -3.7988086 -0.23800555 45
1.9922323 -4.2958236 -0.28713492 27
2.4767411 -3.7834156 -0.30090576 48
2.1057479 -3.7910631 -0.31427699 49
1.9931489 -4.2978001 -0.37118396 20
2.4778249 -3.7850711 -0.38108179 41
2.1104784 -3.7995796 -0.3918795 50
2.0035012 -4.3201222 -0.45736253 23
2.4759579 -3.7822189 -0.46085674 46
2.1087515 -3.7964704 -0.46840629 49
2.1005974 -3.7817903 -0.54328191 46
2.0976169 -3.7764244 -0.61896461 43
2.101634 -3.7836564 -0.69752002 45
2.1050608 -3.7898257 -0.77534181 46
2.1039805 -3.7878811 -0.85221893 42
2.1004405 -3.781508 -0.92742801 40
2.0963168 -3.7740839 -1.002183 35
2.0973275 -3.7759035 -1.078921 40
2.1011262 -3.7827423 -1.4885916 30
1.846689 -3.3246686 -1.7727753 5
1.9655745 -3.5976448 1.0821599 22
2.0750625 -3.7980437 0.83632773 38
2.0759728 -3.79971 0.60574442 36
2.0749595 -3.7978554 0.37573439 28
2.0742683 -3.7965903 0.22256653 35
2.0777464 -3.8029563 0.1462568 29
1.9617238 -4.3085961 0.13165849 20
2.4529293 -3.8047431 0.099251859 36
2.0729098 -3.7941039 0.06927669 29
1.9706688 -4.3282423 0.048143733 26
2.4513295 -3.8022616 0.019107947 43
2.0846798 -3.8156469 -0.0072092535 30
1.9906033 -4.372025 -0.036220968 17
2.4424613 -3.788506 -0.060581349 32
2.0747058 -3.7973909 -0.083690725 47
8.8316717 -19.39728 -0.53800559 11
2.4436653 -3.7903736 -0.14038727 39
2.0775023 -3.8025093 -0.16062652 48
1.9772335 -4.3426609 -0.20499504 24
2.4441056 -3.7910566 -0.22021194 40
2.0681581 -3.7854068 -0.2362555 47
1.9787378 -4.3459644 -0.28955597 15
2.4437795 -3.7905507 -0.300109 48
2.0715787 -3.7916672 -0.31312048 41
8.9016819 -19.551046 -1.6831381 9
2.4362211 -3.778827 -0.37873149 41
2.0781708 -3.8037329 -0.39080191 50
2.4430237 -3.7893784 -0.4596397 46
2.0764754 -3.8006296 -0.46711946 54
2.0665326 -3.7824316 -0.5412882 43
2.0636075 -3.7770774 -0.61669528 39
2.0675943 -3.7843745 -0.6949743 46
2.067224 -3.7836969 -0.7711165 53
2.0680759 -3.7852561 -0.84835923 38
2.0683637 -3.7857828 -0.92491239 37
2.0624449 -3.7749496 -0.9985649 34
2.063473 -3.7768314 -1.0750434 38
2.0655987 -3.7807221 -1.4820855 24
1.8234334 -3.3374801 -1.7727753 6
1.9532242 -3.6351271 1.0893061 22
2.0429199 -3.8020587 0.83405101 35
2.0437703 -3.8036416 0.60408181 34
2.0370779 -3.7911863 0.37365851 29
2.038259 -3.7933846 0.22153898 36
2.0416851 -3.7997608 0.14558218 28
1.9577 -4.3805943 0.13343766 1
2.407017 -3.7913899 0.098462753 38
2.0350132 -3.787344 0.068892173 28
8.8713551 -19.850746 0.22010878 25
2.409718 -3.7956443 0.018989684 43
2.0466313 -3.8089664 -0.0071694599 30
18.981804 -42.474117 -0.35077938 26
2.4116657 -3.798712 -0.060473837 32
2.0424657 -3.8012137 -0.083458677 44
8.7580404 -19.597191 -0.54184127 14
2.40643 -3.7904651 -0.13976498 39
2.0452294 -3.8063571 -0.16018197 48
8.6761208 -19.413887 -0.9135499 15
2.4025903 -3.7844172 -0.21884659 39
2.0341191 -3.7856796 -0.23538049 44
8.6844931 -19.432621 -1.2906545 2
2.4001436 -3.7805634 -0.29798433 45
2.0375042 -3.7919798 -0.31196401 43
8.921175 -19.962225 -1.7131327 1
2.4076445 -3.7923782 -0.37839574 42
2.0459082 -3.8076205 -0.38972434 49
7.4421639 -16.652756 -1.7518208 1
2.4079783 -3.7929039 -0.45801696 47
2.0442443 -3.8045235 -0.46583262 50
2.0344405 -3.7862778 -0.53979295 43
2.0278175 -3.773952 -0.61385858 42
2.0373857 -3.7917593 -0.69370145 38
2.0370312 -3.7910995 -0.7697081 50
2.0415995 -3.7996016 -0.84835923 43
2.0418837 -3.8001304 -0.92491239 39
2.0341964 -3.7858238 -0.9976604 31
2.0315452 -3.7808895 -1.0721353 39
2.0427349 -3.8017144 -1.4846879 32
1.806953 -3.3629031 -1.7795352 6
1.9548999 -3.6999683 1.1046197 22
2.0108228 -3.8058114 0.83177423 37
2.0097635 -3.8038068 0.60186499 32
2.0049758 -3.7947452 0.37262058 28
2.0005295 -3.78633 0.22030592 34
2.011373 -3.8068528 0.14531234 28
14.115788 -32.187183 0.97743088 24
2.3720112 -3.7945371 0.098112039 40
2.008523 -3.8014588 0.068892173 26
18.790415 -42.846386 0.47362256 17
2.37256 -3.7954149 0.018905211 42
2.0087781 -3.8019416 -0.0071296664 33
25.799858 -58.829502 -0.48435363 23
2.3638866 -3.7815399 -0.059936292 32
2.0102737 -3.8047721 -0.083226636 45
9.9957495 -22.792566 -0.62824517 26
2.3693135 -3.7902212 -0.13914269 38
2.0148714 -3.8134742 -0.15988562 53
8.6816187 -19.796051 -0.92865843 2
2.3676412 -3.7875459 -0.21806638 41
2.0057747 -3.796257 -0.23516172 49
8.710577 -19.862082 -1.315107 0
2.3652303 -3.7836895 -0.296922 46
2.0091178 -3.8025844 -0.31167489 51
9.0955095 -20.739817 -1.7743719 3
2.3705466 -3.7921939 -0.37671697 39
2.0099707 -3.8041987 -0.38792837 51
7.3545098 -16.769943 -1.7587042 1
2.3708942 -3.7927499 -0.45598856 43
2.0139182 -3.8116701 -0.46497473 54
2.0079577 -3.8003888 -0.53979295 43
2.0088203 -3.8020213 -0.61612797 40
2.0145543 -3.8128738 -0.6949743 47
2.0123541 -3.8087101 -0.77041233 49
2.0150235 -3.8137622 -0.84835923 37
2.0207853 -3.8246675 -0.92742801 25
2.009537 -3.8033779 -0.9985649 35
2.0159776 -3.815568 -1.0779516 32
2.0249791 -3.8326046 -1.491194 18
1.7817379 -3.3722308 -1.7778451 7
1.9361538 -3.7272537 1.1087034 26
1.9697218 -3.7918749 0.82570291 38
1.9776815 -3.807198 0.60020238 35
1.9784354 -3.8086495 0.37262058 32
1.977731 -3.8072932 0.22071694 31
1.982905 -3.8172538 0.14517741 33
13.931822 -32.38044 0.98032206 22
2.3328865 -3.79057 0.097585969 36
1.9819357 -3.8153877 0.068892173 29
20.360941 -47.323044 0.52152336 2
2.3376193 -3.79826 0.018837633 44
1.9914069 -3.8336205 -0.007162828 29
24.966434 -58.027164 -0.47630119 17
2.33114 -3.7877326 -0.059775028 31
1.9818194 -3.8151639 -0.083149284 45
2.3302219 -3.7862406 -0.13839595 40
1.9918854 -3.8345416 -0.16018197 51
9.7546368 -22.671797 -1.0603428 36
2.3348594 -3.7937756 -0.21748123 40
1.9976351 -3.8456104 -0.23734929 34
9.7599363 -22.684114 -1.4974111 3
2.334574 -3.7933118 -0.29639083 48
2.0027523 -3.8554614 -0.31485525 24
9.0450611 -21.022596 -1.7931185 1
2.3314795 -3.7882841 -0.37470242 38
1.9870373 -3.8252087 -0.38864675 51
7.2482691 -16.846479 -1.7613811 1
2.336015 -3.7956533 -0.45436582 42
1.9890927 -3.8291655 -0.46540368 34
1.9978435 -3.8460116 -0.54427874 27
2.0096078 -3.8686588 -0.62463802 23
2.0006299 -3.8513756 -0.69942927 25
2.0020521 -3.8541133 -0.77675027 25
2.017298 -3.8834631 -0.86071026 23
2.0246854 -3.8976843 -0.94168323 25
2.0008979 -3.8518913 -1.0076098 23
2.0143368 -3.8777623 -1.0915229 31
2.0295589 -3.9070661 -1.5146159 18
1.7631663 -3.3942387 -1.7829151 7
1.915362 -3.7510135 1.1117661 25
1.9503456 -3.8195248 0.82873857 40
1.9528557 -3.8244402 0.60075659 27
1.9681083 -3.8543108 0.37573439 20
1.9565527 -3.8316805 0.22133347 30
1.9634794 -3.8452456 0.14571711 22
13.72408 -32.521118 0.98165643 24
2.2980776 -3.7930832 0.097235255 38
