# .PCD v0.7 - Point Cloud Data file format
VERSION 0.7
FIELDS x y z intensity
SIZE 4 4 4 4
TYPE F F F F
COUNT 1 1 1 1
WIDTH 1336
HEIGHT 1
VIEWPOINT 0 0 0 1 0 0 0
POINTS 1336
DATA ascii
-5.8125916 -3.8633382 -0.09380164 21
-15.921941 -8.9898672 -0.35363585 48
-16.310759 -7.7030978 -0.45533642 39
-5.820291 -3.8684556 -0.21755047 26
-15.903544 -8.9794798 -0.67703187 46
-16.297304 -7.696744 -0.77431124 46
-5.766273 -3.8325527 -0.33802241 29
-15.904564 -8.9800558 -1.000367 42
-16.296871 -7.6965394 -1.0928559 55
-5.7736974 -3.8374872 -0.46131799 29
-15.87979 -8.9660683 -1.3215824 46
-16.273315 -7.6854148 -1.4100617 40
-5.8091993 -3.8610835 -0.58757102 27
-9.7099228 -5.4824295 -1.005381 0
-16.252022 -7.6753578 -1.7261994 41
-5.8361678 -3.8790081 -0.71440911 30
-8.4914112 -4.7944317 -1.0517694 0
-8.2632818 -4.6656246 -1.1917312 6
-8.2060671 -4.6333203 -1.350262 3
-8.1670799 -4.6113076 -1.5115055 3
-8.2289648 -4.6462488 -1.6901184 4
-8.3527699 -4.7161522 -1.886615 0
-8.6982698 -4.9112282 -2.1416376 3
-7.9496155 -4.4885225 -2.1192369 6
-7.2688918 -4.1041713 -2.0851383 5
-5.0195847 -2.8341644 -1.9830537 5
-3.5831978 -2.02315 -1.9181124 6
-2.31935 -1.2882837 0.70034117 6
-3.1963754 -1.7754277 0.70655274 12
-5.3192601 -2.9545846 0.85125661 23
-6.1138592 -3.3959451 0.60719508 6
-15.648401 -8.6919088 0.92088699 22
-15.74056 -8.7430992 0.60769433 31
-16.127247 -7.4791784 0.49438655 37
-5.8653121 -3.8396137 0.1537001 26
-13.223145 -7.3448 0.24237229 10
-14.942482 -6.9297314 0.16674171 8
-5.8900957 -3.8558376 0.029734738 29
-15.959308 -8.8646021 -0.03026958 31
-16.350744 -7.5828271 -0.13589647 42
-5.9063482 -3.866477 -0.094876736 21
-15.952847 -8.8610144 -0.35293972 46
-16.360512 -7.587357 -0.45523548 38
-5.9207468 -3.8759029 -0.22028853 25
-15.94488 -8.8565884 -0.67614281 45
-16.32889 -7.5726919 -0.7732811 41
-5.8664279 -3.8403442 -0.3423135 27
-15.938937 -8.8532877 -0.99861699 41
-16.321232 -7.5691404 -1.090919 56
-5.8838296 -3.8517358 -0.46795759 31
-15.928047 -8.8472385 -1.320426 38
-16.304867 -7.5615516 -1.408187 39
-5.8993754 -3.8619125 -0.59395039 27
-8.64744 -4.8032236 -0.89187604 0
-16.3016 -7.5600357 -1.725817 40
-5.9097176 -3.8686829 -0.72008866 30
-8.6985073 -4.8315883 -1.0732166 0
-8.4032087 -4.6675649 -1.2071823 8
-8.3801327 -4.654747 -1.3735229 3
-8.3199024 -4.6212926 -1.5337802 3
-8.3747931 -4.6517816 -1.7133576 4
-8.7528582 -4.8617778 -2.1466689 2
-7.9943829 -4.4404821 -2.1228549 6
-7.3075452 -4.0589781 -2.0880466 5
-5.0392485 -2.799052 -1.9830537 5
-3.5845575 -1.9910437 -1.9113526 6
-2.3214993 -1.2683514 0.69829935 5
-3.1880133 -1.7417715 0.70199925 12
-5.3188992 -2.9059811 0.84793139 22
-6.1409159 -3.3550901 0.60754108 16
-13.268787 -7.2494035 0.77785254 6
-13.268249 -7.2491093 0.51027972 14
-16.164515 -7.3597794 0.49394175 29
-5.972641 -3.8505781 0.15580438 25
-13.270589 -7.2503881 0.2423082 5
-9.8359213 -4.4783411 0.10940653 11
-5.967299 -3.8471341 0.029988158 15
-13.890079 -7.5888467 -0.026243806 1
-9.8252258 -4.4734712 -0.081399158 34
-15.348997 -9.8955412 -0.24544315 38
-15.993263 -8.7379217 -0.35247561 46
-9.7896223 -4.4572611 -0.27152628 44
-15.32279 -9.8786449 -0.567523 46
-15.988783 -8.7354736 -0.67540187 52
-9.8419094 -4.4810677 -0.46458673 1
-5.9468222 -3.8339326 -0.34543431 26
-15.979325 -8.7303066 -0.9973045 42
-9.8074903 -4.4653964 -0.65343773 21
-5.9541845 -3.8386793 -0.47141016 3
-15.947411 -8.7128696 -1.3169565 38
-9.7700787 -4.4483628 -0.84110039 43
-15.952606 -8.7157087 -1.6389973 34
-9.7623806 -4.4448581 -1.0302129 49
-8.5261145 -4.6582437 -1.0479089 0
-8.5609732 -4.677289 -1.2251256 7
-8.5340414 -4.6625743 -1.3933796 2
-8.4836531 -4.6350451 -1.5579643 3
-8.5556479 -4.6743798 -1.7436389 3
-9.6990738 -5.2990904 -2.1737759 2
-8.7865868 -4.8005528 -2.1466689 2
-8.0046721 -4.3733535 -2.1174281 6
-7.3118644 -3.994838 -2.0812609 6
-5.055347 -2.7619894 -1.9817525 6
-3.6174598 -1.9763997 -1.9214923 4
-2.3200769 -1.2466217 0.69523662 8
-3.1897168 -1.7138958 0.69972247 11
-5.3250985 -2.8612773 0.84571457 21
-6.1466374 -3.3027058 0.60581118 14
-11.552582 -6.2074232 0.67468691 1
-15.804753 -8.4921961 0.60553557 31
-9.8417349 -4.3982978 0.29978997 46
-11.222242 -7.1246023 0.29144275 8
-14.092444 -7.5721402 0.25634298 1
-9.8012152 -4.3801889 0.10867769 49
-11.802289 -7.4928536 0.059047107 3
-14.034334 -7.540916 -0.026416244 2
-9.8123941 -4.3851848 -0.081037246 47
-15.38056 -9.7645702 -0.24485186 45
-16.025694 -8.6109114 -0.35185683 42
-9.7985964 -4.3790188 -0.27092063 46
-15.364375 -9.7542953 -0.56652731 45
-16.02825 -8.6122856 -0.6745128 46
-9.8109274 -4.3845296 -0.46166804 33
-15.360277 -9.7516937 -0.88825965 53
-16.004702 -8.5996323 -0.99511695 41
-9.8056183 -4.3821568 -0.65125883 71
-7.6723185 -4.870882 -0.60473293 0
-15.990279 -8.5918827 -1.3155109 37
-9.7717695 -4.3670297 -0.83860081 48
-7.6857052 -4.8793812 -0.76686412 0
-15.995518 -8.594698 -1.6372014 43
-9.7459154 -4.3554754 -1.0252416 47
-7.5018182 -4.7626376 -0.90589184 0
-8.6214857 -4.6324892 -1.05563 0
-8.7227736 -4.6869135 -1.2435672 4
-8.7059021 -4.6778479 -1.4160731 2
-8.644516 -4.6448636 -1.581512 3
-8.7025347 -4.6760383 -1.766878 4
-9.1446295 -4.9135842 -2.0417745 1
-8.8302221 -4.7446475 -2.1491845 2
-8.0315762 -4.3155198 -2.1165235 6
-7.3703418 -3.9602258 -2.0899854 5
-5.0811701 -2.7302098 -1.984355 5
-3.5960395 -1.9322208 -1.9029027 4
-2.3321431 -1.232201 0.69625753 6
-3.208549 -1.695255 0.7012403 11
-5.3239288 -2.812928 0.84238935 18
-6.1448803 -3.2466822 0.60338932 14
-15.777552 -8.3361588 0.91800988 43
-15.842447 -8.3704472 0.60472602 35
-9.842907 -4.3166351 0.29890037 43
-11.258144 -7.0376039 0.29109204 9
-16.072216 -8.4918461 0.29126972 28
-9.8205671 -4.306838 0.10855622 44
-11.949283 -7.4696426 0.059520159 3
-14.267009 -7.5380549 -0.026754487 4
-9.8098021 -4.3021169 -0.080765821 47
-15.570449 -9.7332783 -0.24678701 18
-16.064201 -8.4876118 -0.35139275 47
-9.79597 -4.296051 -0.27001217 46
-15.652461 -9.7845449 -0.57461703 35
-16.073847 -8.4927082 -0.67392009 47
-9.8156796 -4.3046947 -0.46046624 54
-15.404269 -9.6293974 -0.88689435 58
-16.050222 -8.4802256 -0.99424189 42
-9.7957516 -4.2959552 -0.64859569 49
-7.8008981 -4.8764367 -0.61216927 0
-16.028708 -8.4688578 -1.3137761 38
-9.7801075 -4.2890944 -0.83672613 46
-7.7263422 -4.8298311 -0.76753563 1
-16.016384 -8.462347 -1.6332502 50
-9.7542067 -4.2777357 -1.0229471 47
-7.6867294 -4.8050685 -0.92414761 0
-9.0509586 -4.7821255 -1.1041006 1
-8.9061747 -4.7056279 -1.2649995 4
-8.8608799 -4.6816959 -1.4359299 3
-8.8094158 -4.6545043 -1.6056961 4
-8.8289661 -4.664834 -1.7858918 4
-9.074604 -4.7946181 -2.0186164 2
-8.8631306 -4.6828852 -2.1491845 2
-8.0752888 -4.2666245 -2.1201415 6
-7.4046726 -3.9123006 -2.091924 5
-5.1001067 -2.6946702 -1.984355 4
-3.6382909 -1.9223115 -1.9181124 3
-2.340688 -1.2158906 0.69625753 5
-3.1889386 -1.6565218 0.69441009 10
-5.3258586 -2.7665632 0.83961833 19
-6.1638589 -3.2018697 0.60304332 13
-15.835361 -8.2258148 0.91800988 19
-15.882756 -8.2504349 0.60405141 31
-9.8470926 -4.2367516 0.29812199 44
-11.286567 -6.9462595 0.29056597 11
-14.746917 -7.6604133 0.26627627 2
-9.821002 -4.2255259 0.10823229 45
-12.1374 -7.4699001 0.060195949 6
-14.486117 -7.5249386 -0.027066205 7
-9.806529 -4.2192988 -0.080494389 38
-15.695927 -9.6599779 -0.24770084 31
-16.105316 -8.366045 -0.351006 45
-9.7853184 -4.2101731 -0.26890185 20
-15.686337 -9.6540766 -0.57337242 36
-16.086628 -8.3563385 -0.67199379 47
-9.8124542 -4.2218485 -0.45892105 51
-15.668464 -9.643075 -0.89820725 64
-16.087765 -8.3569279 -0.9929294 44
-9.7998304 -4.2164168 -0.64690095 47
-7.9367228 -4.8846154 -0.62013674 0
-16.066195 -8.3457232 -1.3120414 40
-9.7731819 -4.2049513 -0.83360171 27
-7.8209734 -4.8133779 -0.77357924 0
-16.064463 -8.3448238 -1.6321727 47
-9.7399435 -4.19065 -1.0183582 25
-7.7438107 -4.7658887 -0.92698741 0
-9.2641106 -4.8123221 -1.1259767 1
-9.0585556 -4.7055445 -1.2819459 4
-9.040925 -4.6963863 -1.459758 0
-8.9398174 -4.6438651 -1.623516 3
-9.0430145 -4.6974721 -1.822511 2
-9.0939217 -4.7239161 -2.0155287 2
-8.8817225 -4.6136875 -2.1458304 6
-8.1014194 -4.2083521 -2.1192369 5
-7.4180284 -3.8533587 -2.0880466 5
-5.1221504 -2.6607451 -1.9856561 5
-3.6484044 -1.8951952 -1.9164225 3
-2.3594525 -1.2047963 0.69932026 9
-3.2074211 -1.6377904 0.69592792 8
-5.3309302 -2.7221081 0.83740151 21
-6.1505709 -3.1406374 0.59958351 16
-15.856824 -8.0968962 0.91595477 31
-12.009272 -6.1322384 0.45509613 1
-9.8285389 -4.1476974 0.2966764 33
-11.324525 -6.8610783 0.29030293 6
-16.142904 -8.2429762 0.2904366 25
-9.8244638 -4.145978 0.10794885 45
-12.326097 -7.4678903 0.060871739 8
-14.709293 -7.5109382 -0.027384551 9
-9.817318 -4.1429625 -0.080343589 45
-15.739038 -9.535656 -0.24732456 31
-16.145521 -8.2443123 -0.35061926 47
-9.7886829 -4.130878 -0.26819527 47
-15.719161 -9.523613 -0.57212788 36
-16.133894 -8.2383757 -0.6715492 48
-9.7938223 -4.1330471 -0.45668909 55
-15.701233 -9.5127506 -0.89625674 66
-16.131485 -8.2371454 -0.99205434 42
-9.7848845 -4.1292753 -0.6439957 50
-8.0559692 -4.8807907 -0.62677634 0
-16.116959 -8.2297277 -1.3114631 40
-9.7729053 -4.1242204 -0.83110213 47
-7.9634757 -4.8247523 -0.78432339 0
-16.10104 -8.2215996 -1.6300175 45
-9.7616234 -4.1194587 -1.0175934 45
-7.8858047 -4.7776947 -0.93996924 0
-9.5347881 -4.8687043 -1.1547159 0
-9.2290373 -4.7125802 -1.3013844 2
-9.3626585 -4.7808104 -1.5062797 2
-9.1443548 -4.6693397 -1.6547008 4
-9.1772852 -4.6861544 -1.8429333 0
-9.1861019 -4.6906562 -2.0286515 2
-8.9311323 -4.5604625 -2.150023 6
-8.1132507 -4.1428313 -2.1147144 4
-7.4482045 -3.8032422 -2.089016 4
-5.1271257 -2.6180403 -1.9804513 5
-3.6744621 -1.8762734 -1.9231824 2
-2.360893 -1.1848254 0.69727844 6
-3.2047365 -1.6083122 0.69289225 8
-5.3250208 -2.6723871 0.83352208 22
-6.1581001 -3.090472 0.59819961 15
-15.934388 -7.9967489 0.91718781 28
-12.194712 -6.1199741 0.46049306 4
-9.8350878 -4.0698071 0.29600921 42
-11.354975 -6.7716098 0.28986454 11
-16.189335 -8.1246958 0.29024434 41
-9.8272991 -4.0665841 0.10766542 45
-12.515349 -7.4636068 0.061547529 11
-14.95085 -7.5031552 -0.02773606 9
-9.8238268 -4.0651474 -0.080162637 44
-15.774308 -9.4071074 -0.24684078 27
-16.177662 -8.1188364 -0.35007784 47
-9.7877235 -4.0502076 -0.26738775 43
-15.747493 -9.3911161 -0.57075888 37
-16.169582 -8.1147814 -0.67066014 46
-9.7928972 -4.0523486 -0.45531559 52
-15.750104 -9.3926735 -0.89528149 74
-16.170752 -8.1153688 -0.9909606 40
-9.7839594 -4.0486503 -0.64205891 51
-8.2029676 -4.891891 -0.63554054 0
-16.149061 -8.1044836 -1.3094393 38
-9.7719822 -4.0436935 -0.82860261 49
-8.0893946 -4.8241611 -0.79338878 0
-16.143803 -8.1018448 -1.6285808 70
-9.7570333 -4.037508 -1.0141517 49
-9.6688643 -5.7660875 -1.1476793 0
-16.133591 -8.0967197 -1.9469745 51
-9.4071474 -4.7210217 -1.3218198 1
-9.647069 -4.8414278 -1.5465606 1
-9.3143816 -4.6744666 -1.6795212 3
-9.3927765 -4.7138095 -1.8795525 1
-9.3940172 -4.7144322 -2.0672483 1
-8.9732389 -4.503263 -2.1525385 6
-8.1454573 -4.0878367 -2.1156189 4
-7.4537649 -3.7407074 -2.0831995 4
-5.1452785 -2.5821824 -1.9804513 5
-3.6777503 -1.8456964 -1.9181124 2
-2.3621697 -1.1648933 0.69523662 5
-3.2088418 -1.5824257 0.69137442 7
-5.3257833 -2.6263857 0.83075106 24
-6.1580815 -3.0368297 0.59612375 16
-15.961164 -7.8711753 0.91554374 26
-12.405656 -6.1177926 0.46683446 6
-9.8447351 -3.9935312 0.29545322 48
-11.374382 -6.6759777 0.28916311 5
-16.22414 -8.0008602 0.28985983 44
-9.825798 -3.9858491 0.10734149 49
-12.701687 -7.4550142 0.062206421 13
-15.207354 -7.4994369 -0.028114099 10
-9.8186083 -3.9829328 -0.079891205 46
-15.815454 -9.2825804 -0.24646449 28
-16.219601 -7.9986219 -0.34976843 45
-9.7935286 -3.972759 -0.26678213 46
-15.795432 -9.2708292 -0.57013655 35
-16.215084 -7.9963946 -0.67021561 47
-9.7987299 -3.974869 -0.45428547 52
-15.78773 -9.2663088 -0.8937211 73
-16.187611 -7.9828458 -0.9885543 42
-9.7897863 -3.971241 -0.64060628 51
-15.768211 -9.2548523 -1.2166365 41
-16.180201 -7.9791923 -1.3074154 38
-9.781497 -3.9678786 -0.82704037 51
-8.3531914 -4.9027472 -0.81588435 0
-16.174959 -7.9766073 -1.6260664 55
-9.7517757 -3.9558218 -1.01071 46
-16.17189 -7.9750938 -1.9448297 51
-9.6249723 -4.7465115 -1.3477378 2
-9.6309166 -4.7494426 -1.5386178 1
-9.5415869 -4.70539 -1.7145245 1
-9.549058 -4.709074 -1.9042001 1
-9.8948689 -4.8796091 -2.1699162 3
-9.0044594 -4.4405079 -2.1525385 4
-8.1668091 -4.0274243 -2.1138101 4
-7.5075426 -3.7023103 -2.0909545 5
-5.1597881 -2.5445259 -1.9791501 5
-3.6872945 -1.8183725 -1.9164225 1
-2.3563225 -1.1416286 0.69115305 8
-3.219811 -1.5599852 0.69137442 5
-5.3261642 -2.5805044 0.82798004 19
-6.1647873 -2.986814 0.59473979 16
-15.979778 -7.7421365 0.91348869 28
-12.631546 -6.1199317 0.47371554 6
-9.8463659 -3.9143648 0.29467484 44
-11.399934 -6.5844064 0.28863704 6
-16.268803 -7.8821683 0.28966758 38
-9.8273659 -3.9068117 0.10705806 49
-12.888509 -7.4441814 0.062865317 14
-15.464525 -7.4924984 -0.028492138 11
-9.8424587 -3.9128115 -0.079861045 44
-15.859092 -9.1599398 -0.24614196 32
-16.25705 -7.8764739 -0.34938169 47
-9.8321724 -3.9087222 -0.26708496 23
-15.84592 -9.1523314 -0.56963873 36
-16.256124 -7.8760257 -0.6696229 49
-9.8188133 -3.9034114 -0.45394209 56
-15.831278 -9.1438742 -0.89255077 57
-16.24654 -7.8713818 -0.98877305 41
-9.8098516 -3.8998489 -0.64012206 49
-15.811701 -9.1325674 -1.2150431 43
-16.239103 -7.8677783 -1.3077046 39
-9.797843 -3.8950748 -0.82610303 34
-8.411376 -4.8582664 -0.81823462 0
-16.215912 -7.8565421 -1.6246296 52
-9.8420544 -3.9126508 -1.017211 19
-8.9627657 -5.1767397 -1.0551834 1
-16.216434 -7.8567958 -1.943543 51
-16.190512 -7.8442364 -2.2593548 42
-9.8170633 -4.7563267 -1.5630133 1
-9.822978 -4.7591925 -1.7590741 1
-11.123135 -5.3891129 -2.2105341 2
-9.9675465 -4.8292351 -2.1784074 3
-9.0422802 -4.3809471 -2.1542158 4
-8.1982327 -3.9720101 -2.1147144 4
-7.5297132 -3.6481152 -2.0899854 7
-5.1842337 -2.51174 -1.9817525 5
-3.7162127 -1.8004898 -1.9248723 1
-2.3747118 -1.1301364 0.69421571 5
-3.2128921 -1.5290304 0.68757981 4
-5.3297415 -2.536449 0.82576323 19
-6.1495061 -2.9265788 0.59127998 15
-16.015404 -7.6218052 0.9124611 28
-12.850842 -6.1157761 0.48032677 3
-9.9367924 -3.8701982 0.2965652 19
-11.417809 -6.488852 0.28793561 3
-16.308989 -7.7615237 0.28941122 35
-9.9773951 -3.8860121 0.10839426 20
-13.093179 -7.4409804 0.063608684 16
-16.282164 -7.7487578 -0.029898174 23
-10.022349 -3.9035208 -0.081097566 20
-15.887879 -9.0292358 -0.24560441 31
-16.289976 -7.7524757 -0.3489176 45
-10.060429 -3.9183521 -0.27253565 20
-15.899002 -9.0355568 -0.56926537 37
-16.299887 -7.7571921 -0.66917837 49
-9.9351969 -3.8695769 -0.45806262 24
-15.856519 -9.0114136 -0.89040524 65
-16.265032 -7.7406049 -0.9865855 44
-9.9744949 -3.8848827 -0.64907986 19
-15.871602 -9.0199852 -1.2147775 52
-16.279224 -7.7473588 -1.306548 39
-10.014307 -3.9003885 -0.84203774 20
-8.5351868 -4.8506298 -0.82696426 0
-16.248781 -7.7328711 -1.6224746 64
-10.058351 -3.9175427 -1.0367138 20
-8.9329538 -5.076684 -1.0474755 1
-16.252935 -7.734848 -1.9413983 51
-16.219795 -7.7190766 -2.2558658 44
-14.819736 -7.0527816 -2.3516119 1
-12.687235 -6.0379143 -2.2643943 1
-11.181819 -5.3214803 -2.2147593 1
-6.7760258 -3.2247424 -1.4759444 7
-6.7665186 -3.2202177 -1.6066475 52
-8.2222443 -3.9130046 -2.1138101 4
-7.5549984 -3.595459 -2.0899854 7
-5.2084737 -2.4787369 -1.984355 5
-3.7188714 -1.7698282 -1.9198024 0
-2.4035661 -1.1233555 0.70034117 5
-3.2128146 -1.5015742 0.68530303 2
-5.3365526 -2.4941466 0.82410061 20
-6.1553469 -2.8768265 0.58989608 16
-16.07546 -7.5131936 0.91287214 29
-16.109289 -7.5290036 0.6001386 36
-10.146627 -3.8705616 0.3020139 19
-11.455849 -6.4050851 0.28776026 4
-16.337414 -7.6356225 0.28896263 30
-10.187401 -3.8861153 0.11037831 20
-13.294931 -7.4333358 0.06433516 24
-16.328617 -7.6315107 -0.029884908 35
-10.236217 -3.9047368 -0.082605518 22
-15.936561 -8.9102983 -0.2453894 34
-16.332832 -7.6334815 -0.34868556 47
-10.285554 -3.923557 -0.27788544 21
-15.923304 -8.9028864 -0.56789637 35
-16.31381 -7.6245909 -0.66754836 52
-10.148664 -3.8713386 -0.466647 24
-15.919041 -8.9005022 -0.89040524 47
-16.315058 -7.625174 -0.98636675 46
-10.202819 -3.8919966 -0.66215348 20
-15.909799 -8.8953352 -1.2129184 49
-16.311228 -7.623384 -1.3048133 41
-10.227588 -3.9014449 -0.85765994 20
-15.878276 -8.8777103 -1.5323852 31
-16.280716 -7.6091237 -1.6203194 53
-10.264025 -3.9153445 -1.0550696 19
-8.7146215 -4.872436 -1.0178605 0
-16.288525 -7.6127734 -1.9392534 53
-16.258907 -7.5989313 -2.2538722 40
-14.825567 -6.9290304 -2.3448038 5
-12.71119 -5.9408331 -2.2612121 1
-6.8917403 -3.2209949 -1.3605453 1
-6.7165942 -3.1391368 -1.4581898 13
-6.7250571 -3.1430922 -1.5915537 132
-6.752687 -3.1560054 -1.7303032 4
-7.516633 -3.5130513 -2.0725365 4
-5.2290783 -2.4439161 -1.9856561 5
-3.7278516 -1.7422872 -1.9181124 0
-2.39729 -1.100096 0.69625753 8
-3.2303584 -1.482384 0.68682086 2
-5.3034296 -2.4336987 0.81634176 9
-6.1607933 -2.8271358 0.58851218 15
-16.102106 -7.3891196 0.91143358 27
-16.154192 -7.4130216 0.59986877 30
-10.364433 -3.8709786 0.30768502 17
-11.493278 -6.3210979 0.2875849 5
-16.383053 -7.5180435 0.28883445 20
-10.409125 -3.8876705 0.11248384 21
-13.50422 -7.4270806 0.065095425 20
-9.8376236 -4.5144019 -0.017946864 12
-10.446834 -3.9017541 -0.084083311 16
-15.984361 -8.7911139 -0.24517438 35
-16.360283 -7.5075946 -0.34814411 48
-10.46628 -3.9090168 -0.28202394 2
-15.957044 -8.7760897 -0.56690067 34
-16.363008 -7.5088458 -0.66740018 48
-10.366373 -3.8717031 -0.47540304 23
-15.942282 -8.767971 -0.88825965 47
-9.7938738 -4.4943256 -0.59020126 1
-10.413016 -3.8891237 -0.67401654 23
-15.947031 -8.7705832 -1.2110593 52
-9.7865229 -4.490952 -0.78034371 17
-10.426419 -3.8941295 -0.87203234 13
-15.908433 -8.7493553 -1.5293634 40
-16.31896 -7.4886317 -1.6188825 78
-10.45523 -3.9048898 -1.0718956 1
-8.5113211 -4.6810751 -0.99027407 0
-16.323202 -7.4905787 -1.9371088 49
-9.7717876 -4.48419 -1.35023 11
-9.7309847 -4.465466 -1.5340792 32
-6.9989004 -3.211736 -1.2410256 0
-6.8389068 -3.1383162 -1.3457568 0
-6.6991072 -3.0741634 -1.4496984 12
-6.6864061 -3.0683348 -1.5772985 11
-6.6966467 -3.073034 -1.7104042 6
-7.2023721 -3.3051074 -1.9794759 2
-5.2425747 -2.4057729 -1.984355 6
-3.7333343 -1.7131953 -1.9147326 0
-2.4119635 -1.086511 0.69829935 4
-3.2155621 -1.448506 0.68150848 0
-4.8651929 -2.1916108 0.74651212 5
-6.1513119 -2.7709656 0.58574432 14
-9.8449507 -4.4348297 0.55549151 31
-9.8450699 -4.4348831 0.36442769 43
-12.039828 -4.4011846 0.35650095 2
-11.505469 -6.2235813 0.28679579 5
-9.8165922 -4.4220548 0.17251882 36
-15.361001 -5.6152458 0.16556747 32
-13.717581 -7.4201646 0.06587258 23
-9.8178396 -4.4226165 -0.017854011 34
-16.800186 -6.1413431 -0.13487108 37
-16.003128 -8.6564722 -0.24452932 35
-9.8233089 -4.4250808 -0.20837598 46
-16.787802 -6.136816 -0.45119792 35
-16.000341 -8.6549644 -0.5662784 35
-9.8184023 -4.4228702 -0.3991954 53
-16.777676 -6.1331143 -0.76744372 47
-15.974993 -8.6412525 -0.88669926 60
-9.7885933 -4.4094424 -0.58801371 30
-16.777363 -6.1329999 -1.0831717 52
-15.976277 -8.6419477 -1.2086691 48
-9.7776222 -4.4045 -0.77716333 76
-16.760569 -6.1268611 -1.3981888 39
-15.965621 -8.6361837 -1.5290277 39
-9.7927179 -4.4113002 -0.96838415 55
-8.2721033 -3.0238845 -0.84589124 1
-8.6032963 -4.6537271 -0.99717069 0
-9.7684908 -4.4003868 -1.1555737 57
-9.7485733 -4.3914142 -1.3427536 46
-9.7474794 -4.3909216 -1.5318098 42
-6.9383368 -3.1254945 -1.2263877 4
-6.8032064 -3.0646229 -1.3344893 0
-6.6703053 -3.004755 -1.4388914 15
-6.6506066 -2.9958816 -1.5638818 11
-7.186347 -3.2372153 -1.9688126 1
-5.2557926 -2.3675632 -1.9830537 4
-1.3255306 -0.59710836 -0.67767674 1
-2.4230273 -1.0712097 0.69932026 5
-5.2730241 -2.3311806 1.1140918 18
-4.9455914 -2.1864243 0.75648779 5
-6.1486387 -2.718286 0.58366847 14
-9.8427896 -4.3514538 0.55364197 32
-9.8355722 -4.3482628 0.36294353 37
-12.096615 -4.3264489 0.35727933 34
-11.541576 -6.1393499 0.28662044 12
-9.8289356 -4.3453293 0.1721984 25
-15.384764 -5.502481 0.16540551 47
-13.959745 -7.4256554 0.066784896 20
-9.8118916 -4.3377938 -0.017787689 35
-16.838884 -6.0225587 -0.13484092 37
-16.049047 -8.5370245 -0.24431431 27
-9.81007 -4.3369889 -0.2074478 53
-16.845297 -6.0248518 -0.45160168 36
-16.039196 -8.5317841 -0.56553167 34
-9.8015137 -4.3332057 -0.39726907 52
-16.808794 -6.0117965 -0.76692867 71
-16.013767 -8.5182581 -0.88552898 52
-9.7972202 -4.3313079 -0.58670115 49
-16.804731 -6.0103436 -1.0822033 53
-16.018604 -8.5208302 -1.2073412 49
-9.7825918 -4.3248405 -0.77513945 46
-16.795424 -6.0070143 -1.3975639 40
-15.997373 -8.5095367 -1.5263417 31
-9.7977705 -4.3315506 -0.96586978 51
-8.1992846 -2.9325383 -0.83633095 0
-15.978273 -8.4993773 -1.8450497 35
-9.7735128 -4.3208265 -1.1525712 54
-9.7572136 -4.313621 -1.339763 46
-6.920258 -3.0594153 -1.2193872 5
-6.7632141 -2.9899871 -1.3225176 0
-6.6336856 -2.932723 -1.4265404 21
-6.6248569 -2.9288199 -1.5529808 12
-6.6426797 -2.9366994 -1.6859828 0
-7.1803775 -3.1744132 -1.9610575 1
-5.2756529 -2.3323426 -1.984355 5
-1.2865607 -0.56878275 -0.65570718 0
-2.4233503 -1.0511894 0.69727844 8
-5.2639489 -2.2833707 1.1087793 35
-5.040688 -2.1865256 0.76868027 5
-6.1601539 -2.6721222 0.58297646 14
-9.8436098 -4.2699142 0.5519979 30
-9.8216782 -4.2604008 0.36132446 36
-12.149168 -4.2498207 0.35794654 2
-16.084579 -8.4123898 0.3979719 31
-9.8296785 -4.2638712 0.17168571 26
-15.437902 -5.4002309 0.16556747 41
-14.19556 -7.4244142 0.067663424 20
-9.7905607 -4.2469029 -0.017694838 32
-16.880518 -5.9048629 -0.13484092 39
-16.079903 -8.4099436 -0.24388427 31
-9.8107576 -4.2556634 -0.20682901 50
-16.868073 -5.9005098 -0.45109698 38
-16.066484 -8.4029255 -0.56441158 37
-9.8095236 -4.2551284 -0.39638001 50
-16.857895 -5.8969498 -0.76727206 46
-16.037441 -8.3877363 -0.88357848 80
-9.7869148 -4.2453213 -0.58429486 51
-16.831205 -5.8876133 -1.0812349 53
-16.052942 -8.3958435 -1.2054821 53
-9.7869253 -4.2453256 -0.77311563 47
-16.82942 -5.8869891 -1.396939 39
-16.031668 -8.384716 -1.5239913 32
-9.794878 -4.2487755 -0.96263707 49
-8.1894894 -2.8647115 -0.83327168 1
-16.01959 -8.3783998 -1.8430213 42
-9.7778997 -4.2414107 -1.1495686 55
-9.7215519 -4.2169685 -1.3307915 27
-7.3086548 -3.1703134 -1.141482 1
-6.9450707 -3.0125997 -1.2200235 6
-6.7261262 -2.9176271 -1.3112502 9
-6.6323938 -2.8769681 -1.4219087 18
-6.6451421 -2.882498 -1.5529808 12
-6.6344228 -2.8778484 -1.6787468 0
-7.1418395 -3.0979531 -1.9445782 1
-5.2952771 -2.2969601 -1.9856561 4
-1.3337384 -0.57854271 -0.67767674 1
-2.4306302 -1.0342457 0.69727844 5
-5.2689204 -2.2419529 1.1065027 35
-5.2891202 -2.2505479 0.80414927 14
-6.1456575 -2.6150091 0.57986265 14
-9.8437738 -4.1885767 0.55035383 31
-9.8143969 -4.1760764 0.35997522 17
-12.155841 -4.1571364 0.35727933 2
-16.142916 -8.2998934 0.3979719 27
-9.8297653 -4.1826158 0.17117302 26
-15.456305 -5.2858515 0.16536501 55
-14.446254 -7.4275532 0.068609528 22
-9.8126097 -4.1753163 -0.017681573 36
-16.925114 -5.7881651 -0.13487108 41
-16.134665 -8.2956514 -0.24383052 31
-9.8107891 -4.1745415 -0.20621023 36
-16.893721 -5.7774291 -0.45069322 39
-16.106977 -8.281415 -0.56378925 37
-9.7948542 -4.1677608 -0.39460185 29
-16.88353 -5.7739434 -0.76658529 50
-16.102716 -8.2792244 -0.88396859 43
-9.7905884 -4.165946 -0.58276355 50
-16.875675 -5.7712574 -1.081477 53
-16.089869 -8.2726192 -1.2038885 48
-9.7832851 -4.1628385 -0.77051353 51
-16.866337 -5.7680635 -1.3966266 42
-16.086267 -8.2707672 -1.5236557 35
-9.7546511 -4.1506548 -0.95581239 43
-8.1678476 -2.7932956 -0.8290652 1
-16.059998 -8.2572603 -1.8409929 46
-9.7596998 -4.1528029 -1.1439923 43
-9.7397995 -4.1443348 -1.3292961 27
-7.3415399 -3.1238632 -1.1431841 0
-6.9732008 -2.967133 -1.2212964 6
-6.7173462 -2.8582654 -1.3056165 10
-6.6414828 -2.8259854 -1.419593 13
-6.6435108 -2.8268483 -1.5479496 12
-6.6077437 -2.8116291 -1.6669884 0
-5.3111839 -2.2599363 -1.9856561 5
-1.3177289 -0.56070048 -0.66753691 1
-2.4342222 -1.0157621 0.69625753 5
-5.2808194 -2.2036016 1.1057436 34
-5.3449183 -2.2303491 0.81024551 20
-6.1527305 -2.5674365 0.5788247 16
-9.8322239 -4.1028299 0.5480932 16
-9.8396225 -4.1059175 0.3598403 40
-12.176983 -4.0696363 0.35705695 2
-16.18619 -8.1797771 0.39762118 30
-9.8328886 -4.1031075 0.17072442 29
-15.489037 -5.176549 0.16532452 45
-14.697677 -7.4275494 0.069555633 22
-9.8230629 -4.0990076 -0.017648412 39
-16.965111 -5.6698642 -0.13487108 42
-16.1672 -8.1701803 -0.24345423 32
-9.8249311 -4.0997868 -0.20590083 52
-16.945021 -5.6631494 -0.45099604 39
-16.146557 -8.159749 -0.56316698 39
-9.8237114 -4.0992785 -0.39460185 54
-16.931007 -5.6584663 -0.76692867 63
-16.138729 -8.1557922 -0.88279825 44
-9.7973175 -4.0882645 -0.58145106 50
-16.904196 -5.6495056 -1.0807507 54
-16.125856 -8.1492882 -1.2022951 47
-9.7900181 -4.0852184 -0.76877874 53
-16.902411 -5.6489091 -1.3963141 43
-16.108042 -8.1402845 -1.520298 39
-9.7907438 -4.0855212 -0.95653081 63
-8.1569386 -2.7261083 -0.82600588 1
-16.110147 -8.1413488 -1.8401815 42
-9.7701025 -4.0769081 -1.1418476 61
-9.7611694 -4.0731802 -1.3282993 51
-7.2096939 -3.0084903 -1.1193558 4
-6.9500117 -2.9001291 -1.2136593 6
-6.7262354 -2.8067505 -1.3035039 10
-6.6248293 -2.7644355 -1.4118736 15
-6.641427 -2.7713616 -1.5429182 11
-6.6092324 -2.7579272 -1.6624658 2
-6.6686687 -2.7827291 -1.8049873 0
-5.3128686 -2.2169755 -1.9804513 7
-1.4420618 -0.60174942 -0.72837573 3
-2.4484131 -1.0016721 0.69829935 5
-5.2706304 -2.1562715 1.1004312 37
-5.3456926 -2.1869802 0.8080287 19
-6.1557517 -2.5183842 0.5774408 15
-9.8384428 -4.0250125 0.54686016 27
-9.8495474 -4.0295553 0.3591657 39
-12.235506 -3.9944532 0.35794654 2
-16.203503 -8.0470104 0.39665672 32
-9.8390837 -4.0252748 0.17033991 29
-15.532402 -5.0707717 0.16540551 60
-14.946211 -7.4226122 0.070484847 18
-9.8255253 -4.0197277 -0.017601985 39
-17.000479 -5.5500455 -0.13484092 41
-16.205935 -8.0482178 -0.24318546 33
-9.8162975 -4.0159526 -0.20512736 57
-16.999348 -5.5496769 -0.4513998 38
-16.192389 -8.0414915 -0.56279361 42
-9.8076954 -4.0124331 -0.3928237 57
-16.973898 -5.541368 -0.76710033 50
-16.18454 -8.0375929 -0.88221312 46
-9.803441 -4.0106926 -0.5801385 49
-16.962202 -5.53755 -1.0819613 53
-16.168058 -8.0294085 -1.2012328 52
-9.7924528 -4.0061975 -0.76675493 56
-16.949018 -5.533246 -1.396939 41
-16.1502 -8.0205402 -1.518955 39
-9.7858429 -4.0034933 -0.95329803 72
-8.1417055 -2.6579745 -0.82256418 1
-16.152338 -8.0216007 -1.8385588 40
-9.7762413 -3.9995651 -1.1392739 60
-9.7673273 -3.9959185 -1.3253088 52
-6.9371943 -2.8380806 -1.2079315 7
-6.7092223 -2.7448149 -1.2964617 8
-6.6185393 -2.7077155 -1.4064699 16
-6.6352739 -2.7145617 -1.5370485 30
-6.5994744 -2.6999159 -1.6552299 4
-6.6663823 -2.7272885 -1.799171 0
-5.3317175 -2.1812627 -1.9817525 8
-1.5032715 -0.61500448 -0.75710517 9
-1.8235614 -0.73121887 0.51862001 2
-5.2855558 -2.1194229 1.1004312 32
-5.3498001 -2.1451838 0.80636609 21
-6.1620874 -2.4708982 0.57640284 15
-9.8403492 -3.945822 0.5454216 29
-9.8292027 -3.9413524 0.35741168 41
-12.255474 -3.9065073 0.35772413 2
-16.277256 -7.942461 0.39709511 35
-9.8261118 -3.9401133 0.16963497 31
-15.555992 -4.9585676 0.16528404 164
-15.22414 -7.4285946 0.071549214 15
-9.8347855 -3.9435909 -0.017568825 38
-17.015944 -5.4239359 -0.13465996 41
-16.232969 -7.9208512 -0.24275543 33
-9.8069763 -3.9324398 -0.20435387 58
-17.030058 -5.4284353 -0.45119792 37
-16.226576 -7.9177313 -0.56204689 36
-9.8094978 -3.9334512 -0.39178646 58
-17.000748 -5.4190922 -0.76658529 47
-16.204351 -7.9068871 -0.88026261 40
-9.8052521 -3.9317484 -0.5786072 48
-16.996643 -5.4177837 -1.0817192 54
-16.216547 -7.912838 -1.2007016 53
-9.8053713 -3.9317963 -0.76559842 53
-16.983435 -5.4135737 -1.3966266 40
-16.191473 -7.9006028 -1.517612 36
-9.7987633 -3.9291468 -0.95186126 63
-8.1562691 -2.5998607 -0.82218182 1
-16.193642 -7.9016609 -1.836936 38
-9.7780876 -3.9208562 -1.1362712 60
-7.5074019 -3.0103476 -1.0157876 5
-7.184845 -2.8810074 -1.1091437 0
-6.9128547 -2.7719438 -1.2002945 8
-6.6916752 -2.6832545 -1.2894195 5
-6.6154242 -2.652679 -1.4018384 16
-6.6286526 -2.6579833 -1.5311786 29
-6.5783815 -2.6378255 -1.6452804 6
-6.6276283 -2.6575725 -1.7836609 0
-5.3433051 -2.1425796 -1.9804513 8
-1.5243535 -0.61124128 -0.76555502 31
-1.8034244 -0.70857 0.51147366 5
-5.2782912 -2.073854 1.0958778 43
-5.346211 -2.1005399 0.80359507 22
-6.1569333 -2.4190748 0.57432699 14
-9.86022 -3.8741055 0.54501057 23
-9.9011288 -3.8901787 0.35903075 18
-12.263359 -3.8149145 0.35716814 2
-16.285425 -7.8061681 0.39595529 39
-9.9389973 -3.9050572 0.17110893 14
-15.605507 -4.8545976 0.165446 66
-15.520902 -7.4397058 0.072698057 16
-9.9774885 -3.9201803 -0.017774424 16
-17.049576 -5.303822 -0.1346298 39
-16.28426 -7.8056097 -0.24270168 31
-9.8304691 -3.8624163 -0.20427652 49
-17.052267 -5.3046594 -0.45079416 36
-16.259819 -7.7938943 -0.56130016 41
-9.8888054 -3.8853366 -0.39386097 26
-17.045797 -5.3026466 -0.76692867 51
-16.244743 -7.7866673 -0.87948239 42
-9.9179621 -3.8967922 -0.58363861 23
-17.030239 -5.2978067 -1.081477 54
-16.224602 -7.7770133 -1.1972491 48
-9.9551172 -3.9113908 -0.77513945 21
-17.020815 -5.2948751 -1.3966266 44
-16.228258 -7.7787662 -1.5159333 37
-9.8222475 -3.8591862 -0.95150208 53
-8.1476078 -2.5345769 -0.81950492 1
-16.219698 -7.774663 -1.8336905 36
-9.8644457 -3.8757656 -1.1431344 26
-7.1863565 -2.8235376 -1.1063071 0
-6.917336 -2.717839 -1.1977488 7
-6.6919212 -2.6292727 -1.2858984 3
-6.6155176 -2.5992537 -1.3979787 17
-6.6215658 -2.60163 -1.5253088 30
-6.5785046 -2.5847111 -1.6407579 11
-6.617125 -2.5998852 -1.7759058 0
-5.3651738 -2.1079905 -1.9830537 8
-1.521835 -0.59793282 -0.76217508 9
-1.8153017 -0.69937527 0.51351547 7
-5.2809343 -2.0345683 1.093601 33
-5.3452373 -2.0593419 0.80137825 20
-6.1579666 -2.3724597 0.57294303 15
-10.031074 -3.8646388 0.55302542 17
-10.116962 -3.8977289 0.36591184 18
-12.326649 -3.74512 0.35828012 1
-16.325987 -7.6928725 0.39569226 38
-10.143816 -3.9080746 0.17418505 14
-15.633533 -4.7498279 0.16540551 11
-15.75806 -7.4252625 0.073576584 15
-10.178697 -3.9215131 -0.018086141 14
-17.111168 -5.1987677 -0.13484092 37
-16.313963 -7.6872063 -0.24237914 32
-10.031265 -3.8647125 -0.20791189 22
-17.087074 -5.1914473 -0.45079416 38
-16.303921 -7.6824746 -0.56105125 37
-10.093394 -3.8886487 -0.40097356 25
-17.065296 -5.1848302 -0.76624191 57
-16.281572 -7.6719437 -0.87870222 44
-10.129935 -3.9027267 -0.59457636 22
-17.065002 -5.184741 -1.081477 53
-16.283045 -7.6726379 -1.1977801 51
-10.170701 -3.9184325 -0.78988475 21
-17.055557 -5.1818719 -1.3966266 41
-16.272282 -7.6675658 -1.5152618 38
-10.014912 -3.8584123 -0.96766579 39
-8.1451902 -2.4746964 -0.81759286 1
-16.260107 -7.661829 -1.8324735 40
-7.9045229 -3.0453496 -0.91364962 2
-7.4736166 -2.8793356 -1.0058191 0
-7.1605854 -2.7587352 -1.0994991 0
-6.8983579 -2.6577077 -1.1913846 7
-6.6945133 -2.5791731 -1.2830815 1
-6.599648 -2.5426247 -1.3910313 15
-6.6350241 -2.5562539 -1.5244703 24
-6.5809569 -2.5354238 -1.6371399 13
-6.6161146 -2.5489688 -1.7710589 1
-5.382565 -2.0737231 -1.984355 7
-1.4716376 -0.56697303 -0.73513561 5
-1.82014 -0.68668503 0.51351547 7
-5.2839861 -1.9934916 1.0913242 30
-5.3520708 -2.0191782 0.80026984 20
-6.1482797 -2.3195641 0.57052118 12
-10.259638 -3.8706582 0.56412292 15
-10.342168 -3.901794 0.37306279 15
-12.310322 -3.6464808 0.35705695 1
-16.361149 -7.570312 0.39525387 36
-10.350471 -3.9049265 0.17726117 14
-15.654808 -4.6371617 0.16528404 4
-16.364935 -7.5720639 0.076161474 23
-10.407922 -3.9266012 -0.018444281 16
-17.127871 -5.0735025 -0.13469012 44
-16.356342 -7.5680885 -0.24221788 33
-10.248835 -3.8665822 -0.21185665 23
-17.119068 -5.0708952 -0.45069322 38
-16.331757 -7.5567126 -0.56018001 35
-10.311034 -3.8900483 -0.40853071 23
-17.112574 -5.0689712 -0.76675695 56
-16.32023 -7.5513792 -0.877922 43
-10.343781 -3.9024026 -0.60551411 22
-17.096954 -5.0643449 -1.0812349 45
-16.318102 -7.5503941 -1.1964523 49
-10.380713 -3.9163358 -0.80405182 21
-17.095142 -5.063808 -1.396939 43
-16.314562 -7.5487561 -1.5142545 37
-10.239157 -3.8629313 -0.98670298 38
-8.1546326 -2.4155104 -0.81682807 1
-9.7908087 -4.5302124 -1.0998087 0
-7.9032664 -2.9816687 -0.91107595 1
-7.4861093 -2.8242879 -1.0048223 0
-7.1611471 -2.7016892 -1.0966624 0
-6.9056597 -2.6053011 -1.1894753 7
-6.6865678 -2.5226443 -1.278152 0
-6.6062222 -2.4923322 -1.3887154 19
-6.6380711 -2.5043478 -1.5211161 23
-6.5766239 -2.4811659 -1.6317129 13
-6.604701 -2.4917586 -1.7633039 2
-5.3969111 -2.0360951 -1.984355 6
-1.5060889 -0.56820279 -0.75034529 5
-1.8212615 -0.67262149 0.51249456 7
-5.2830377 -1.9511116 1.0882885 31
-5.3548884 -1.9776473 0.79860723 17
-6.1643233 -2.2765846 0.57052118 13
-10.380094 -3.8335369 0.56926066 18
-13.541779 -5.0011988 0.48720786 19
-12.34316 -3.5626729 0.35727933 0
-9.8051968 -4.4540267 0.23611772 1
-16.793058 -6.2019491 0.2868478 30
-15.706012 -4.5333109 0.16548648 2
-9.8256741 -4.4633288 0.045582 25
-16.78018 -6.1971931 -0.029659413 34
-17.170555 -4.9560299 -0.13475044 37
-9.795743 -4.4497323 -0.14459966 33
-10.440647 -3.8559005 -0.21525997 15
-17.17326 -4.9568105 -0.45119792 37
-9.7809639 -4.4430189 -0.33441541 42
-16.768684 -6.1929479 -0.66265845 43
-17.147541 -4.9493871 -0.76675695 43
-9.7886105 -4.4464922 -0.52488071 9
-16.770077 -6.1934619 -0.97914779 40
-17.139563 -4.947084 -1.0817192 51
-9.7822771 -4.4436154 -0.71494997 37
-16.740053 -6.1823735 -1.2932484 40
-17.11475 -4.9399223 -1.3956892 36
-9.7729416 -4.4393744 -0.90418786 43
-10.44152 -3.8562229 -1.0035851 14
-8.1712961 -2.3585253 -0.81682807 1
-9.7316198 -4.4206042 -1.0896666 32
-7.8753905 -2.9085095 -0.9054997 0
-7.4646902 -2.7568314 -0.99933964 0
-7.1686907 -2.6475139 -1.0949603 0
-6.9125662 -2.552923 -1.1875659 7
-6.6781602 -2.4663532 -1.2732226 0
-6.6013699 -2.437993 -1.3840839 27
-6.6443858 -2.4538796 -1.5186005 30
-6.6010957 -2.4378917 -1.6335219 13
-6.6292167 -2.4482772 -1.7652427 1
-5.4038978 -1.9957472 -1.9817525 5
-1.503217 -0.55516243 -0.74696535 5
-1.8477367 -0.66777742 0.51862001 8
-5.2854495 -1.9101769 1.0860118 30
-5.3424859 -1.9307898 0.79472786 18
-6.1650763 -2.2280765 0.56913728 12
-10.451687 -3.7772701 0.57172674 17
-13.997454 -5.0587206 0.50231928 17
-16.952223 -4.7650576 0.48971623 31
-9.8324003 -4.3838363 0.23603004 31
-16.824661 -6.080482 0.28665555 26
-15.741128 -4.424634 0.16552699 3
-9.8310223 -4.3832216 0.045463737 63
-16.81175 -6.0758157 -0.029639516 35
-17.208588 -4.8371186 -0.1347806 35
-9.8083038 -4.3730927 -0.14433089 38
-16.812393 -6.0760474 -0.34574634 45
-17.215145 -4.8389616 -0.4513998 35
-9.7825317 -4.3616018 -0.33341974 44
-16.819031 -6.0784469 -0.66295481 47
-17.189371 -4.831717 -0.76710033 46
-9.7829247 -4.3617773 -0.5229302 69
-16.794127 -6.0694461 -0.97805405 41
-17.173683 -4.8273072 -1.0817192 49
-9.7766094 -4.3589616 -0.7122941 53
-16.794064 -6.0694237 -1.2941158 38
-17.156498 -4.8224764 -1.3963141 39
-9.7636509 -4.3531837 -0.90049458 41
-16.758841 -6.0566936 -1.60667 76
-8.1798964 -2.2992666 -0.81606323 1
-9.7622442 -4.3525567 -1.0896666 49
-7.8768039 -2.8466997 -0.903355 0
-7.4725571 -2.700604 -0.99784434 0
-7.1572084 -2.5866361 -1.0904217 0
-6.9190784 -2.5005751 -1.1856567 7
-6.6841073 -2.4156559 -1.2711099 0
-6.6071563 -2.3878455 -1.381768 22
-6.6466427 -2.4021158 -1.5152464 31
-6.5776458 -2.3771803 -1.6235725 23
-6.6315479 -2.3966608 -1.7613652 2
-5.4105849 -1.9554012 -1.9791501 5
-1.5070561 -0.54465449 -0.74696535 5
-1.8632927 -0.65872884 0.52168268 8
-5.2838449 -1.8679948 1.0829761 41
-5.3670392 -1.8974065 0.79639047 20
-6.169209 -2.1809969 0.56809932 12
-10.474036 -3.7028801 0.57152128 16
-15.246085 -5.3899398 0.54576457 21
-17.012074 -4.6539779 0.49049461 36
-9.8371191 -4.3038654 0.23541629 40
-15.41118 -5.4483056 0.26191843 19
-15.787066 -4.3188539 0.16568895 6
-9.8320665 -4.3016548 0.04532858 47
-16.872614 -5.9649658 -0.029672677 33
-17.253511 -4.7200284 -0.13487108 41
-9.8056164 -4.2900829 -0.14384711 38
-16.854401 -5.9585271 -0.34574634 44
-17.22151 -4.7112732 -0.45069322 37
-9.7834396 -4.2803802 -0.3324241 43
-16.849751 -5.956883 -0.66251028 47
-17.222683 -4.7115946 -0.76710033 42
-9.7911758 -4.2837648 -0.52175993 46
-16.83609 -5.9520531 -0.97805405 41
-17.214668 -4.7094016 -1.0822033 56
-9.7738924 -4.2762032 -0.70990384 49
-16.828505 -5.9493713 -1.2935375 40
-17.1859 -4.7015314 -1.3960017 38
-9.7609386 -4.2705359 -0.8974728 43
-16.793203 -5.936892 -1.6059517 69
-8.2226334 -2.2494588 -0.81874013 1
-9.7559357 -4.2683468 -1.0856097 53
-7.8627386 -2.7797096 -0.89949447 0
-7.4949708 -2.6496928 -0.99834275 0
-7.1638927 -2.5326469 -1.0887196 0
-6.9177513 -2.4456286 -1.1824746 8
-6.6822467 -2.362371 -1.2675889 0
-6.6125646 -2.3377361 -1.3794522 22
-6.6485004 -2.3504405 -1.5118922 24
-6.5830603 -2.3273056 -1.620859 16
-6.6042123 -2.3347833 -1.7497325 0
-5.42767 -1.9188411 -1.9804513 6
-1.4971491 -0.52928627 -0.74020553 6
-1.878812 -0.64949536 0.5247454 9
-5.2781987 -1.8246454 1.0791816 40
-5.3651795 -1.8547142 0.79417366 20
-6.1767526 -2.1352706 0.56740737 10
-10.450551 -3.6127 0.56884962 16
-16.651098 -5.7561965 0.59460676 31
-17.048014 -4.5361266 0.4906058 34
-9.8522263 -4.2287755 0.23506558 44
-16.90036 -5.8423648 0.28652737 29
-15.816833 -4.2085342 0.16568895 4
-9.8214254 -4.2155552 0.045142736 47
-16.902506 -5.8431072 -0.02965278 34
-17.286043 -4.5994611 -0.13487108 37
-9.7985744 -4.2057471 -0.14330956 19
-16.888029 -5.8381023 -0.34559163 46
-17.284893 -4.5991549 -0.45150074 38
-9.7836924 -4.1993594 -0.33142844 33
-16.88715 -5.8377981 -0.6623621 48
-17.262882 -4.5932984 -0.76744372 54
-9.7951441 -4.2042747 -0.52039456 48
-16.873457 -5.833065 -0.9778353 43
-17.247126 -4.5891061 -1.0822033 53
-9.7741671 -4.195271 -0.70777917 40
-16.869629 -5.8317413 -1.2935375 43
-17.237572 -4.5865641 -1.3975639 40
-9.7575502 -4.1881385 -0.89445096 21
-16.864363 -5.8299212 -1.6088252 42
-8.2573757 -2.197118 -0.82065219 1
-9.7635555 -4.1907163 -1.0831757 48
-7.8781948 -2.7234502 -0.89906555 0
-7.5095353 -2.5960066 -0.99784434 0
-7.1926265 -2.4864528 -1.0904217 0
-6.9271917 -2.3946936 -1.1812017 8
-6.7060194 -2.3182354 -1.2689972 0
-6.6175957 -2.2876678 -1.3771363 17
-6.6536579 -2.3001344 -1.5093765 17
-6.5660048 -2.2698331 -1.6127185 16
-6.6093478 -2.2848165 -1.7468244 0
-5.4516587 -1.8846096 -1.984355 10
-1.5042343 -0.52000588 -0.7418955 6
-1.912838 -0.64559978 0.53291267 7
-5.2802687 -1.7821375 1.0769048 34
-5.3598638 -1.8090016 0.79140264 19
-6.1733599 -2.0835638 0.56567746 10
-10.507031 -3.5462162 0.5704937 19
-16.696632 -5.635262 0.5947417 36
-12.450562 -3.2152979 0.35761294 1
-9.8387251 -4.1378379 0.23401344 43
-16.942732 -5.7183223 0.28652737 30
-15.843385 -4.0914783 0.16564845 4
-9.8262529 -4.1325922 0.045024473 51
-16.941093 -5.7177696 -0.029646149 32
-17.334785 -4.4766254 -0.13499171 41
-9.8033323 -4.1229525 -0.14293328 38
-16.915213 -5.7090344 -0.34528226 47
-17.325886 -4.4743271 -0.45170262 37
-9.7921 -4.1182289 -0.33068171 45
-16.929489 -5.7138524 -0.6623621 52
-17.299957 -4.4676313 -0.76761538 49
-9.7962379 -4.1199689 -0.51883417 47
-16.911978 -5.7079425 -0.97761655 43
-17.303497 -4.4685454 -1.083656 53
-9.7899418 -4.117321 -0.70671684 52
-16.896803 -5.7028208 -1.292381 40
-17.274591 -4.4610806 -1.3978764 39
-9.7806396 -4.113409 -0.89377946 43
-16.902872 -5.7048693 -1.608466 32
-8.2809696 -2.1385207 -0.82141697 1
-9.7646675 -4.1066918 -1.0799302 50
-7.8564978 -2.6516378 -0.89434719 0
-7.4907589 -2.5281978 -0.99286014 0
-7.1919012 -2.4273305 -1.087585 0
-6.9221096 -2.3362734 -1.1773832 9
-6.6929865 -2.2589424 -1.2633635 1
-6.6304684 -2.2378418 -1.3763645 24
-6.6592226 -2.2475467 -1.5068609 23
-6.6046176 -2.2291172 -1.6181455 21
-6.6259189 -2.2363064 -1.7468244 0
-5.4545755 -1.8409677 -1.9804513 8
-1.5114409 -0.51012468 -0.74358547 6
-1.9540284 -0.64434159 0.5431217 8
-5.2739325 -1.7390813 1.0731102 48
-5.3685999 -1.7702979 0.79084843 20
-6.1801863 -2.0379188 0.56498551 7
-10.520151 -3.4690239 0.56987721 16
-16.735567 -5.5185599 0.5947417 32
-12.476583 -3.1292708 0.35772413 0
-9.845191 -4.0599027 0.23348737 48
-16.986038 -5.6011529 0.28659144 30
-15.844406 -3.9739597 0.16536501 8
-9.8289785 -4.0532169 0.04490621 53
-16.988195 -5.6018639 -0.029659413 34
-17.365616 -4.3554969 -0.13499171 37
-9.8022966 -4.0422139 -0.14250325 37
-16.962254 -5.5933099 -0.34543693 47
-17.368338 -4.3561792 -0.45200545 36
-9.7873478 -4.0360494 -0.32956159 46
-16.949984 -5.5892639 -0.66162121 52
-17.338476 -4.34869 -0.76795876 51
-9.7952137 -4.0392933 -0.51727372 44
-16.955208 -5.5909863 -0.9778353 44
-17.342016 -4.3495779 -1.0841402 53
-9.7815495 -4.0336585 -0.70406103 50
-16.928627 -5.5822215 -1.2918028 41
-17.313049 -4.3423128 -1.3985013 42
-9.7759552 -4.0313516 -0.89075768 46
-16.919586 -5.5792403 -1.6063108 27
-8.3265944 -2.0884058 -0.82447624 1
-9.7599907 -4.0247679 -1.076279 52
-7.8748183 -2.5967245 -0.89434719 0
-7.4667659 -2.4621689 -0.98737746 0
-7.1748285 -2.3659024 -1.082479 0
-6.9457517 -2.2903643 -1.1786561 9
-6.7085934 -2.2121613 -1.2633635 0
-6.6459298 -2.1914978 -1.3763645 19
-6.656179 -2.1948776 -1.5026681 13
-6.6015172 -2.1768529 -1.613623 21
-6.6487403 -2.1924248 -1.7487632 0
-5.4708867 -1.8040271 -1.9817525 9
-1.5115222 -0.49842504 -0.7418955 6
-1.9768859 -0.6366117 0.54822624 9
-5.2709923 -1.6974046 1.0700746 48
-5.3619747 -1.7267035 0.78807741 19
-6.1752973 -1.9886159 0.56325561 8
-10.540311 -3.3942704 0.56967169 15
-16.777493 -5.4028144 0.59487659 33
-17.125189 -4.1683369 0.49016103 30
-9.8436317 -3.9790862 0.23278594 43
-17.017113 -5.479979 0.28646329 30
-15.898967 -3.8698695 0.16564845 5
-9.8384924 -3.9770086 0.044821739 51
-17.004045 -5.475771 -0.029619619 30
-17.403374 -4.2360477 -0.13505203 41
-9.815443 -3.9676914 -0.14228822 37
-16.993277 -5.4723029 -0.34528226 43
-17.40221 -4.2357645 -0.45210639 37
-9.7856293 -3.9556401 -0.32856593 46
-17.000006 -5.4744701 -0.66206574 51
-17.364532 -4.2265935 -0.7677871 45
-9.8046513 -3.9633293 -0.51629847 45
-16.993828 -5.4724803 -0.9778353 39
-17.383598 -4.2312346 -1.0848664 55
-9.7761669 -3.9518151 -0.70167077 53
-16.989971 -5.4712386 -1.2935375 39
-17.354568 -4.2241683 -1.3994385 43
-9.7669058 -3.9480712 -0.88740015 45
-16.980877 -5.4683104 -1.608466 17
-8.3641834 -2.0358741 -0.82677072 1
-9.762023 -3.9460976 -1.0734392 52
-7.8624711 -2.5319324 -0.89091563 0
-7.4573283 -2.4014652 -0.98388851 0
-7.198709 -2.3181825 -1.0836136 0
-6.9540544 -2.239397 -1.1773832 8
-6.7088823 -2.1604447 -1.2605467 0
-6.6498594 -2.141438 -1.3740486 22
-6.660172 -2.1447587 -1.5001526 14
-6.6202621 -2.1319067 -1.6145275 15
-6.6454153 -2.1400068 -1.7439163 0
-5.4761477 -1.7634704 -1.9791501 8
-1.5218669 -0.49008307 -0.74527544 6
-2.0034189 -0.62975442 0.55435169 7
-5.2677264 -1.6558565 1.0670389 37
-5.3701186 -1.6880424 0.78752321 17
-6.2004337 -1.9490435 0.56429356 5
-10.575182 -3.3242011 0.57028818 15
-16.807173 -5.2831645 0.59460676 31
-17.185005 -4.0560269 0.4910506 32
-9.8488636 -3.9014308 0.23225987 45
-17.062586 -5.363451 0.28659144 30
-15.948953 -3.7642922 0.16589139 5
-9.8474236 -3.9008605 0.044737265 48
-17.045671 -5.3581343 -0.029626252 32
-17.436415 -4.115365 -0.13508219 38
-9.8354664 -3.8961239 -0.14218071 26
-17.027246 -5.3523426 -0.34520489 46
-17.427465 -4.1132526 -0.45200545 37
-9.8761969 -3.9122584 -0.33068171 19
-17.041622 -5.3568611 -0.66221392 48
-17.405285 -4.1080174 -0.76830214 47
-9.7986526 -3.881541 -0.51454306 46
-17.023996 -5.3513207 -0.9773978 44
-17.412714 -4.1097708 -1.0848664 51
-9.8035183 -3.8834682 -0.70167077 42
-17.008722 -5.3465195 -1.2920918 38
-17.383636 -4.1029081 -1.3994385 36
-9.8424044 -3.8988721 -0.89176494 19
-8.4675131 -2.6616769 -0.80028188 0
-8.5138254 -2.0094438 -0.84015507 1
-9.8707275 -3.9100916 -1.0823642 21
-7.8799548 -2.476984 -0.89091563 0
-7.4776974 -2.3505383 -0.98438692 0
-7.2071614 -2.2654982 -1.082479 0
-6.9657507 -2.1896131 -1.1767467 9
-6.705019 -2.1076548 -1.2570256 4
-6.6571584 -2.0926104 -1.3725047 26
-6.6637883 -2.0946944 -1.4976369 11
-6.6238322 -2.0821345 -1.611814 13
-6.6564898 -2.0924003 -1.7429469 0
-5.4883246 -1.7251993 -1.9791501 9
-1.5356269 -0.48270878 -0.75034529 6
-2.0336494 -0.62369049 0.56149805 7
-5.2791581 -1.6190404 1.0670389 21
-5.374198 -1.6481878 0.7864148 19
-6.2215095 -1.9080458 0.56498551 5
-10.594312 -3.24912 0.57008266 14
-16.85129 -5.1680436 0.59487659 31
-17.216801 -3.9368451 0.49116179 32
-9.9541512 -3.8629606 0.23410112 17
-17.095789 -5.2430277 0.28652737 31
-15.967046 -3.6510725 0.16581042 5
-10.004931 -3.8826671 0.04532858 19
-17.090311 -5.2413478 -0.029639516 32
-17.476418 -3.9962101 -0.13517267 49
-10.063777 -3.9055035 -0.14508346 14
-17.079493 -5.23803 -0.3455143 46
-17.479145 -3.996834 -0.45261106 38
-10.082176 -3.9126437 -0.33665562 19
-17.070963 -5.2354136 -0.66191757 45
-17.449123 -3.9899688 -0.76898891 45
-9.9446993 -3.8592925 -0.52078468 19
-17.053303 -5.2299981 -0.97696024 42
-17.456549 -3.9916668 -1.0858349 51
-9.9978275 -3.87991 -0.71362203 20
-17.057076 -5.2311549 -1.2929592 41
-17.427406 -3.9850028 -1.4006883 37
-10.051462 -3.9007244 -0.90821695 19
-8.4782705 -2.6001613 -0.79956347 0
-17.400743 -3.9789064 -1.7143446 35
-10.079565 -3.9116304 -1.1022427 19
-7.8932528 -2.4207449 -0.89048666 0
-7.4635696 -2.2889674 -0.98039955 0
-7.1925178 -2.2058399 -1.0779402 0
-6.9808669 -2.1409297 -1.1767467 8
-6.7383919 -2.066566 -1.2605467 0
-6.6791096 -2.0483851 -1.3740486 16
-6.6857281 -2.0504148 -1.4993141 11
-6.6493821 -2.039268 -1.6145275 17
-6.6635151 -2.0436025 -1.7410082 0
-5.5002351 -1.6868415 -1.9791501 9
-1.5320272 -0.46985027 -0.74696535 6
-2.1120615 -0.63164055 0.58191615 6
-5.3817782 -1.6094936 0.7858606 19
-6.2232242 -1.8611395 0.56394756 4
-10.624392 -3.1773679 0.5704937 12
-16.890789 -5.0514188 0.59501153 33
-17.255575 -3.8191538 0.4914954 33
-10.175261 -3.8672519 0.2386604 19
-17.143471 -5.126987 0.28671962 28
-15.999955 -3.5412488 0.16589139 7
-10.226223 -3.8866208 0.046207108 20
-17.13032 -5.123054 -0.029646149 33
-17.51951 -3.8775702 -0.1352933 45
-10.273994 -3.9047771 -0.14771743 16
-17.107983 -5.1163735 -0.34535959 43
-17.498814 -3.8729892 -0.45240918 36
-10.296108 -3.9131815 -0.34287846 17
-17.114754 -5.1183987 -0.66221392 47
-17.492157 -3.8715162 -0.76967567 47
-10.154396 -3.8593216 -0.5303421 19
-17.093225 -5.1119604 -0.97717899 42
-17.487888 -3.8705714 -1.086077 51
-10.207479 -3.8794968 -0.72663558 19
-17.085535 -5.1096601 -1.292381 41
-17.46648 -3.865833 -1.4016256 39
-10.261017 -3.8998446 -0.92466891 17
-8.4733162 -2.5340598 -0.79740834 0
-17.455311 -3.8633609 -1.7170215 43
-8.0272741 -3.0508788 -0.87546557 1
-7.8756685 -2.3553255 -0.88662618 0
-7.5059843 -2.2447662 -0.98388851 0
-7.2494712 -2.1680524 -1.084181 0
-6.9956431 -2.0921419 -1.1767467 8
-6.7828341 -2.0284984 -1.2661804 0
-6.6857266 -1.9994571 -1.3725047 25
-6.6961322 -2.002569 -1.4984754 12
-6.6597238 -1.9916806 -1.613623 21
-6.6664653 -1.9936967 -1.7380999 0
-5.5010056 -1.6451503 -1.9752464 6
-1.5595841 -0.46641478 -0.75879514 6
-2.157263 -0.62878489 0.59314609 5
-2.4206274 -0.70554864 0.48722541 6
-5.3776708 -1.5674483 0.78364378 21
-6.2437177 -1.819878 0.56463951 4
-10.61947 -3.0952935 0.56905514 13
-16.933317 -4.9356127 0.59528136 35
-17.297459 -3.7019415 0.4919402 34
-10.389411 -3.8658512 0.2430443 18
-17.167328 -5.0038204 0.28652737 30
-16.047756 -3.4344847 0.16613434 6
-10.429303 -3.8806949 0.047001161 20
-17.157988 -5.0010977 -0.029632883 34
-17.542244 -3.7543294 -0.13526314 43
-10.44345 -3.8859587 -0.1497601 5
-17.147125 -4.997932 -0.34543693 49
-17.544975 -3.7549143 -0.45291388 38
-16.749401 -6.2323737 -0.55632186 35
-17.13472 -4.9943161 -0.66162121 47
-17.518761 -3.7493036 -0.76967567 42
-10.375801 -3.8607869 -0.54048473 21
-17.128498 -4.9925027 -0.97717899 44
-17.530102 -3.7517309 -1.0870454 52
-10.417605 -3.8763421 -0.73964918 20
-17.132282 -4.9936051 -1.2932484 38
-17.500841 -3.7454689 -1.4022505 43
-10.441154 -3.8851047 -0.93843484 1
-8.4831514 -2.4726133 -0.79668993 0
-17.497431 -3.7447388 -1.7185512 41
-7.9961634 -2.9753349 -0.86978596 2
-7.8842845 -2.2980597 -0.88576829 0
-7.5214734 -2.1923099 -0.98388851 0
-7.2492251 -2.1129568 -1.0819116 0
-7.0214529 -2.0465672 -1.1786561 9
-6.800611 -1.9821976 -1.2668846 0
-6.7032909 -1.9538314 -1.3732767 27
-6.7137051 -1.9568669 -1.4993141 13
-6.6622443 -1.9418675 -1.6109096 14
-6.6839476 -1.9481933 -1.7390693 0
-5.5196199 -1.6088227 -1.9778489 6
