# .PCD v0.7 - Point Cloud Data file format
VERSION 0.7
FIELDS x y z intensity
SIZE 4 4 4 4
TYPE F F F F
COUNT 1 1 1 1
WIDTH 1364
HEIGHT 1
VIEWPOINT 0 0 0 1 0 0 0
POINTS 1364
DATA ascii
-5.048717 2.3919103 -1.9218966 5
-1.1991508 0.56811684 -0.61852789 0
-2.0343482 0.98125339 0.59620881 15
-5.3272533 2.5695627 1.1429306 15
-5.252162 2.5333431 0.81578755 3
-6.1879368 2.9847074 0.5964697 14
-9.1066265 4.3925161 0.52014393 2
-9.1350842 4.4062428 0.3423003 9
-10.743208 6.1826091 0.34471396 21
-12.356472 4.889781 0.29135507 27
-13.382658 6.4550295 0.23807853 0
-10.72601 6.1727118 0.12527898 23
-18.410681 7.2855911 0.083628953 47
-18.431862 8.8904772 -0.033930581 35
-10.705455 6.1608829 -0.093131013 25
-18.394306 7.2791109 -0.26586989 33
-18.367207 8.8592911 -0.39439833 42
-10.678089 6.145134 -0.31099346 25
-18.394497 7.2791862 -0.61581218 40
-18.383232 8.8670216 -0.75660425 44
-10.744385 6.1832867 -0.53257501 20
-18.32579 7.251997 -0.96218377 49
-18.397108 8.8737144 -1.1187136 41
-10.717276 6.1676855 -0.74979502 22
-18.34053 7.2578301 -1.3125122 46
-18.412422 8.8811007 -1.4814676 36
-10.697243 6.156157 -0.9670155 31
-18.371817 7.2702112 -1.6643369 42
-8.809123 4.2490177 -0.88181865 11
-7.1125336 4.0931921 -0.78814727 10
-18.371414 7.270052 -2.0142198 38
-18.332766 8.842679 -2.1953328 42
-15.93965 7.6883764 -2.2224715 1
-13.413117 6.4697218 -2.1337543 1
-11.673741 5.6307459 -2.0887415 2
-10.284904 4.9608507 -2.0422263 2
-9.247735 4.4605789 -2.0193882 3
-8.3946829 4.0491157 -1.9982468 4
-7.6646929 3.6970098 -1.9754219 5
-7.0781722 3.4141059 -1.9629964 8
-5.0421157 2.4320285 -1.9258002 6
-1.1461735 0.55284864 -0.59317839 0
-2.0448067 1.0039544 0.60131335 15
-3.2503774 1.5958629 0.69972247 3
-5.1667852 2.5367763 0.80525768 3
-6.1991434 3.0436411 0.59958351 15
-9.4665947 4.6478868 0.54254442 2
-9.1112776 4.473434 0.34257013 10
-10.568624 6.1807556 0.34048843 24
-12.444402 5.025342 0.29424843 12
-15.247208 7.4860387 0.27217215 23
-10.551453 6.1707134 0.12374032 23
-18.400167 7.4304199 0.083814792 51
-18.419615 9.0436201 -0.03402343 69
-10.537883 6.1627769 -0.092045285 22
-18.409796 7.4343081 -0.26683745 35
-18.365938 9.0172663 -0.39571324 47
-10.503759 6.1428213 -0.30715778 24
-18.409958 7.4343739 -0.61805242 33
-18.37829 9.0233307 -0.75897509 41
-10.594015 6.1956043 -0.52725273 26
-18.341396 7.4066873 -0.96569467 42
-18.388489 9.0283375 -1.1219949 42
-10.574007 6.1839032 -0.74277401 24
-18.344925 7.408112 -1.3164959 48
-18.392946 9.0305262 -1.4849371 35
-10.54385 6.1662669 -0.95701724 23
-18.353874 7.411726 -1.6673586 40
-8.6326265 4.2384272 -0.86709177 13
-6.990984 4.0884757 -0.7778222 10
-18.38294 7.4234629 -2.0211165 37
-18.349123 9.0090103 -2.2047696 39
-15.832148 7.7732315 -2.2149951 1
-13.378286 6.56844 -2.1354563 1
-11.619967 5.7051449 -2.0861957 3
-10.235884 5.0255904 -2.0394096 2
-9.2093229 4.5215721 -2.0178444 3
-8.3626995 4.1058989 -1.9974083 4
-7.649189 3.7555811 -1.9781353 4
-7.0471983 3.4600172 -1.9610575 7
-5.0216188 2.4655027 -1.924499 5
-1.116251 0.54805434 -0.57965863 0
-2.0619655 1.0303063 0.60845965 13
-3.2988813 1.6483583 0.71262407 4
-5.0532703 2.5249774 0.79029423 3
-6.2026968 3.0993135 0.60200536 15
-9.1301718 4.5620904 0.52507615 2
-9.4660482 4.7299185 0.35714185 16
-10.404909 6.1828976 0.33659652 22
-12.538432 5.1654062 0.29731718 10
-14.550584 7.2705183 0.26063672 15
-10.391207 6.1747546 0.12236363 24
-18.410721 7.584589 0.084102005 48
-18.420437 9.204175 -0.034142811 46
-10.377689 6.1667228 -0.091019876 26
-18.398129 7.5794015 -0.26742876 36
-18.377663 9.1828032 -0.39733756 44
-10.340302 6.1445065 -0.3036249 23
-18.413063 7.5855536 -0.6199193 35
-18.386364 9.18715 -0.76193869 45
-10.426825 6.1959205 -0.52107197 28
-18.344656 7.5573726 -0.96862048 40
-18.40004 9.193984 -1.1265887 38
-10.403579 6.182107 -0.73381615 25
-18.351809 7.5603194 -1.3207452 48
-18.386555 9.1872454 -1.4895631 36
-10.383986 6.1704645 -0.94639415 25
-18.368025 7.5669999 -1.6734023 36
-8.4567127 4.2255821 -0.85236484 11
-6.8630052 4.0781956 -0.76673234 11
-18.367464 7.5667686 -2.0251734 35
-18.342701 9.1653337 -2.2116325 42
-15.766842 7.8782487 -2.2134998 1
-13.317936 6.6545992 -2.1331871 1
-11.569258 5.7808332 -2.0842865 2
-10.211115 5.1022077 -2.0415223 2
-9.1669989 4.580492 -2.0155287 3
-8.3198357 4.1571884 -1.9940541 4
-7.5948997 3.7949584 -1.9708995 4
-7.0124559 3.5039275 -1.9581494 7
-5.0009003 2.4988096 -1.9231977 5
-1.1740173 0.58662349 -0.61176801 0
-2.0512753 1.0429226 0.60743874 14
-3.3012974 1.6784669 0.7156598 5
-4.9825525 2.5332613 0.78198117 4
-6.2093277 3.1569865 0.60477322 15
-10.71119 5.4458523 0.61817187 2
-9.4862528 4.8230615 0.3591657 18
-10.241686 6.1830592 0.33270457 23
-12.538935 5.2683053 0.29819396 12
-12.092997 6.1483989 0.21737884 16
-10.224575 6.1727295 0.12090596 23
-18.408951 7.7346263 0.084338531 48
-12.069573 6.1364903 -0.022450158 22
-10.221384 6.1708026 -0.090024635 23
-18.414827 7.7370954 -0.26845008 34
-18.355894 9.3326216 -0.39826575 44
-10.20815 6.1628127 -0.30100051 18
-18.396517 7.7294021 -0.62116385 37
-18.396608 9.353322 -0.76505047 45
-10.270415 6.2004037 -0.51540625 28
-18.343016 7.7069235 -0.97135115 44
-12.112052 6.1580873 -0.74420482 1
-10.243952 6.1844273 -0.72558463 28
-18.357454 7.7129903 -1.3249946 51
-12.073583 6.1385283 -0.98157346 12
-10.217755 6.168612 -0.93514615 23
-18.358847 7.7135754 -1.6774313 42
-8.2849617 4.2122931 -0.83799714 11
-6.7423329 4.0704474 -0.75640726 11
-18.376558 7.7210164 -2.0320699 38
-18.33145 9.3201933 -2.2180667 37
-11.961371 6.0814776 -1.6851708 0
-12.02875 6.1157346 -1.9334844 1
-11.50398 5.8489275 -2.0798316 2
-10.1577 5.164443 -2.0380011 2
-9.1173077 4.6354804 -2.0116689 3
-8.2871265 4.2133942 -1.9932156 4
-7.568223 3.8478847 -1.9708995 6
-7.0051217 3.561589 -1.9629964 6
-4.9732199 2.5285165 -1.9192941 5
-3.613097 1.8369941 -1.889383 0
-2.0439444 1.0572178 0.60743874 13
-3.299964 1.7068863 0.71793652 6
-4.8873363 2.527945 0.76978868 4
-6.2119136 3.2130744 0.60719508 15
-11.457056 5.9260926 0.66358942 6
-9.5091629 4.9185567 0.36132446 16
-5.7433443 3.5222855 0.18736872 23
-12.549635 5.3761868 0.29933378 11
-11.879263 6.1444764 0.21430273 17
-5.738451 3.5192847 0.068146259 24
-18.431717 7.8960347 0.08469332 48
-11.852348 6.1305547 -0.022125179 18
-5.7351718 3.5172737 -0.050727449 24
-18.411835 7.8875175 -0.26920265 37
-11.967371 6.1900496 -0.26058599 25
-5.6960125 3.4932578 -0.16866928 27
-18.404581 7.8844099 -0.62327963 35
-11.954292 6.1832848 -0.49892017 29
-5.7538962 3.5287571 -0.28998041 18
-18.347525 7.8599668 -0.97447199 41
-11.909125 6.1599226 -0.73436087 21
-5.7248197 3.5109251 -0.40721834 28
-18.343515 7.8582501 -1.3279159 49
-11.867428 6.1383553 -0.96827382 32
-5.7076135 3.5003726 -0.52459419 29
-10.002285 4.2849178 -0.91661078 2
-8.1244268 4.2023101 -0.82470697 11
-5.7056704 3.499181 -0.64283144 29
-18.380733 7.8741941 -2.0385609 36
-11.957105 6.1847401 -1.4519737 31
-11.922149 6.1666589 -1.6856692 23
-11.876737 6.1431699 -1.915897 23
-11.51548 5.9563122 -2.0893779 2
-10.107408 5.2279949 -2.0351841 2
-9.0882092 4.7008209 -2.0124409 3
-8.2436142 4.2639594 -1.9898614 3
-7.5238709 3.8916767 -1.9663769 7
-6.9628515 3.6014926 -1.9581494 5
-4.9655252 2.5683877 -1.9231977 6
-3.6098447 1.8671702 -1.8944529 1
-2.0330913 1.0696607 0.60641783 14
-3.2949185 1.7335399 0.71945435 8
-4.8169818 2.5343359 0.76147562 3
-6.1999106 3.2619298 0.60823303 15
-9.4957504 4.9959545 0.5519979 2
-9.4922838 4.9941301 0.36199906 12
-5.6575265 3.5242386 0.18536715 24
-12.555776 5.4828734 0.30038592 11
-11.680339 6.1453214 0.21148296 18
-5.6492386 3.5190761 0.067376934 27
-18.416464 8.0421276 0.08487916 48
-11.653502 6.1312022 -0.02183336 20
-5.6323924 3.5085821 -0.050033789 28
-18.403971 8.0366716 -0.26990145 36
-11.764597 6.189652 -0.25710532 29
-5.6205769 3.5012217 -0.16715521 20
-18.404049 8.036706 -0.62514645 38
-11.751645 6.1828375 -0.49225211 31
-5.6544981 3.5223522 -0.28620329 29
-18.350784 8.0134468 -0.97759277 46
-11.717376 6.1648073 -0.72517312 27
-5.6425595 3.5149152 -0.40310258 25
-18.350388 8.0132732 -1.3324308 50
-11.69365 6.1523252 -0.95757627 24
-5.632267 3.5085039 -0.51990753 23
-9.7785292 4.2701015 -0.89881581 6
-7.9679675 4.1921492 -0.81177604 10
-5.6202717 3.5010316 -0.63594806 30
-18.361782 8.0182486 -2.0426178 45
-11.755258 6.1847382 -1.4326712 32
-11.724263 6.1684313 -1.6637385 26
-11.689889 6.1503463 -1.8926362 27
-11.484101 6.0420756 -2.0912871 3
-10.067179 5.296597 -2.0344801 2
-9.0551701 4.764154 -2.0124409 3
-8.213645 4.3214064 -1.9898614 4
-7.5172086 3.9549935 -1.9718039 6
-6.9375386 3.6500144 -1.9581494 7
-4.9508209 2.6047521 -1.924499 6
-3.5774705 1.8821976 -1.8843131 2
-2.0426242 1.0929514 0.61152238 11
-3.2931242 1.7620592 0.72173113 11
-4.746779 2.5398693 0.75316256 3
-6.2121239 3.3239346 0.61169285 15
-8.9640102 4.7963924 0.52302104 0
-11.519227 6.1636181 0.44092917 24
-5.5753417 3.527308 0.18347679 28
-12.542767 5.5817771 0.30099967 9
-11.47141 6.1380324 0.20847093 17
-5.5704508 3.5242138 0.066729076 25
-18.411034 8.1932707 0.085115686 48
-11.458759 6.1312633 -0.021548174 18
-5.5536771 3.5136015 -0.049551245 25
-18.398573 8.187726 -0.27065402 37
-11.576523 6.1942754 -0.25393406 27
-5.5216532 3.4933414 -0.16493455 27
-18.40959 8.1926289 -0.62726223 35
-11.556643 6.1836386 -0.48588037 28
-5.5554709 3.5147367 -0.28242615 31
-18.352797 8.1673546 -0.98071361 44
-11.522622 6.1654348 -0.71576667 26
-5.5504007 3.511529 -0.3982605 23
-18.352339 8.1671505 -1.3366802 54
-11.495637 6.1509957 -0.94485486 23
-5.5334964 3.500834 -0.51303375 26
-9.5736847 4.2604775 -0.88269955 10
-7.8085399 4.1781325 -0.79848588 9
-5.5283957 3.4976072 -0.62829983 30
-18.367161 8.1737471 -2.0495143 34
-11.571531 6.1916046 -1.4155135 32
-11.523441 6.1658731 -1.6413094 25
-11.493053 6.1496134 -1.8676733 22
-11.396375 6.0978832 -2.0830135 5
-10.019541 5.3611774 -2.0323675 2
-9.0043869 4.817997 -2.0085812 2
-8.1901731 4.3823338 -1.9915385 4
-7.4894142 4.0073771 -1.9718039 4
-6.9016223 3.6928661 -1.9552413 6
-4.9225101 2.6338985 -1.9205954 6
-3.5738332 1.9122587 -1.889383 4
-2.0383415 1.1090333 0.61254328 11
-3.2910919 1.7906375 0.72400784 11
-4.7741675 2.5975585 0.76036721 0
-6.1957674 3.3710313 0.6123848 16
-11.333944 6.1666422 0.66379493 12
-11.335452 6.1674623 0.43553224 19
-5.4900284 3.5272419 0.18147522 24
-12.536272 5.6840687 0.30178878 9
-11.29478 6.1453328 0.20603567 16
-5.4784093 3.5197768 0.065919258 27
-18.422602 8.3529882 0.085436687 45
-11.275132 6.1346431 -0.021282883 15
-5.4650736 3.5112088 -0.048978224 28
-18.413816 8.3490057 -0.27172911 35
-11.381941 6.1927562 -0.25060809 27
-5.4466672 3.499383 -0.16342045 23
-18.399281 8.3424149 -0.6288802 32
-11.355187 6.1782002 -0.47921231 27
-5.4736414 3.5167134 -0.27950746 22
-18.328077 8.3101301 -0.98246902 44
-11.321424 6.1598296 -0.70592272 23
-5.4619274 3.5091875 -0.39366055 27
-18.360304 8.3247423 -1.3414607 50
-11.287708 6.1414857 -0.93126607 20
-5.4585958 3.5070469 -0.50834709 24
-9.3694592 4.2482047 -0.86658335 8
-7.6602011 4.1678095 -0.78627336 8
-5.4435458 3.4973776 -0.62141645 28
-18.37851 8.3329964 -2.0572224 33
-11.37781 6.1905088 -1.397069 28
-11.33718 6.1684027 -1.620874 21
-11.300283 6.1483274 -1.8432778 20
-11.329244 6.1640844 -2.0785587 5
-9.9611158 5.4197049 -2.028142 3
-8.9636364 4.8769903 -2.0070374 3
-8.1215878 4.4188437 -1.9823145 4
-7.4544091 4.0558405 -1.9699949 4
-6.8756728 3.7409585 -1.9552413 6
-4.8907123 2.6609688 -1.9153905 6
-3.560396 1.937162 -1.889383 4
-2.0474706 1.132597 0.61764783 10
-3.2922571 1.8211741 0.72704357 10
-4.8079128 2.6595879 0.76868027 0
-6.1755695 3.4161329 0.61273074 24
-8.8612127 4.9017472 0.52096599 2
-11.148693 6.16711 0.43000039 21
-5.398294 3.5217888 0.17925125 24
-12.528958 5.7865405 0.30257788 9
-11.115112 6.1485343 0.20353632 16
-5.4034538 3.5251553 0.065311894 26
-18.418308 8.5065556 0.085690111 50
-11.078022 6.1280169 -0.020991065 14
-5.3901772 3.5164938 -0.04852584 25
-18.395025 8.4958019 -0.27232042 34
-11.173953 6.1810827 -0.24697271 19
-5.3584723 3.4958098 -0.16150261 25
-18.416815 8.5058661 -0.63149375 34
-11.161375 6.1741252 -0.47284061 19
-5.3820162 3.5111694 -0.27607372 32
-18.349411 8.4747353 -0.98676014 40
-11.138347 6.161387 -0.69717246 18
-5.3804483 3.5101464 -0.38954479 25
-18.356091 8.4778194 -1.3454444 46
-11.118881 6.150619 -0.92085761 18
-5.3638415 3.4993126 -0.50178576 22
-9.162262 4.2316208 -0.85013133 8
-7.512393 4.155622 -0.77406079 6
-5.3756447 3.5070126 -0.61644512 26
-18.370464 8.4844589 -2.062902 31
-11.174236 6.1812401 -1.3773376 22
-11.141033 6.1628728 -1.5989434 18
-11.111564 6.1465712 -1.8194497 21
-11.192633 6.1914163 -2.0613751 11
-9.919591 5.4872088 -2.0274379 3
-8.9190664 4.9337502 -2.0047214 2
-8.0905409 4.4754353 -1.9823145 4
-7.4156837 4.1021256 -1.9672815 4
-6.8561802 3.7926257 -1.95718 5
-4.858777 2.6877241 -1.9101856 6
-3.5531299 1.9654809 -1.8927629 5
-2.0432856 1.1480459 0.61866874 9
-3.3074973 1.8583593 0.7331149 12
-4.807436 2.7011189 0.77145129 0
-6.1805696 3.4726317 0.6154986 19
-8.8877125 4.9936743 0.52445966 1
-10.971621 6.1645446 0.42473838 19
-5.3248038 3.5244114 0.17758329 25
-12.537356 5.8916192 0.3037177 8
-10.934616 6.1437531 0.2009729 17
-5.3199186 3.5211778 0.064583056 28
-18.426649 8.6591454 0.085994214 51
-10.911594 6.1308179 -0.020752303 13
-5.3033628 3.5102198 -0.04795282 28
-18.41791 8.6550398 -0.27350301 31
-11.01068 6.1864905 -0.24426553 19
-5.285152 3.4981663 -0.15998852 25
-18.414274 8.6533298 -0.63336062 33
-10.980786 6.1696944 -0.46691343 21
-5.3186207 3.5203187 -0.27401346 31
-18.343424 8.6200361 -0.98949087 42
-10.944028 6.1490412 -0.68754727 18
-5.2904606 3.5016801 -0.38470271 21
-18.350031 8.6231413 -1.3491626 48
-10.942197 6.1480122 -0.90958178 15
-5.2839842 3.4973934 -0.49647418 24
-8.9608393 4.2109237 -0.83401507 8
-7.3631048 4.137054 -0.76148903 4
-5.2891822 3.5008337 -0.60917938 27
-18.378618 8.6365747 -2.0702043 35
-10.990842 6.175344 -1.3597509 22
-10.954591 6.1549759 -1.5780096 17
-10.953185 6.1541862 -1.8001602 20
-11.048038 6.2074809 -2.0422826 17
-9.8589506 5.5393767 -2.0225084 3
-8.8690395 4.9831824 -2.0008619 2
-8.0606804 4.5289955 -1.9823145 4
-7.3849173 4.1493096 -1.9663769 4
-6.8308754 3.8380141 -1.95718 6
-4.8507366 2.7254481 -1.9140893 6
-3.5463374 1.9925547 -1.8961428 6
-2.0520132 1.1718726 0.62377328 11
-3.2842119 1.8755618 0.73083812 14
-4.7678218 2.7228284 0.76812607 0
-6.176939 3.5275528 0.61757451 25
-8.9116049 5.0892777 0.52795327 3
-10.7964 6.1656542 0.4196113 29
-5.2336936 3.5168967 0.17535932 25
-12.535604 5.9979835 0.30468217 8
-10.762957 6.1465554 0.19860172 18
-5.2321291 3.5158453 0.063813731 27
-18.419874 8.8134651 0.08624763 54
-10.740008 6.1334505 -0.020506911 21
-5.2322483 3.5159254 -0.047530591 28
-18.400335 8.8041162 -0.27414808 35
-10.817891 6.1779275 -0.24093956 19
-5.2108169 3.501524 -0.15847443 25
-18.414728 8.8110027 -0.63547641 34
-10.802074 6.1688948 -0.46113443 19
-5.2507944 3.5283878 -0.27178153 27
-18.362087 8.7858162 -0.99378198 45
-10.782911 6.1579518 -0.68010962 19
-5.2161765 3.5051255 -0.38107115 26
-18.364992 8.7872057 -1.3547398 49
-10.763898 6.1470928 -0.89830601 19
-5.2131004 3.5030587 -0.49209997 26
-8.7838087 4.2028408 -0.82024914 6
-7.2233419 4.1251373 -0.74999487 2
-5.2150402 3.5043621 -0.60344321 27
-18.382492 8.795579 -2.0775065 33
-10.819685 6.1789522 -1.3438799 22
-10.773498 6.152575 -1.5580727 17
-10.768981 6.1499963 -1.7768995 21
-10.867264 6.2061238 -2.0168257 17
-9.8200388 5.6080699 -2.0225084 3
-8.8272181 5.0410857 -1.9993179 3
-8.0254698 4.5832195 -1.9814759 4
-7.3557701 4.2007651 -1.9663769 5
-6.7870655 3.8759866 -1.9523332 6
-4.838161 2.7629976 -1.9166917 5
-3.5260441 2.0136685 -1.8927629 6
-2.0370924 1.1822859 0.62173146 10
-3.2846255 1.9063282 0.73387378 14
-4.7349935 2.7480912 0.76590925 0
-6.1831827 3.5885901 0.62068832 21
-7.6147904 4.4194655 0.4529424 5
-10.621707 6.1646171 0.41448423 23
-5.1660728 3.5240569 0.17391375 25
-12.547353 6.1116204 0.30599734 9
-10.595258 6.1492667 0.19629464 17
-5.1611972 3.520731 0.063246854 30
-18.419031 8.9716225 0.086534843 47
-10.575847 6.1380005 -0.020274783 19
-5.1580105 3.5185573 -0.047078207 29
-18.421127 8.9726448 -0.27538443 35
-10.660357 6.1870484 -0.23838706 31
-5.1300874 3.4995096 -0.15675847 24
-18.424652 8.9743614 -0.6379655 33
-10.655031 6.1839576 -0.45668903 32
-5.1699104 3.5266747 -0.26886284 30
-18.357773 8.9417849 -0.99690276 44
-10.622212 6.1649103 -0.67267191 28
-5.1388054 3.5054564 -0.37719747 27
-18.357021 8.9414196 -1.3587236 44
-10.606856 6.1559982 -0.88876492 29
-5.125926 3.4966705 -0.48616353 28
-8.5750837 4.1767898 -0.80346143 5
-7.0668817 4.1014709 -0.73670471 0
-5.1378198 3.5047841 -0.59732461 28
-18.381458 8.9533224 -2.084403 30
-10.645581 6.178473 -1.3275801 34
-10.617009 6.1618905 -1.5416247 28
-10.592228 6.1475081 -1.7547733 23
-10.690472 6.2045264 -1.9920051 17
-9.7840557 5.678462 -2.0232127 3
-8.7782335 5.0947037 -1.9962302 3
-7.9831305 4.6332426 -1.9789604 3
-7.2959366 4.2344093 -1.9582365 4
-6.75313 3.9193757 -1.9503944 6
-4.8220263 2.7986033 -1.9179929 6
-3.4993589 2.0309548 -1.8860031 7
-2.0387831 1.2023728 0.62479419 10
-3.2949169 1.9431781 0.73918623 14
-4.661097 2.7488832 0.75704199 1
-6.1820064 3.6458399 0.62311018 20
-7.5493422 4.4522262 0.45088732 4
-10.454445 6.1655116 0.40962699 20
-5.0821733 3.5190649 0.17191219 27
-12.550958 6.2221594 0.30713716 9
-10.42805 6.1499448 0.19398755 18
-5.0904541 3.5247991 0.062679984 30
-18.41687 9.1301956 0.086822055 48
-10.415592 6.1425982 -0.020049285 20
-5.0774164 3.5157714 -0.046565507 26
-18.408205 9.1258993 -0.27613699 38
-10.496334 6.1902161 -0.23567988 28
-5.0529308 3.4988167 -0.15514344 26
-18.422447 9.1329603 -0.64008129 34
-10.484205 6.1830626 -0.45120639 32
-5.0958805 3.5285563 -0.26628751 29
-18.366489 9.1052189 -1.0008038 43
-10.455064 6.1658764 -0.66479671 30
-5.0682516 3.5094254 -0.37380803 27
-18.365667 9.1048117 -1.3640352 46
-10.439909 6.156939 -0.87835646 29
-5.062047 3.5051291 -0.48241419 28
-8.4207258 4.1745896 -0.79170996 3
-10.503925 6.1946926 -1.0994896 28
-5.0706711 3.5111005 -0.59235328 31
-18.375547 9.1097097 -2.090894 37
-10.485718 6.1839547 -1.312996 31
-10.4575 6.1673131 -1.5246782 27
-10.42627 6.1488953 -1.7343491 23
-10.517636 6.2027783 -1.967821 20
-9.7238245 5.7346277 -2.0189872 4
-8.7356911 5.151876 -1.9946864 3
-7.9438524 4.6848888 -1.9772832 4
-7.2695527 4.2872205 -1.9591409 4
-6.72226 3.9644544 -1.949425 7
-4.795855 2.8283565 -1.9153905 7
-3.4694805 2.0461271 -1.8775532 6
-2.046927 1.2265162 0.62989867 7
-3.2846396 1.9681523 0.73994517 13
-4.6485887 2.785429 0.7581504 2
-6.1974225 3.7134886 0.62726194 18
-7.4906621 4.4883962 0.44924325 2
-10.291123 6.166429 0.40490466 21
-5.014956 3.5245683 0.17046662 28
-12.535776 6.3240395 0.30783859 8
-10.254493 6.1444802 0.1915523 19
-5.0133653 3.5234504 0.062032126 28
-18.424105 9.2945795 0.087159947 46
-10.245502 6.1390924 -0.019803893 19
-5.0069346 3.5189307 -0.046143278 29
-18.419035 9.2920218 -0.27726582 32
-10.336224 6.1934533 -0.23305005 31
-4.97931 3.4995158 -0.15362936 27
-18.422489 9.2937641 -0.64232153 29
-10.317346 6.1821413 -0.44587195 34
-5.0188107 3.5272775 -0.26354051 11
-18.348848 9.2566137 -1.0033394 43
-10.281572 6.1607065 -0.65648407 27
-4.9848309 3.503396 -0.36945018 6
-18.362234 9.2633667 -1.3685502 50
-10.263205 6.1497006 -0.86708069 28
-4.9819908 3.5014 -0.47710264 24
-8.2276773 4.1506929 -0.77626526 0
-10.347651 6.2003002 -1.0876362 30
-4.9906578 3.5074914 -0.58585232 28
-18.39677 9.2807903 -2.1006305 35
-10.312657 6.1793323 -1.2966962 31
-10.284821 6.1626525 -1.5057381 30
-10.260815 6.1482682 -1.713925 24
-10.348739 6.2009521 -1.9442734 24
-9.6666641 5.792254 -2.0154662 3
-8.6860447 5.204668 -1.9915986 2
-7.9109521 4.7402334 -1.9772832 4
-7.2394447 4.3378668 -1.9591409 4
-6.6977477 4.0132828 -1.9503944 6
-4.7759924 2.861769 -1.9153905 6
-3.458221 2.0721622 -1.8792433 7
-2.0449214 1.2447985 0.63194048 6
-3.2875926 2.0012457 0.74373972 14
-4.6324134 2.8198743 0.7587046 4
-5.7322383 3.489367 0.58263052 21
-5.7666764 3.5103307 0.34731066 2
-5.7676015 3.5108936 0.22788537 14
-4.9446545 3.5269868 0.16890985 26
-12.053716 6.1867929 0.29705414 21
-5.7530632 3.502044 0.10792039 15
-4.9398003 3.5235243 0.061424762 27
-12.020919 6.1699591 0.057070423 26
-5.7537942 3.5024889 -0.011168705 21
-4.9268875 3.5143137 -0.045630574 27
-11.984358 6.1511931 -0.18104523 19
-10.17317 6.1926813 -0.23034286 26
-4.9156923 3.5063281 -0.15241809 27
-11.936954 6.1268625 -0.41767699 20
-5.7635098 3.5084031 -0.2501269 0
-4.9355006 3.5204575 -0.26045012 5
-12.035161 6.1772695 -0.66044074 17
-5.7588372 3.5055587 -0.36925861 13
-4.9244952 3.5126073 -0.36678705 5
-12.012255 6.1655121 -0.8984679 27
-5.7421594 3.4954064 -0.48717269 28
-4.9152203 3.5059917 -0.47304085 27
-11.989242 6.1536999 -1.1351873 20
-10.188412 6.2019596 -1.0754236 29
-4.9141841 3.5052526 -0.57973379 29
-11.948421 6.1327477 -1.3691827 23
-10.174149 6.1932769 -1.2846857 26
-10.150013 6.1785851 -1.4922807 17
-5.7429843 3.4959085 -0.9633382 12
-10.190506 6.2032342 -1.922635 25
-9.6327171 5.8636932 -2.0168746 3
-8.6159716 5.2447734 -1.9838792 2
-5.7295151 3.4877095 -1.4381005 5
-7.2222977 4.3964062 -1.9627589 4
-6.6297874 4.0357294 -1.9387618 6
-4.7462039 2.8891418 -1.9114869 7
-3.4529605 2.1019096 -1.8843131 8
-2.0657864 1.2773504 0.64112866 5
-3.2802219 2.0282798 0.74525756 14
-4.6227221 2.8583961 0.76036721 5
-5.6535082 3.4957683 0.57709479 20
-5.677474 3.5105872 0.34340596 21
-5.6749463 3.5090244 0.2251869 22
-4.86485 3.5215631 0.16701947 27
-11.843618 6.1838012 0.29293326 25
-5.6740475 3.5084684 0.10689502 15
-4.8729615 3.5274348 0.060898378 28
-11.832175 6.1778264 0.056377739 26
-5.6441483 3.4899809 -0.011002899 20
-4.853632 3.5134428 -0.04517819 17
-11.77094 6.1458545 -0.17846502 18
-5.6975245 3.5229855 -0.12955819 31
-4.8425069 3.5053895 -0.150904 26
-11.741494 6.1304803 -0.41232535 22
-5.6708803 3.50651 -0.24716331 33
-4.8622456 3.5196779 -0.25787482 4
-11.842997 6.1834769 -0.65224862 24
-5.6628857 3.5015669 -0.36466473 29
-4.8642769 3.5211482 -0.36412388 6
-11.813248 6.1679444 -0.88678229 27
-5.6531458 3.4955442 -0.48167935 27
-4.8486309 3.5098224 -0.46897906 28
-11.779924 6.1505456 -1.1194067 21
-5.6958985 3.5219798 -0.60380334 26
-4.8508892 3.5114574 -0.57514483 29
-11.767742 6.1441846 -1.353361 24
-5.6792603 3.5116916 -0.72019613 34
-5.6643043 3.502444 -0.83635509 29
-5.6645541 3.5025985 -0.95426077 27
-5.699893 3.5244496 -1.0800104 28
-5.6732121 3.507952 -1.1929419 30
-5.6715837 3.5069451 -1.3115216 25
-5.655129 3.4967704 -1.4255223 29
-5.690177 3.5184422 -1.5530217 26
-5.6640458 3.502284 -1.6634576 26
-4.7066159 2.9102707 -1.9036795 6
-3.4412863 2.1278718 -1.8860031 8
-2.0731945 1.3020258 0.6462332 4
-3.2792852 2.0594854 0.74829328 14
-4.6294913 2.9074538 0.76480085 6
-5.5682211 3.4970031 0.57086718 20
-5.6020832 3.5182695 0.34032333 21
-5.5961432 3.5145388 0.22302814 20
-4.798254 3.5246675 0.16557389 28
-11.641221 6.1819329 0.28898776 24
-5.5816765 3.5054533 0.10561331 16
-4.8095336 3.5329533 0.060412489 29
-11.619186 6.1702313 0.055566791 23
-5.5722227 3.4995162 -0.010910048 20
-4.7903013 3.518826 -0.044816282 17
-11.586449 6.1528463 -0.17631483 17
-5.6050558 3.5201364 -0.12801123 24
-4.7631307 3.4988668 -0.14918804 28
-11.535981 6.1260462 -0.40660036 25
-5.6022563 3.5183783 -0.24523698 33
-4.7956853 3.5227809 -0.25564289 5
-11.630168 6.1760631 -0.64288622 20
-5.5808029 3.5049047 -0.36094591 23
-4.7784371 3.5101106 -0.35952392 4
-11.611276 6.1660309 -0.87483102 24
-5.567791 3.496733 -0.47647515 26
-4.7725873 3.5058136 -0.46397996 28
-11.585325 6.1522498 -1.1049693 20
-5.610445 3.5235209 -0.59733784 30
-4.7684956 3.5028076 -0.56826144 33
-11.573435 6.1459355 -1.3359166 23
-5.6040878 3.5195284 -0.71376199 35
-5.5859389 3.5081303 -0.82838029 29
-5.5695477 3.4978361 -0.94234669 28
-5.608264 3.5221512 -1.067282 30
-5.5952325 3.513967 -1.1816745 30
-5.5904593 3.5109694 -1.2983987 29
-5.5808973 3.5049641 -1.4129442 23
-5.6126804 3.524925 -1.5385498 23
-5.5901608 3.5107818 -1.648917 26
-4.6925898 2.9470813 -1.9062819 6
-3.4263473 2.1518445 -1.8860031 9
-2.0379684 1.29983 0.63806593 3
-3.2846947 2.0950005 0.75284678 12
-4.6157608 2.9439635 0.76590925 6
-5.4899149 3.5015049 0.56533152 20
-5.5167608 3.5186274 0.33662418 18
-5.5141721 3.5169761 0.22073443 22
-4.7382655 3.5317943 0.16435072 30
-11.453511 6.1851454 0.28539294 26
-5.4963713 3.5056229 0.10445976 14
-4.7302341 3.5258076 0.059724141 30
-11.424486 6.1694708 0.054840319 25
-5.4869523 3.4996154 -0.010790667 22
-4.7239275 3.5211072 -0.044424217 15
-11.384844 6.1480632 -0.17389588 18
-5.5196519 3.5204713 -0.12661895 26
-4.7065272 3.5081372 -0.14817865 25
-11.3487 6.1285443 -0.4014976 20
-5.5000439 3.5079653 -0.24182884 26
-4.7325253 3.5275154 -0.25358263 4
-11.456697 6.1868658 -0.63566935 24
-5.4821157 3.4965305 -0.35613328 34
-4.7186022 3.5171378 -0.35686079 4
-11.420449 6.1672912 -0.86367655 27
-5.486062 3.4990473 -0.47156006 26
-4.7160234 3.5152154 -0.46085551 29
-11.401806 6.1572227 -1.0915391 21
-5.5286098 3.5261848 -0.59123158 34
-4.705616 3.5074582 -0.56367254 33
-11.36918 6.1396046 -1.3172551 22
-5.5089679 3.5136569 -0.70475417 35
-5.5010805 3.5086265 -0.81940866 31
-5.4949174 3.5046954 -0.93383664 29
-5.533596 3.5293651 -1.0577356 30
-5.510808 3.5148308 -1.1689986 28
-5.5029407 3.5098126 -1.2837319 29
-5.4936395 3.5038805 -1.3970119 25
-5.5288038 3.5263083 -1.5222688 22
-5.5098925 3.5142467 -1.6324375 27
-4.6687121 2.9777362 -1.9049808 6
-3.4173541 2.1796117 -1.889383 8
-4.6669087 3.0249398 1.468062 7
-3.3022056 2.1403832 0.76043594 11
-4.6173263 2.9928019 0.76978868 5
-5.3938761 3.4961364 0.55806589 21
-5.4304814 3.5198631 0.33292499 18
-5.4278588 3.5181632 0.21830581 21
-4.6612368 3.5278246 0.16257155 27
-11.257162 6.1861219 0.28162277 22
-5.4134717 3.5088379 0.10337031 16
-4.669179 3.5338354 0.059278741 31
-11.231722 6.172142 0.054130737 21
-5.4141593 3.5092833 -0.010697816 22
-4.6597171 3.5266745 -0.044062309 32
-11.18524 6.1465988 -0.17153068 16
-5.43329 3.5216835 -0.12522669 28
-4.6328578 3.5063462 -0.14666456 28
-11.166819 6.136476 -0.39664379 15
-5.4339304 3.5220983 -0.24005069 33
-4.6683016 3.5331717 -0.25152239 5
-11.253475 6.1840959 -0.62689209 20
-5.4094157 3.5062087 -0.35307074 25
-4.6576734 3.5251276 -0.35419765 6
-11.217531 6.1643438 -0.85172528 24
-5.3933091 3.4957693 -0.46577758 24
-4.6392527 3.5111861 -0.45585641 29
-11.195678 6.1523347 -1.0760944 16
-5.4357524 3.5232794 -0.58404773 32
-4.6353302 3.5082176 -0.55831879 29
-11.184369 6.1461205 -1.3010278 15
-5.4330049 3.5214984 -0.69831997 35
-5.4219265 3.514318 -0.81143385 30
-5.4092712 3.5061152 -0.92362458 30
-5.4379854 3.5247269 -1.0443708 32
-5.4221163 3.514441 -1.1556184 30
-5.4144878 3.5094967 -1.2690651 29
-5.4120131 3.5078926 -1.3827566 25
-5.4472222 3.530714 -1.5068923 25
-5.4253664 3.5165474 -1.6149886 27
-4.646759 3.0118792 -1.9049808 5
-3.3952007 2.2006595 -1.8860031 9
-4.6715221 3.0744569 1.4762293 7
-3.2740598 2.1547487 0.75740027 10
-4.6294103 3.0467422 0.77533072 5
-5.3194051 3.5008466 0.55287623 19
-5.3490481 3.5203557 0.32943135 19
-5.3530741 3.5230052 0.21628197 20
-4.6016097 3.5334928 0.16134837 29
-11.070563 6.1845908 0.27802795 22
-5.3320484 3.5091674 0.10228085 15
-4.6031528 3.5346777 0.058752358 29
-11.041698 6.1684647 0.053421158 22
-5.3327255 3.509613 -0.010585068 23
-4.5937405 3.5274501 -0.043670241 27
-10.995407 6.1426044 -0.16927299 16
-5.3517795 3.5221531 -0.12391178 26
-4.5702071 3.5093794 -0.14545329 30
-10.973624 6.1304355 -0.39129215 15
-5.3591232 3.5269864 -0.237828 31
-4.5991464 3.5316014 -0.24911876 5
-11.077492 6.1884608 -0.61948019 19
-5.3214154 3.5021698 -0.34891438 29
-4.5917821 3.5259464 -0.35105029 5
-11.038337 6.1665874 -0.84136754 20
-5.3021212 3.4894717 -0.45999512 27
-4.5703464 3.5094864 -0.45148218 31
-11.013268 6.1525826 -1.0626642 18
-5.3511224 3.5217206 -0.57758224 32
-4.5696712 3.5089679 -0.55334747 32
-7.3301878 4.0950232 -0.85599273 2
-5.3418465 3.5156159 -0.68974113 38
-5.3409004 3.5149932 -0.80296069 31
-5.3317413 3.5089655 -0.9145472 29
-5.367063 3.5322115 -1.0354608 31
-5.3448224 3.5175745 -1.144351 29
-5.3439565 3.5170045 -1.258258 29
-5.3253169 3.5047374 -1.3668243 24
-5.3671093 3.5322421 -1.4915159 25
-5.3488164 3.5202031 -1.5994785 28
-4.6256185 3.0442467 -1.9049808 6
-3.3948963 2.2342744 -1.8944529 8
-4.6531615 3.1091418 1.4772502 4
-3.2915926 2.1993709 0.76498944 8
-4.6277914 3.09219 0.77865595 3
-5.2318811 3.4958298 0.54630262 21
-5.2811637 3.5287592 0.32675973 19
-5.2685184 3.5203099 0.21385334 20
-4.5389781 3.5360446 0.160014 25
-10.898451 6.1886635 0.27478385 22
-5.2508888 3.5085301 0.10119139 15
-4.5310345 3.529856 0.058144994 29
-10.862711 6.1683688 0.052762266 21
-5.2382517 3.5000865 -0.01044579 23
-4.524827 3.5250201 -0.043248013 28
-10.813136 6.1402178 -0.16712281 14
-5.2672071 3.519434 -0.12251951 29
-4.5108962 3.5141678 -0.14434296 28
-10.788016 6.1259537 -0.38618943 16
-5.2712231 3.5221171 -0.23501259 31
-4.517633 3.5194156 -0.24602838 5
-10.888103 6.1827874 -0.61128807 18
-5.2437034 3.5037291 -0.34541431 29
-4.5229588 3.5235648 -0.34766084 5
-10.863133 6.1686087 -0.8312754 21
-5.2311916 3.4953692 -0.4559474 26
-4.5111299 3.5143497 -0.44804528 30
-10.841803 6.1564965 -1.0502412 13
-5.2767205 3.5257905 -0.57219434 31
-4.5073705 3.5114207 -0.54875857 32
-7.2114515 4.0950084 -0.84544492 5
-5.2741871 3.5240977 -0.68416488 35
-5.2601333 3.5147073 -0.79448748 28
-5.2577324 3.513103 -0.90603715 28
-5.2798877 3.5279067 -1.0233687 30
-5.2579322 3.5132365 -1.130971 30
-5.2605338 3.5149748 -1.2443632 28
-5.2551942 3.5114069 -1.3550847 24
-5.2904849 3.5349874 -1.477044 25
-5.2660308 3.5186479 -1.5820297 30
-4.6011095 3.0743618 -1.9036795 6
-3.349072 2.2377772 -1.8775532 9
-4.6345429 3.1437223 1.4782711 1
-3.2956588 2.2355249 0.76954293 7
-4.6224833 3.1355417 0.78142697 1
-5.1611781 3.5009515 0.54145885 22
-5.1968932 3.5251777 0.32306054 21
-5.1974959 3.5255868 0.21196443 21
-4.4671259 3.5304575 0.15834603 27
-10.716435 6.1846423 0.27127671 20
-5.1766186 3.5114253 0.10023011 15
-4.4686236 3.5316412 0.057659104 29
-10.694664 6.1720777 0.052154053 29
-5.1805868 3.5141168 -0.010379468 25
-4.4624496 3.5267618 -0.042886108 28
-10.67301 6.1595802 -0.16561769 19
-5.1994829 3.5269346 -0.12151398 29
-4.4391947 3.5083828 -0.14282887 31
-10.651491 6.147162 -0.3828291 25
-5.2001934 3.5274167 -0.23293808 30
-4.4772758 3.5384796 -0.24516994 5
-10.699339 6.1747751 -0.60309595 21
-5.1794515 3.5133467 -0.34278923 28
-4.4637923 3.5278232 -0.3449977 5
-10.695358 6.1724782 -0.8217144 29
-5.147233 3.491492 -0.45074317 28
-4.4458132 3.5136137 -0.44398353 33
-10.681183 6.1642971 -1.0388256 25
-5.2025237 3.5289972 -0.56680644 33
-4.44526 3.5131764 -0.5441696 30
-7.0930753 4.0935378 -0.83489716 9
-5.1902146 3.5206475 -0.67644387 36
-5.1796317 3.513469 -0.78601426 32
-5.1740952 3.5097134 -0.89582509 29
-5.2061081 3.5314286 -1.0138224 30
-5.1909151 3.5211229 -1.121816 30
-5.1903934 3.5207691 -1.233556 28
-5.1787639 3.5128803 -1.341668 25
-5.217309 3.5390263 -1.4634765 26
-5.1931639 3.5226481 -1.5674889 27
-4.5701437 3.1000385 -1.8997759 6
-3.3153658 2.2488925 -1.8674134 8
-4.6411514 3.1957414 1.4874593 0
-3.3252571 2.2896607 0.78016782 5
-4.6135311 3.1767228 0.78364378 1
-5.0873785 3.5029984 0.53626919 25
-5.1129332 3.5205944 0.31936139 19
-5.10361 3.5141749 0.20913103 20
-4.4049358 3.5315425 0.15701166 27
-10.552262 6.1884995 0.268208 23
-5.0926847 3.5066519 0.099076562 17
-4.4064126 3.5327268 0.057173211 30
-10.534001 6.1777906 0.051579632 25
-5.0966258 3.5093656 -0.010260087 24
-4.4033923 3.5303054 -0.042554356 27
-10.505544 6.1611009 -0.16368252 19
-5.1187367 3.5245907 -0.12019906 32
-4.3802767 3.5117729 -0.14171854 28
-10.466918 6.1384487 -0.37772638 25
-5.1161799 3.5228302 -0.23027085 31
-4.4056959 3.5321519 -0.24259463 5
-10.545688 6.1846442 -0.59685433 24
-5.1054535 3.515444 -0.33950791 28
-4.4016747 3.5289283 -0.34209245 5
-10.53495 6.1783471 -0.81268454 28
-5.0865874 3.5024536 -0.44756281 28
-4.383841 3.5146306 -0.44023418 29
-10.51755 6.1681423 -1.0270741 23
-5.1285415 3.5313418 -0.56141853 35
-4.3833475 3.514235 -0.5395807 32
-6.9647789 4.0845776 -0.82313234 10
-5.1131005 3.5207098 -0.66958076 35
-5.1059437 3.5157816 -0.77853793 33
-5.1070709 3.5165579 -0.88844973 30
-5.1292863 3.5318546 -1.0036396 30
-5.1110744 3.5193145 -1.1098444 31
-5.107501 3.516854 -1.2196611 28
-5.0961294 3.5090239 -1.3265743 24
-5.1411276 3.5400081 -1.4490045 26
-5.1045184 3.5148001 -1.5481013 29
-4.5452743 3.1297235 -1.8984747 7
-3.3145149 2.282264 -1.8758633 9
-1.7181542 1.2008312 0.55333078 4
-3.5731542 2.4973049 0.84239912 3
-4.6009822 3.2156618 0.78530639 0
-5.0072718 3.4996209 0.53038752 25
-5.0358415 3.5195885 0.31607324 20
-5.036355 3.5199473 0.20737703 21
-4.3491526 3.5369806 0.15589967 29
-10.391998 6.1924167 0.26522693 22
-5.0189066 3.5077527 0.098115273 17
-4.3444047 3.5331192 0.056687322 29
-10.366914 6.1774693 0.050971422 27
-5.0228224 3.5104895 -0.010160604 22
-4.3320913 3.5231051 -0.042101972 28
-10.342019 6.1626348 -0.16180111 20
-5.0481143 3.5281658 -0.11911619 31
-4.3246298 3.5170372 -0.14070915 29
-10.310469 6.1438346 -0.37361929 24
-5.0455928 3.5264034 -0.22819634 31
-4.3406239 3.5300446 -0.24036269 32
-10.385563 6.1885819 -0.5902226 24
-5.0120387 3.5029526 -0.33491406 9
-4.3397598 3.5293417 -0.3391872 32
-10.357844 6.1720653 -0.8023268 26
-5.0031514 3.4967408 -0.44235861 32
-4.3220716 3.5149567 -0.43648484 31
-10.350965 6.1679659 -1.014987 24
-5.0515175 3.5305445 -0.55567145 35
-4.3185492 3.5120921 -0.53460938 35
-6.8472128 4.0801387 -0.81258458 12
-5.0427613 3.5244248 -0.66357559 36
-5.0292263 3.5149648 -0.77056313 34
-5.0207324 3.5090284 -0.87767029 28
-5.0494781 3.529119 -0.99282044 31
-5.0347424 3.5188203 -1.098577 32
-5.0345697 3.5186994 -1.2080821 27
-5.0202155 3.5086675 -1.3131576 25
-5.061996 3.5378678 -1.4336281 26
-5.0385046 3.5214498 -1.5354993 28
-4.5264149 3.1635461 -1.8997759 6
-3.313359 2.315732 -1.8843131 8
-1.7444282 1.2374108 0.56456071 6
-3.5556326 2.5221894 0.84239912 3
-4.5784202 3.2477043 0.78530639 0
-4.9372134 3.5022142 0.52554381 32
-4.9655323 3.5223024 0.31319612 19
-4.9660087 3.5226402 0.20548812 22
-4.275003 3.526547 0.1541205 30
-10.228779 6.1923299 0.26215819 23
-4.9584122 3.5172517 0.097410329 16
-4.2856927 3.5353653 0.056241922 31
-10.196928 6.1730475 0.050346319 27
-4.9362044 3.5014985 -0.010034591 24
-4.2734485 3.5252647 -0.041770224 26
-10.196098 6.1725454 -0.16018848 14
-4.9809546 3.5332422 -0.11811066 28
-4.2567859 3.5115192 -0.139296 30
-5.7629728 3.4888062 -0.20970969 7
-4.9752064 3.5291646 -0.22612183 31
-4.2819629 3.5322883 -0.23847412 31
-10.222485 6.188519 -0.58339584 24
-4.9451118 3.507817 -0.33207023 4
-4.2811351 3.5316055 -0.33652407 29
-10.201833 6.1760168 -0.79356259 25
-4.9395695 3.5038855 -0.43888912 32
-4.2512846 3.5069811 -0.43179819 30
-10.19172 6.1698952 -1.0035713 21
-4.9747567 3.5288458 -0.54992437 34
-4.2662811 3.5193522 -0.53116769 35
-6.7164354 4.0660167 -0.80041403 11
-4.9661336 3.5227289 -0.65671247 37
-4.9527707 3.5132499 -0.76258832 31
-4.9541283 3.5142128 -0.87029493 28
-4.9828444 3.5345824 -0.9845469 31
-4.9683032 3.5242677 -1.0894221 30
-4.9618635 3.5196998 -1.196503 28
-4.9509377 3.5119495 -1.3014179 26
-4.9863248 3.5370517 -1.4191561 24
-4.9599876 3.518369 -1.5190198 29
-4.4980483 3.1906924 -1.8971734 6
-3.2882402 2.3325145 -1.8792433 8
-1.7263304 1.2427803 0.56149805 6
-3.5092518 2.5263002 0.83556885 4
-4.5524206 3.2772744 0.78475219 0
-4.864131 3.5016739 0.52035409 30
-4.8986745 3.5265419 0.31052449 21
-4.899117 3.5268602 0.2037341 23
-4.2196136 3.5306475 0.15300852 29
-5.7228436 3.5193415 0.14729957 23
-4.8818021 3.5143952 0.096384957 17
-4.2271633 3.5369647 0.055796519 31
-5.7037244 3.5075836 0.028281789 24
-4.882422 3.5148416 -0.0099749006 23
-4.2180572 3.5293453 -0.041468631 27
-5.6964464 3.503108 -0.089877561 25
-4.90099 3.5282087 -0.11679574 30
-4.2014995 3.5154912 -0.13828661 33
-5.6771746 3.4912565 -0.20746948 25
-4.8985419 3.5264463 -0.22375096 32
-4.2234845 3.5338864 -0.23658556 32
-5.7276196 3.5222783 -0.32826987 23
-4.868639 3.5049193 -0.32857016 5
-4.216568 3.5280993 -0.33337674 29
-5.7081885 3.5103288 -0.44591418 29
-4.869658 3.5056527 -0.43484139 36
-4.1930556 3.508426 -0.4283613 29
-5.6904368 3.4994125 -0.56272519 28
-4.9015017 3.5285769 -0.54453647 33
-4.2049632 3.5183895 -0.52657878 36
-5.6913133 3.4999514 -0.68114305 20
-4.8994608 3.5271077 -0.65113622 37
-4.8894706 3.5199158 -0.75660723 31
-4.8748446 3.5093865 -0.86065018 29
-4.9035625 3.5300608 -0.9737277 31
-4.8892527 3.5197589 -1.0774505 32
-4.8862062 3.5175657 -1.184152 30
-4.8850346 3.5167224 -1.290517 26
-4.9109144 3.5353532 -1.4046842 27
-4.8912106 3.5211685 -1.5054486 30
-4.4756632 3.222017 -1.8971734 7
-3.2571642 2.3448231 -1.8707933 8
-1.7207352 1.2570835 0.56251895 7
-3.4915295 2.5507379 0.83556885 4
-4.5486226 3.3229973 0.78807741 1
-4.7977347 3.5049863 0.51585633 27
-4.825551 3.5253077 0.30744186 21
-4.8291826 3.5279608 0.20184518 22
-4.1704731 3.5393221 0.15211894 31
-5.65065 3.5295482 0.14607209 23
-4.8054767 3.5106421 0.095359586 17
-4.1627231 3.5327446 0.055270139 30
-5.6282096 3.5155315 0.028028369 24
-4.8093162 3.5134475 -0.0098754168 22
-4.1597681 3.530237 -0.041136883 28
-5.6141829 3.5067699 -0.08896374 18
-4.8374872 3.5340278 -0.11586756 31
-4.1433177 3.5162764 -0.13717628 30
-5.6051893 3.5011523 -0.20572709 22
-4.8350711 3.5322623 -0.22197281 33
-4.165194 3.5348418 -0.234697 37
-5.6283422 3.515614 -0.32397878 23
-4.8021255 3.5081942 -0.32572633 4
-4.155304 3.5264485 -0.33047149 28
-5.6158409 3.5078053 -0.44060251 26
-4.7967434 3.5042622 -0.43050453 33
-4.1380553 3.5118101 -0.42523685 32
-5.6117783 3.5052679 -0.55735308 24
-4.8252788 3.5251088 -0.53878939 33
-4.143868 3.5167434 -0.52198982 35
-5.6026139 3.4995434 -0.67343503 28
-4.8233371 3.5236902 -0.6442731 36
-4.8167071 3.5188468 -0.7491309 33
-4.8022666 3.5082974 -0.85214013 31
-4.834156 3.531594 -0.96481782 32
-4.8200488 3.5212879 -1.0675914 31
-4.8203306 3.5214939 -1.1741168 31
-4.8098345 3.5138257 -1.2771002 28
-4.8483586 3.54197 -1.3938302 27
-4.8195047 3.5208905 -1.4909078 30
-4.4469519 3.2487218 -1.8945711 6
-3.2553525 2.3781986 -1.8792433 9
-1.721238 1.2759756 0.56558162 9
-3.4452422 2.5540016 0.82873857 4
-4.5380425 3.3641083 0.79029423 1
-4.7283301 3.5051711 0.51101261 26
-4.7526855 3.523226 0.30435923 21
-4.7594743 3.5282586 0.19995625 24
-4.1092968 3.5370495 0.15078455 29
-5.5549588 3.5239224 0.14423084 25
-4.7422953 3.5155234 0.09459056 18
-4.1015806 3.5304079 0.054784246 31
-5.5461111 3.5183096 0.027741158 27
-4.7493243 3.5207343 -0.0098024625 21
-4.0956106 3.5252697 -0.040744819 31
-5.518641 3.5008833 -0.087834895 19
-4.7612939 3.5296075 -0.11462999 30
-4.1035151 3.532073 -0.13667159 29
-5.5029631 3.4909375 -0.20286457 24
-4.7589154 3.5278442 -0.21960193 33
-4.1131549 3.5403707 -0.23315181 36
-5.5395632 3.5141559 -0.3202728 26
-4.7550573 3.5249841 -0.32419506 4
-4.1003227 3.5293255 -0.32805043 25
-5.5372925 3.5127153 -0.43635318 25
-4.7304978 3.5067782 -0.42674595 30
-4.0892582 3.5198016 -0.4227373 30
-5.5198565 3.5016544 -0.55063796 23
-4.7525458 3.5231225 -0.53340149 31
-4.0860205 3.5170147 -0.51778334 36
-5.5175629 3.5001993 -0.66613275 30
-4.7506976 3.5217524 -0.63783896 41
-4.7410107 3.5145714 -0.7411561 32
-4.7426682 3.5158 -0.8458994 31
-4.7681417 3.5346839 -0.95654428 31
-4.7479014 3.5196793 -1.0570282 31
-4.7483344 3.5200005 -1.1625378 31
-4.7443409 3.5170398 -1.2661992 28
-4.7734313 3.538605 -1.3793583 26
-4.7480435 3.5197849 -1.4763671 31
-4.4241633 3.2796884 -1.8945711 7
-3.2299328 2.3943901 -1.8741733 8
-1.7246511 1.2972603 0.56966525 10
-3.3771105 2.5402188 0.81659591 4
-4.5429378 3.4171393 0.79528207 3
-4.6559744 3.5021639 0.5058229 26
-4.6864715 3.5251033 0.3016876 22
-4.6963882 3.5325627 0.19833718 23
-4.0483575 3.5340974 0.14945018 27
-5.4797945 3.5301318 0.14291567 23
-4.6728892 3.5148871 0.093693361 17
-4.049715 3.5352826 0.05441983 30
-5.4642491 3.5201173 0.027453948 26
-4.6830726 3.5225468 -0.0097162435 25
-4.0437808 3.5301025 -0.040473387 27
-5.440268 3.5046687 -0.086974822 19
-4.6917915 3.5291052 -0.11354712 28
-4.0335708 3.5211895 -0.1351575 32
-5.4314032 3.4989576 -0.20112218 24
-4.695837 3.5321479 -0.21782377 32
-4.0461903 3.5322056 -0.23074818 36
-5.4577975 3.5159614 -0.31695697 28
-4.6856461 3.5244825 -0.32113248 4
-4.033474 3.5211048 -0.32466099 29
-5.4354644 3.5015738 -0.43024477 22
-4.664453 3.5085413 -0.42298734 32
-4.0255322 3.5141718 -0.41867551 31
-5.4416633 3.5055673 -0.54526591 24
-4.6896296 3.5274787 -0.52909118 31
-4.0313721 3.5192699 -0.51395923 35
-5.4394674 3.5041528 -0.6596418 29
-4.6878567 3.5261452 -0.63269162 40
-4.678298 3.5189552 -0.73517501 30
-4.6768713 3.5178821 -0.83852404 30
-4.6928539 3.5299041 -0.94636154 31
-4.6791592 3.519603 -1.0471692 33
-4.6891422 3.5271125 -1.1540464 31
-4.6727872 3.5148103 -1.2536211 28
-4.7081308 3.5413952 -1.3675997 26
-4.6830373 3.5225203 -1.4637651 31
-4.3981361 3.3082213 -1.8932698 6
-3.2073433 2.4125223 -1.8707933 9
-1.7247765 1.3163073 0.57272798 9
-3.3311973 2.5422883 0.80976564 5
-4.4937797 3.4295428 0.79084843 4
-4.5933981 3.5055692 0.50167114 28
-4.6299934 3.5334978 0.29963249 22
-4.6271219 3.5313065 0.19644825 22
-3.9936485 3.535769 0.1483382 30
-5.388083 3.5245192 0.1411621 25
-4.6100864 3.5183053 0.092924327 17
-3.9949877 3.5369544 0.054014917 30
-5.3792877 3.5187659 0.027149843 27
-4.6138515 3.5211787 -0.0096233916 24
-3.9860947 3.5290811 -0.040141638 27
-5.3554201 3.5031531 -0.086007237 19
-4.628891 3.5326564 -0.11261894 29
-3.9789507 3.5227563 -0.13414811 31
-5.3432732 3.4952075 -0.1987575 24
-4.629756 3.5333166 -0.21589744 31
-3.994503 3.5365252 -0.22920299 32
-5.3595624 3.505863 -0.31266585 26
-4.6133027 3.5207598 -0.31785116 4
-3.9729211 3.5174179 -0.32175577 33
-5.360785 3.5066626 -0.42626101 26
-4.5954461 3.5071323 -0.41893962 32
-3.9770148 3.5210421 -0.41617596 36
-5.3670225 3.5107429 -0.54022956 24
-4.6205535 3.5262933 -0.52406251 34
-3.9739118 3.518295 -0.50975269 38
-5.354928 3.5028312 -0.65233946 32
-4.6125436 3.5201807 -0.62582856 40
-4.5999837 3.5105951 -0.72670186 32
-4.6049848 3.5144119 -0.83001399 32
-4.6335659 3.5362244 -0.93936086 31
-4.6169138 3.5235159 -1.0387186 31
-4.6300859 3.5335684 -1.1455551 31
-4.6015 3.5117526 -1.241043 26
-4.6430278 3.5434453 -1.3558413 25
-4.6058884 3.5151014 -1.4472857 30
-4.3779416 3.3411379 -1.8945711 7
-3.1961877 2.4392524 -1.8741733 9
-1.7155449 1.3283165 0.57272798 10
-3.2823141 2.5414386 0.80217642 6
-4.4321404 3.4317291 0.78419799 4
-4.5247002 3.5033965 0.49682742 26
-4.5641503 3.533942 0.29696089 21
-4.5581026 3.5292592 0.19455932 23
-3.9420905 3.5395217 0.14733742 28
-5.3100452 3.5266497 0.13975924 23
-4.544301 3.5185728 0.092091218 16
-3.9374599 3.5353642 0.053569518 32
-5.3112745 3.5274661 0.026930211 28
-4.5417151 3.5165708 -0.0095239077 23
-3.9345737 3.5327725 -0.039870206 29
-5.2841878 3.5094767 -0.085254677 19
-4.5630074 3.533057 -0.11161342 30
-3.9274817 3.5264049 -0.13323966 29
-5.268785 3.4992466 -0.19689065 24
-4.5544066 3.5263977 -0.21352658 34
-3.9310596 3.5296173 -0.22697105 33
-5.2883625 3.5122492 -0.30993515 29
-4.5475564 3.5210936 -0.31500733 4
-3.9304426 3.5290635 -0.32030314 37
-5.2696791 3.4998407 -0.42094934 24
-4.5329962 3.5098197 -0.41547012 31
-3.925631 3.5247433 -0.41336396 34
-5.2859368 3.5106382 -0.53452176 24
-4.5580225 3.5291972 -0.5197522 34
-3.9107378 3.5113709 -0.50478137 36
-5.2739897 3.5027037 -0.64544284 30
-4.5501213 3.5230796 -0.62068123 39
-4.5377059 3.5134664 -0.72072077 32
-4.5396376 3.514962 -0.82263863 29
-4.5619287 3.5322216 -0.92981452 31
-4.5517292 3.5243244 -1.0295638 30
-4.5525479 3.5249581 -1.1324322 32
-4.5459466 3.5198472 -1.2326576 27
-4.5719638 3.5399919 -1.3422738 26
-4.5536194 3.5257881 -1.4385613 31
-4.3425465 3.3623579 -1.8893661 7
-3.176214 2.4592872 -1.8724834 10
-1.7153538 1.3474278 0.5757907 11
-3.2459612 2.5497353 0.79762292 3
-4.4516883 3.4968462 0.79195684 15
-4.4656601 3.5078211 0.49302167 23
-4.4891052 3.5262375 0.29367274 22
-4.4924836 3.5288913 0.19280532 23
-3.8877213 3.5400343 0.14622544 28
-5.2289281 3.5256286 0.13826871 25
-4.4755936 3.5156238 0.091194011 18
-3.8831103 3.5358357 0.053164609 32
-5.2268214 3.5242083 0.026626106 29
-4.476162 3.5160704 -0.0094376886 24
-3.8713689 3.5251443 -0.039478138 27
-5.2031822 3.5082693 -0.084340848 19
-4.4942007 3.5302401 -0.11053054 33
-3.8702459 3.5241218 -0.13212933 25
-5.1845584 3.495712 -0.19465043 25
-4.4982429 3.5334151 -0.21204478 35
-3.8708661 3.5246866 -0.2249108 41
-5.214025 3.5155802 -0.30700937 25
-4.4788918 3.5182147 -0.31194475 4
-3.8820939 3.53491 -0.31836629 32
-5.1888609 3.4986129 -0.41643444 24
-4.467597 3.5093424 -0.41171154 33
-3.8773415 3.5305827 -0.41086441 30
-5.2117267 3.5140307 -0.5294854 23
-4.4988117 3.5338621 -0.51580107 34
-3.8655219 3.5198202 -0.50210452 36
-5.2032161 3.508292 -0.6397633 30
-4.4941406 3.5301931 -0.61639178 38
-4.4724932 3.5131886 -0.71424127 31
-4.4713945 3.5123258 -0.81469589 32
-4.4967861 3.5322711 -0.92154104 31
-4.4774709 3.5170987 -1.0182964 32
-4.4815311 3.5202882 -1.1208532 31
-4.4720521 3.5128422 -1.2192408 28
-4.5103698 3.5429411 -1.3314199 28
-4.4922724 3.5287256 -1.4269288 31
-4.3189669 3.3925924 -1.8893661 7
-3.1504147 2.4746826 -1.8674134 9
-1.6998559 1.35455 0.57374889 11
-3.301796 2.6310747 0.81583697 0
-4.3899899 3.4982145 0.78530639 26
-4.4067798 3.5115941 0.48921588 21
-4.433136 3.5325963 0.29161763 22
-4.4333463 3.5327637 0.19132116 22
-3.8276615 3.534538 0.14489107 29
-5.1513863 3.5259078 0.13686585 25
-4.419662 3.5218592 0.090553157 17
-3.8318834 3.5384369 0.05280019 32
-5.1426754 3.5199456 0.026322 27
-4.4108386 3.514828 -0.0093514696 24
-3.8290322 3.5358038 -0.039297186 28
-5.129055 3.510623 -0.083534531 19
-4.4381685 3.5366066 -0.10975706 31
-3.801482 3.5103633 -0.13061523 32
-5.1105385 3.4979491 -0.19278358 23
-4.4390779 3.5373311 -0.21041481 32
-3.8226767 3.5299351 -0.2235373 40
-5.1497912 3.524816 -0.30466878 23
-4.4167376 3.5195289 -0.3093197 5
-3.8221211 3.529422 -0.31546107 33
-5.1050248 3.4941754 -0.41165394 29
-4.4117875 3.5155842 -0.4088203 31
-3.8115823 3.5196903 -0.40649018 33
-5.1212831 3.5053034 -0.52277035 23
-4.4304123 3.5304255 -0.51077235 34
-3.8174527 3.5251112 -0.49904522 35
-5.1227713 3.5063221 -0.63286668 31
-4.4196219 3.5218275 -0.60952872 39
-4.4106107 3.5146465 -0.70826018 33
-4.4127021 3.5163133 -0.80845517 31
-4.4380441 3.5365074 -0.91454035 33
-4.4189339 3.5212791 -1.01055 33
-4.4261513 3.5270302 -1.1131338 33
-4.4137721 3.5171659 -1.2100168 29
-4.4428639 3.5403478 -1.3187569 27
-4.4250374 3.5261428 -1.4133574 32
-4.2922187 3.4203045 -1.888065 7
-3.147238 2.5079134 -1.8758633 9
-1.6843425 1.3615217 0.57170707 11
-3.2864013 2.6565301 0.81659591 1
-4.3315721 3.5013838 0.77921015 36
-4.3449674 3.5122118 0.48506412 24
-4.3648729 3.528302 0.28874052 21
-4.3681574 3.5309572 0.18956716 23
-3.7795439 3.5393095 0.14400148 29
-5.0740976 3.5252774 0.135463 24
-4.3607526 3.5249717 0.089848213 18
-3.7749722 3.5350285 0.05235479 46
-5.0654173 3.5192466 0.026051685 30
-4.3426418 3.5103321 -0.0092586186 23
-3.7779779 3.537843 -0.039025754 42
-5.0518661 3.5098319 -0.082674459 19
-4.3698273 3.5323071 -0.10867418 31
-3.7652073 3.5258839 -0.13021149 31
-5.0433092 3.5038869 -0.19116564 23
-4.3738623 3.5355685 -0.20848848 36
-3.7775207 3.5374148 -0.22233549 46
-5.0725608 3.5242095 -0.30154797 25
-4.3485737 3.5151267 -0.30625713 30
-3.7711589 3.5314574 -0.31328213 32
-5.0477295 3.5069578 -0.4089981 27
-4.3468022 3.5136948 -0.40506169 35
-3.7665424 3.5271342 -0.40430307 34
-5.0541329 3.5114064 -0.5184055 23
-4.3684783 3.5312166 -0.50646204 37
-3.7607803 3.5217385 -0.49483871 38
-5.0556831 3.5124836 -0.62759274 30
-4.3609061 3.5250957 -0.6048103 39
-4.3489275 3.5154128 -0.70227909 32
-4.3480148 3.5146749 -0.80107981 32
-4.3763928 3.5376141 -0.90690327 33
-4.3452482 3.5124388 -0.99928248 33
-4.3586879 3.5233023 -1.1023266 32
-4.3617353 3.5257657 -1.2024699 28
-4.3786469 3.5394359 -1.3069985 31
-4.3671141 3.5301137 -1.4026942 35
-4.2652941 3.4478087 -1.8867637 7
-3.1211941 2.5229867 -1.8707933 9
-1.6927406 1.3879608 0.57783252 12
-3.2890337 2.6968398 0.8219083 0
