# .PCD v0.7 - Point Cloud Data file format
VERSION 0.7
FIELDS x y z intensity
SIZE 4 4 4 4
TYPE F F F F
COUNT 1 1 1 1
WIDTH 1368
HEIGHT 1
VIEWPOINT 0 0 0 1 0 0 0
POINTS 1368
DATA ascii
-1.8392317 2.6591616 0.853477 3
-1.7291676 2.5000308 0.58740264 6
-4.7728086 6.900527 1.1738031 30
-5.6921072 8.2296495 0.86875606 13
-5.6537094 8.1741333 0.51130706 18
-5.6716089 8.2000132 0.33649859 19
-5.6599112 9.6086187 0.31013137 21
-6.2109404 7.7165751 0.21717919 34
-5.6763849 8.2069178 0.15989393 16
-5.6638393 9.6152868 0.11296973 21
-6.2023449 7.7058964 0.041780684 40
-5.6771054 8.2079601 -0.016547458 20
-5.6862993 9.6534176 -0.084475376 24
-6.1943169 7.6959219 -0.13277367 32
-5.6237273 8.1307859 -0.19120468 29
-5.6887093 9.6575089 -0.2829324 22
-6.1893702 7.6897764 -0.30728382 34
-5.6413827 8.156312 -0.36763319 32
-5.6284857 9.5552692 -0.47643319 23
-6.2050424 7.7092476 -0.48313993 39
-5.6436253 8.1595545 -0.54338765 30
-5.6395597 9.574069 -0.67377448 24
-6.1987243 7.7013979 -0.65784955 41
-5.6531863 8.173377 -0.72020608 29
-5.6468239 9.586401 -0.87171996 22
-5.6681767 7.0422368 -0.76149207 14
-5.5997887 8.0961752 -0.88756573 32
-5.6604147 9.6094732 -1.0711308 21
-6.1953697 7.6972299 -1.0073128 41
-5.6194916 8.1246614 -1.0654956 34
-5.623837 8.1309443 -1.2415736 31
-5.6242247 8.1315041 -1.4166404 25
-5.5935636 8.0871754 -1.5846941 26
-5.5996389 8.0959587 -1.76054 21
-5.3895512 7.7922139 -1.863457 5
-4.9413605 7.1442199 -1.8624029 5
-4.5548253 6.5853667 -1.8587418 5
-4.2517734 6.1472144 -1.8670276 6
-3.0424135 4.3987217 -1.8399199 6
-2.245892 3.2471111 -1.840374 12
-1.8249781 2.6783292 0.85551882 5
-1.7271522 2.5347605 0.59271502 7
-4.7066722 6.9074893 1.1693695 30
-5.6951008 8.3581028 0.87809753 14
-5.65274 8.2959347 0.51644474 19
-5.6727514 8.3253031 0.34000659 21
-5.6648817 9.7724314 0.31413451 22
-6.1246033 7.7190218 0.21603939 33
-5.6684971 8.3190594 0.16130382 15
-5.6748052 9.7895508 0.11454888 24
-6.1185617 7.7114077 0.04157795 38
-5.6849837 8.343255 -0.016739793 21
-5.6909828 9.8174582 -0.085561097 25
-6.1081195 7.698247 -0.13207486 29
-5.6253772 8.2557774 -0.19321574 32
-5.6973538 9.8284492 -0.28676808 24
-6.1007438 7.688951 -0.30554143 35
-5.6473265 8.2879896 -0.37178221 31
-5.6438122 9.7360849 -0.48347238 28
-6.1237545 7.7179518 -0.48099437 38
-5.6449976 8.2845716 -0.54907531 29
-5.6546798 9.7548323 -0.68370074 27
-6.1150379 7.7069659 -0.65466255 41
-5.6543956 8.2983646 -0.72772324 29
-5.6617565 9.7670403 -0.88453013 25
-5.6560359 7.1284723 -0.76652837 14
-5.6014552 8.2206688 -0.89690477 31
-5.6690702 9.7796574 -1.0856624 26
-6.1167474 7.7091208 -1.003256 42
-5.6119003 8.2359991 -1.0749323 33
-5.6250405 8.2552834 -1.2545326 28
-5.6297479 8.2621918 -1.4325259 26
-5.5970073 8.2141409 -1.6018776 26
-5.6028461 8.2227106 -1.7795539 19
-5.3394399 7.8361368 -1.8650008 5
-4.8913641 7.1785426 -1.8624029 5
-4.5197096 6.6331043 -1.8632642 5
-4.1934576 6.1542983 -1.860242 7
-3.0116303 4.4198546 -1.8399199 7
-2.2150021 3.2507267 -1.8336141 10
-1.8299448 2.7263281 0.86674875 6
-1.7159804 2.5565391 0.5949918 8
-4.64288 6.9171557 1.16549 25
-5.6943545 8.4836864 0.88709301 16
-5.6547956 8.4247503 0.52199352 18
-5.6746473 8.4543257 0.34364951 20
-5.6698194 9.9402504 0.31824884 23
-6.0410004 7.7237911 0.21498725 33
-5.6771498 8.4580536 0.1632264 15
-5.6776657 9.9540062 0.11600655 23
-6.0202198 7.6972218 0.041273843 39
-5.6823292 8.4657707 -0.0169056 20
-5.691668 9.9785547 -0.086616665 24
-6.0221939 7.6997461 -0.13137606 29
-5.6255536 8.3811846 -0.19522679 32
-5.6979418 9.9895544 -0.29030094 22
-6.0173593 7.6935644 -0.30404794 34
-5.6405654 8.4035492 -0.37519035 33
-5.643024 9.8932734 -0.48930976 29
-6.0328031 7.7133102 -0.47806862 36
-5.6493483 8.4166346 -0.55520046 29
-5.6457863 9.8981171 -0.6909638 26
-6.0217419 7.6991682 -0.65041322 41
-5.6563563 8.4270754 -0.7355296 29
-5.6566572 9.9171743 -0.89452839 27
-5.6552439 7.2305775 -0.77324349 13
-5.6038742 8.3488855 -0.90660298 29
-5.669704 9.9400482 -1.0990467 24
-6.0235529 7.7014832 -0.99676502 39
-5.6185408 8.3707361 -1.0873717 32
-5.6203556 8.3734407 -1.2664948 27
-5.6315107 8.3900595 -1.4478439 26
-5.5923457 8.3317099 -1.6171517 28
-5.6023588 8.3466282 -1.7978635 21
-5.2758546 7.860188 -1.8619131 5
-4.8498478 7.2255054 -1.8657571 4
-4.4689488 6.6580262 -1.8614552 4
-4.1417394 6.1705356 -1.8563645 7
-2.9743767 4.4313502 -1.8360163 7
-2.1902335 3.2631009 -1.8319241 12
-1.8129998 2.7422631 0.86776966 6
-1.7175839 2.5979412 0.60182208 9
-4.5748134 6.9196601 1.1605022 20
-5.6877341 8.603014 0.89539653 17
-5.6597319 8.5606594 0.52795327 21
-5.6816292 8.5937805 0.34769723 20
-5.6668153 10.098146 0.32202956 22
-5.9551902 7.7246051 0.21384743 36
-5.6753116 8.5842247 0.16489261 16
-5.68046 10.122461 0.11750472 23
-5.9467988 7.7137208 0.041138686 40
-5.6936803 8.6120081 -0.017117832 20
-5.6942921 10.147109 -0.087732546 24
-5.9316626 7.694087 -0.13056974 29
-5.6242499 8.5069914 -0.19723783 31
-5.7004685 10.158115 -0.2940357 23
-5.9268851 7.6878901 -0.30218109 36
-5.64569 8.5394201 -0.37948754 32
-5.6461806 10.061376 -0.49566218 26
-5.9495349 7.7172699 -0.47572801 40
-5.6543293 8.5524874 -0.56154436 29
-5.654705 10.076567 -0.70064795 26
-5.9459138 7.7125726 -0.64802295 42
-5.6545925 8.552886 -0.74304682 30
-5.6614437 10.088574 -0.90640128 22
-5.6508665 7.3298602 -0.77962279 14
-5.6135612 8.4908237 -0.91773796 30
-5.6683707 10.100919 -1.112431 23
-5.9380546 7.7023778 -0.99149108 40
-5.6169906 8.4960108 -1.0985242 32
-5.6230478 8.5051727 -1.2804506 27
-5.6273928 8.5117445 -1.4620274 24
-5.5950246 8.4627857 -1.6349716 22
-5.6069269 8.4807892 -1.8182857 23
-5.2165222 7.8902802 -1.8603692 5
-4.7798734 7.2298241 -1.8582102 5
-4.4202089 6.6858125 -1.8605508 4
-4.0942793 6.1928253 -1.8544257 7
-2.9496255 4.461473 -1.8399199 8
-2.1614008 3.2692392 -1.8268542 10
-1.810694 2.7807815 0.87593693 1
-1.705834 2.6197426 0.6040988 9
-3.5407033 5.4376516 0.90778536 2
-5.6797223 8.7226601 0.90370005 18
-5.6630425 8.6970434 0.53391308 19
-5.6782117 8.7203398 0.35120523 20
-5.6676769 10.26698 0.32614389 22
-5.8696675 7.7245955 0.21270761 34
-5.6785326 8.7208328 0.1667511 14
-5.6753764 10.280929 0.11888141 25
-5.8637657 7.7168283 0.040935948 40
-5.6945324 8.7454042 -0.017303536 21
-5.6909709 10.309177 -0.088788114 24
-5.8536091 7.7034621 -0.1300322 29
-5.6323724 8.6499424 -0.19963564 31
-5.6989827 10.32369 -0.2976695 24
-5.8367896 7.6813278 -0.30031425 31
-5.6491899 8.6757689 -0.38378474 31
-5.6433983 10.223001 -0.50167125 25
-5.8665109 7.7204413 -0.47338739 38
-5.6555066 8.6854706 -0.56766945 30
-5.6556139 10.245129 -0.70960581 26
-5.8581228 7.7094021 -0.64430481 41
-5.6578755 8.6891079 -0.75143135 28
-5.6641083 10.260516 -0.91827416 24
-5.6477909 7.4326015 -0.78633791 14
-5.6106672 8.6166077 -0.927077 33
-5.6708379 10.272706 -1.1269627 22
-5.8576574 7.7087903 -0.9870286 37
-5.6248121 8.6383314 -1.1118215 32
-5.6285024 8.6439981 -1.2954034 27
-5.6391311 8.6603222 -1.4807495 24
-5.5961423 8.5943012 -1.6527914 27
-5.5991483 8.598918 -1.835187 18
-5.1655941 7.933085 -1.8619131 5
-4.727149 7.2597408 -1.8573717 5
-4.3670473 6.7067127 -1.8578373 4
-4.04671 6.2147541 -1.852487 6
-2.9163427 4.4787865 -1.8386188 7
-2.1286333 3.2690585 -1.8184044 6
-1.787061 2.7868435 0.87389511 0
-1.706583 2.6613417 0.61092907 9
-3.485548 5.4355597 0.90335172 5
-5.6251416 8.7721624 0.90473801 23
-5.6604085 8.8271599 0.53946179 17
-5.6754584 8.8506298 0.35484815 20
-5.664546 10.432799 0.33014703 22
-5.7844329 7.723774 0.21156779 35
-5.688756 8.8713665 0.16886593 18
-5.6798053 10.460904 0.12050105 23
-5.7809758 7.7191582 0.040733211 39
-5.6916375 8.8758602 -0.017482605 21
-5.693295 10.485748 -0.089964315 23
-5.770915 7.7057242 -0.12938714 30
-5.6322937 8.7833157 -0.20180139 29
-5.7030916 10.503792 -0.30170706 21
-5.7614522 7.6930885 -0.29919413 33
-5.6510572 8.8125772 -0.38808197 31
-5.644352 10.395607 -0.5081954 26
-5.7741499 7.7100439 -0.47026658 39
-5.6550999 8.818881 -0.5737946 31
-5.6563468 10.417699 -0.71880573 22
-5.768271 7.7021937 -0.64032108 39
-5.6616826 8.8291464 -0.76010507 28
-5.6684504 10.439991 -0.93077195 25
-5.6387711 7.5292764 -0.79238153 14
-5.6127386 8.752821 -0.93749356 30
-5.6730776 10.448513 -1.1418767 23
-5.763145 7.6953487 -0.98013198 43
-5.6201839 8.764431 -1.122974 31
-5.6258631 8.7732878 -1.3088608 28
-5.6405172 8.7961397 -1.4972023 23
-5.5956941 8.7262402 -1.6706113 25
-5.5878668 8.7140341 -1.8513839 18
-5.1079659 7.9656496 -1.8611411 5
-4.6763511 7.2925653 -1.8573717 5
-4.3180156 6.733757 -1.8569328 5
-4.0116038 6.2559209 -1.8563645 6
-2.882962 4.4958534 -1.8373175 6
-2.1077161 3.2868912 -1.8200943 7
-1.7634331 2.7927105 0.87185329 0
-1.7047378 2.6997561 0.6170004 9
-3.4263678 5.4262643 0.89780968 10
-5.5765328 8.8314342 0.90681386 21
-5.6669002 8.9745464 0.54603809 20
-5.6818371 8.9982023 0.3591657 19
-5.6706729 10.620231 0.33481735 22
-5.7018723 7.7253575 0.21051565 34
-5.6779366 8.9920244 0.17040399 19
-5.6838784 10.644962 0.12216118 24
-5.6960659 7.7174902 0.040513579 40
-5.682929 8.9999304 -0.017648412 25
-5.700964 10.676961 -0.091261148 28
-5.6861019 7.70399 -0.12868834 28
-5.6284928 8.913722 -0.20388979 29
-5.6974268 10.670337 -0.30534089 36
-5.674365 7.6880884 -0.29745173 34
-5.6534257 8.953207 -0.39252734 31
-5.6450496 10.572243 -0.51489121 24
-5.6964583 7.7180219 -0.46831608 38
-5.6531076 8.9527035 -0.57991976 28
-5.6587033 10.597814 -0.72848988 22
-5.693028 7.7133741 -0.63793081 44
-5.6595516 8.9629087 -0.76820052 30
-5.6686807 10.6165 -0.94295728 22
-5.635776 7.6358047 -0.79943234 13
-5.613183 8.8894758 -0.94791019 33
-5.6750121 10.628358 -1.157173 25
-5.6880131 7.7065797 -0.97648078 41
-5.6183167 8.8976059 -1.1349845 29
-5.6259317 8.9096661 -1.323315 28
-5.6381688 8.9290447 -1.5130877 25
-5.6000023 8.8686018 -1.6903404 27
-5.5626378 8.8094282 -1.8633555 6
-5.0417571 7.9845209 -1.8572814 4
-4.6190643 7.3151116 -1.854856 4
-4.2688227 6.7604418 -1.8560283 5
-3.97405 6.2936168 -1.8592726 6
-2.8474679 4.5094728 -1.8347151 7
-2.1040761 3.3321795 -1.8369941 9
-1.7336831 2.7885311 0.86674875 0
-1.7065846 2.7449446 0.62458962 8
-3.3800354 5.436595 0.89559287 10
-5.5399909 8.9107609 0.91096562 20
-5.6673837 9.1156645 0.55220336 18
-5.6843133 9.1428957 0.36334831 20
-5.6168418 10.698501 0.33604053 38
-5.6266298 7.7358699 0.20972654 27
-5.6825967 9.1401348 0.17245474 14
-5.6168661 10.698546 0.12232314 41
-5.6420484 7.7570682 0.040513579 29
-5.687542 9.1480885 -0.017860644 15
-5.6169939 10.698791 -0.091110356 43
-5.655705 7.7758441 -0.12922588 22
-5.6231389 9.0445004 -0.20597818 27
-5.6079297 10.681526 -0.30453336 42
-5.6605325 7.7824817 -0.29956749 26
-5.6393251 9.0705347 -0.39593548 25
-5.6212659 10.706927 -0.51952678 50
-5.6189365 7.7252927 -0.46636558 35
-5.6495147 9.0869236 -0.58604491 23
-5.6124229 10.690084 -0.73212147 41
-5.6226058 7.7303376 -0.63607174 30
-5.6621408 9.1072321 -0.77716333 20
-5.6111135 10.68759 -0.94576925 43
-5.6362548 7.7491026 -0.80715472 23
-5.607779 9.0197945 -0.95760834 42
-5.6136351 10.692393 -1.15985 42
-5.6410942 7.7557564 -0.97769785 30
-5.6148572 9.0311794 -1.1469948 32
-5.620172 9.0397282 -1.3367726 22
-5.636323 9.0657053 -1.5295405 17
-5.5984182 9.0047388 -1.7087967 27
-5.4989214 8.8447037 -1.8626513 6
-4.9817472 8.0128574 -1.8557376 4
-4.5720129 7.3538232 -1.8565332 4
-4.2174072 6.7834606 -1.8542193 5
-3.9218194 6.3080244 -1.8553951 6
-2.8059311 4.5131812 -1.828209 6
-2.065448 3.3221562 -1.8234743 10
-1.6859065 2.7543852 0.85245609 1
-1.7037818 2.7835894 0.63066095 9
-3.3233857 5.4296513 0.89060503 7
-5.5421386 9.0545855 0.921691 21
-5.6619983 9.2504082 0.55795765 21
-5.6892166 9.2948771 0.36780077 20
-5.5291777 10.712581 0.33526212 40
-5.6307268 7.8562226 0.2119185 26
-5.6812863 9.2819204 0.17437731 13
-5.523694 10.701957 0.12191823 45
-5.6413503 7.8710446 0.04090216 29
-5.6736546 9.2694511 -0.018019818 14
-5.5219855 10.698647 -0.090778604 42
-5.6548715 7.8899102 -0.13046223 22
-5.6224942 9.1858673 -0.20829862 21
-5.516716 10.688437 -0.3036249 42
-5.6666183 7.9062996 -0.30280337 28
-5.6384659 9.2119617 -0.40038085 22
-5.5262184 10.706847 -0.51763821 44
-5.6183977 7.8390207 -0.47085175 28
-5.6505756 9.2317467 -0.59282631 20
-5.5211749 10.697075 -0.7299425 43
-5.6196523 7.8407707 -0.64191455 29
-5.6588221 9.2452183 -0.78554791 21
-5.5180736 10.691067 -0.94264483 45
-5.6447115 7.8757343 -0.8162201 22
-5.6049862 9.1572628 -0.96802497 20
-5.515111 10.685327 -1.1548786 43
-5.6494026 7.8822799 -0.98865134 30
-5.6181078 9.1787014 -1.1607211 25
-5.6252999 9.1904516 -1.3532205 19
-5.6369748 9.2095261 -1.547128 20
-5.5993266 9.1480169 -1.7285258 26
-5.432929 8.8761616 -1.8612429 5
-4.9318318 8.0574837 -1.8580534 4
-4.5205622 7.3855629 -1.8565332 5
-4.167913 6.8094153 -1.8533148 5
-3.8695817 6.32201 -1.8515176 6
-2.7802787 4.5423384 -1.8321127 7
-2.0327413 3.3210335 -1.8150245 10
-1.67462 2.7793386 0.85653973 2
-1.7005219 2.8223276 0.63673228 9
-2.111896 3.5050781 0.57249224 3
-5.5260925 9.1715622 0.92964858 21
-5.6714983 9.4128904 0.56535596 17
-5.6922722 9.4473677 0.37225324 19
-5.4307375 10.704565 0.33381656 42
-5.6403356 7.9868045 0.2143735 24
-5.6741414 9.4172764 0.17617171 13
-5.4307489 10.704588 0.12151332 45
-5.6508708 8.0017223 0.041375212 28
-5.6851835 9.4356031 -0.01826521 13
-5.4308729 10.704832 -0.090507179 44
-5.6573329 8.0108728 -0.13180609 23
-5.6242733 9.3345118 -0.21077377 20
-5.4184427 10.680331 -0.3023127 38
-5.6666355 8.0240459 -0.30579033 25
-5.6420932 9.3640871 -0.40527079 22
-5.4368706 10.716655 -0.51626474 44
-5.6165423 7.9531126 -0.47533789 31
-5.6498871 9.3770218 -0.59960771 21
-5.4319086 10.706874 -0.72800571 43
-5.6223354 7.9613156 -0.64855415 31
-5.6579671 9.3904324 -0.79451072 17
-5.4270635 10.697324 -0.93983281 43
-5.6332779 7.9768109 -0.82259941 25
-5.6067114 9.3053637 -0.97951913 24
-5.4241657 10.691611 -1.1514369 43
-5.6493297 7.9995399 -0.99838769 28
-5.6216216 9.3301105 -1.1748762 22
-5.626545 9.3382816 -1.3691701 19
-5.6481509 9.3741407 -1.5681194 19
-5.6005421 9.295125 -1.7488914 25
-5.3627 8.900383 -1.858426 5
-4.8653321 8.0749102 -1.8541937 5
-4.4567795 7.396842 -1.8515019 5
-4.1182618 6.8350096 -1.8524103 5
-3.8353655 6.3654914 -1.8563645 7
-2.7524033 4.5681171 -1.8347151 7
-2.0188618 3.3506708 -1.8234743 10
-1.6630671 2.8042679 0.86062336 2
-1.7048167 2.8746662 0.64583933 9
-2.109602 3.5572164 0.57858849 3
-5.5046158 9.2818975 0.93691415 31
-5.6688142 9.5587692 0.57172674 18
-5.6955118 9.6037865 0.37684062 21
-5.3398161 10.710013 0.33281577 40
-5.6346884 8.0982046 0.21630241 25
-5.6776223 9.5736208 0.17835063 17
-5.3362527 10.702867 0.12106792 44
-5.6428456 8.1099281 0.041730002 27
-5.7007871 9.6126814 -0.018530501 17
-5.3363748 10.703111 -0.090175427 40
-5.6606617 8.1355333 -0.13320372 21
-5.6181293 9.4733038 -0.21301687 19
-5.3276901 10.685692 -0.30140424 40
-5.6675653 8.1454563 -0.30890176 25
-5.6438684 9.5167055 -0.41016069 22
-5.3369579 10.70428 -0.51386106 48
-5.6179285 8.0741177 -0.48021418 26
-5.6494799 9.5261679 -0.60660785 22
-5.3338685 10.698084 -0.72485834 43
-5.630444 8.0921049 -0.65599048 28
-5.6614628 9.5463734 -0.8043409 23
-5.3308978 10.692125 -0.9360835 44
-5.6389174 8.1042824 -0.8316648 24
-5.6086717 9.4573565 -0.99137253 21
-5.3280725 10.686459 -1.146848 39
-5.647891 8.1171799 -1.0081241 29
-5.6232929 9.4820108 -1.1890314 22
-5.6280227 9.4899855 -1.3856181 18
-5.6451821 9.5189199 -1.5857068 21
-5.5939312 9.4325008 -1.7673477 20
-5.2823572 8.9071236 -1.8520881 5
-4.8008323 8.0951757 -1.8511059 5
-4.4070268 7.4311395 -1.8523405 5
-4.072432 6.8669448 -1.8533148 5
-3.780935 6.375422 -1.8515176 6
-2.7165864 4.5807147 -1.8321127 7
-1.9972699 3.3678017 -1.8251643 10
-1.6376005 2.8057895 0.85756063 2
-1.7045029 2.9204171 0.65342849 9
-2.1066821 3.6094921 0.58468473 5
-5.4838743 9.3958178 0.94452572 21
-5.6724205 9.7188644 0.57891959 21
-5.6907954 9.7503471 0.38102326 19
-5.2490845 10.714715 0.331815 38
-5.6390634 8.2264042 0.21866973 23
-5.6993532 9.7650099 0.1811704 16
-5.2455654 10.707532 0.1207035 42
-5.6471524 8.238205 0.04218616 26
-5.7121749 9.7869778 -0.018789159 19
-5.2404065 10.697001 -0.089813523 41
-5.6557388 8.2507305 -0.13444006 22
-5.6425734 9.6677256 -0.21649754 28
-5.2371268 10.690307 -0.3004958 40
-5.6693344 8.2705641 -0.31213763 25
-5.6599035 9.6974182 -0.41623604 28
-5.2462745 10.70898 -0.51231587 49
-5.6224146 8.202116 -0.48548052 29
-5.6653814 9.7068043 -0.61557686 26
-5.2397299 10.69562 -0.72219521 44
-5.6347423 8.2201004 -0.66316122 26
-5.6751199 9.7234898 -0.81590587 26
-5.2350698 10.686108 -0.93233413 43
-5.6475563 8.2387943 -0.8414017 24
-5.6087794 9.6098242 -1.0032259 26
-5.2393236 10.69479 -1.1437887 38
-5.6518331 8.2450323 -1.0190775 29
-5.629127 9.6446867 -1.2044733 27
-5.6396556 9.6627264 -1.4050566 25
-5.648447 9.6777897 -1.6055636 22
-5.6015964 9.597517 -1.7908953 20
-5.2200446 8.9437847 -1.8520881 5
-4.7323298 8.1081562 -1.8464743 4
-4.3432112 7.4414587 -1.8473092 5
-4.0145721 6.8783832 -1.8487923 5
-3.726553 6.3849044 -1.8466706 6
-2.6845405 4.5995684 -1.8321127 8
-1.9663996 3.3691385 -1.8184044 10
-1.6198987 2.8205073 0.85858154 3
-1.6977649 2.9560852 0.65874094 9
-2.101161 3.6584635 0.59022671 7
-5.5074553 9.5893764 0.96009481 24
-5.6740642 9.8794699 0.58611244 22
-5.6942625 9.9146385 0.3858805 18
-5.1516123 10.704261 0.33036941 43
-5.6419196 8.3550549 0.22103705 22
-5.7007575 9.9259481 0.1834134 17
-5.1516051 10.704247 0.1202581 42
-5.6544175 8.3735619 0.042676106 28
-5.7054653 9.934145 -0.018994758 18
-5.1482539 10.697282 -0.089511931 42
-5.6606727 8.3828249 -0.13594519 22
-5.6466451 9.8317289 -0.21928208 28
-5.1432924 10.686974 -0.29938546 45
-5.6741047 8.4027166 -0.31562242 24
-5.6637325 9.8614807 -0.42157051 31
-5.1540542 10.709334 -0.51059902 46
-5.6142039 8.3140106 -0.48977163 28
-5.6651087 9.8638763 -0.62301451 28
-5.152813 10.706756 -0.72050047 42
-5.6352901 8.3452368 -0.67006636 27
-5.6806149 9.8908758 -0.82660341 29
-5.1465049 10.693648 -0.9298346 43
-5.6456666 8.3606024 -0.84979558 23
-5.6189327 9.7834768 -1.0172344 30
-5.1403584 10.680878 -1.138435 40
-5.6520352 8.3700342 -1.0296254 28
-5.6250377 9.7941074 -1.2181995 28
-5.6392646 9.8188782 -1.422003 28
-5.6517372 9.8405952 -1.6259878 22
-5.6072268 9.7630949 -1.814443 18
-5.1496344 8.9663525 -1.8492712 5
-4.669745 8.1307869 -1.8441585 5
-4.2892065 7.4682074 -1.8464706 5
-3.9722757 6.916379 -1.8515058 5
-3.6857524 6.4174957 -1.8486094 6
-2.6523643 4.6181979 -1.8321127 8
-1.9572754 3.4079351 -1.8319241 12
-1.6077791 2.8452163 0.86266512 3
-1.7099322 3.0259922 0.67164254 10
-2.0872619 3.6937363 0.59355193 8
-5.5031104 9.7386141 0.97116613 21
-5.6796346 10.051001 0.59392178 21
-5.6937428 10.075967 0.3906028 19
-5.063087 10.711046 0.32947984 42
-5.6432567 8.4841394 0.22340436 24
-5.704124 10.094338 0.18578458 18
-5.0647845 10.714638 0.11997467 45
-5.6512079 8.4960938 0.043098476 27
-5.710752 10.106069 -0.019246783 18
-5.0631909 10.711266 -0.089330979 43
-5.666254 8.518714 -0.13750407 21
-5.6467319 9.992775 -0.22198926 27
-5.0497599 10.682853 -0.29827514 43
-5.6750932 8.5320024 -0.31898275 25
-5.6596432 10.015623 -0.42646044 29
-5.0672078 10.719765 -0.50939721 47
-5.6201963 8.4494705 -0.49542812 26
-5.6648798 10.02489 -0.63067096 26
-5.0608768 10.706371 -0.71807945 41
-5.6365776 8.4740982 -0.67723715 31
-5.6801205 10.051861 -0.83672273 27
-5.0580897 10.700475 -0.92733502 44
-5.6467671 8.4894171 -0.85886097 25
-5.619091 9.9438591 -1.0298061 30
-5.0537553 10.691305 -1.1357582 44
-5.6551766 8.5020599 -1.0409845 30
-5.6269593 9.9577837 -1.2336415 31
-5.6408691 9.982399 -1.4399462 25
-5.6510787 10.000466 -1.6458446 23
-5.6049857 9.9188976 -1.8360814 17
-5.0772262 8.9849443 -1.8457501 4
-4.6109366 8.1597729 -1.8433865 4
-4.2427363 7.5081849 -1.8489863 4
-3.9162254 6.9303732 -1.8478878 5
-3.6389508 6.439692 -1.84764 6
-2.6144757 4.6267233 -1.828209 7
-1.9245178 3.4057348 -1.8234743 10
-1.5972736 2.8732722 0.86776966 3
-1.7059404 3.0687485 0.67847282 12
-2.0922222 3.7636156 0.6024192 9
-5.481462 9.8603849 0.97946966 19
-5.6792059 10.216099 0.60132009 19
-5.6951342 10.244751 0.39559495 22
-4.9696679 10.706237 0.32825667 40
-5.6452498 8.616992 0.22585936 23
-5.7015324 10.256261 0.18802758 17
-4.9763865 10.720711 0.11965074 44
-5.6421719 8.6122942 0.043487053 26
-5.708087 10.268051 -0.019478912 18
-4.9731321 10.7137 -0.089059547 44
-5.6745901 8.6617775 -0.13917047 20
-5.6467896 10.157785 -0.22477379 25
-4.9599042 10.685203 -0.29736668 42
-5.6723547 8.6583652 -0.32221863 24
-5.667275 10.194636 -0.43238762 28
-4.9686904 10.704131 -0.50699359 50
-5.6201844 8.5787325 -0.50069445 24
-5.6626806 10.186372 -0.63832736 26
-4.9675174 10.701605 -0.71541631 46
-5.6385212 8.6067209 -0.68467343 30
-5.6815333 10.220285 -0.84742028 28
-4.9647946 10.695738 -0.92389816 46
-5.6507063 8.6253214 -0.86859787 24
-5.6172857 10.104712 -1.0423779 28
-4.9655814 10.697433 -1.1326988 44
-5.6523814 8.6278782 -1.0515323 29
-5.6288042 10.125433 -1.2495123 29
-5.6423955 10.149881 -1.4583879 26
-5.6465402 10.157337 -1.6651341 21
-5.5663071 10.013009 -1.8462641 6
-5.0029006 8.9995203 -1.8415248 4
-4.5538621 8.191762 -1.8433865 5
-4.1883192 7.5342011 -1.8481477 4
-3.8734298 6.9677591 -1.8506013 4
-3.5976789 6.4717221 -1.8495787 7
-2.578438 4.6382499 -1.8256066 7
-1.8971728 3.4127491 -1.8200943 10
-1.5808866 2.89114 0.86981148 6
-1.7146223 3.1357169 0.69061548 13
-2.0849018 3.8128877 0.60796124 9
-5.4832296 10.027781 0.99227095 20
-5.6824899 10.39219 0.60933495 20
-5.6906028 10.407026 0.40031728 20
-4.8831959 10.715201 0.32747826 41
-5.6499958 8.7570038 0.2284897 25
-5.7027063 10.429162 0.19046283 16
-4.8781991 10.704237 0.11908387 46
-5.6534719 8.7623911 0.04404458 27
-5.7111068 10.444525 -0.01973757 19
-4.8783102 10.70448 -0.088697635 42
-5.6638541 8.7784824 -0.14040682 21
-5.6467295 10.326792 -0.22763567 28
-4.8719211 10.69046 -0.29655918 39
-5.6811304 8.8052597 -0.32620126 24
-5.6650038 10.360211 -0.43772206 27
-4.8789253 10.70583 -0.5054484 49
-5.6229706 8.7151165 -0.50635093 25
-5.668076 10.36583 -0.64707756 29
-4.8761282 10.699692 -0.71299523 42
-5.641047 8.7431335 -0.69237536 26
-5.6770358 10.382215 -0.85753959 25
-4.873466 10.693851 -0.92077368 43
-5.653019 8.7616892 -0.87833476 25
-5.6192341 10.276507 -1.0560273 30
-4.8726153 10.691984 -1.1284924 46
-5.6481023 8.7540684 -1.06208 26
-5.6342978 10.304056 -1.2666701 30
-5.647563 10.328315 -1.4783249 27
-5.6514773 10.335474 -1.6878275 22
-5.4886894 10.037766 -1.8437184 6
-4.9342833 9.0238628 -1.8394122 4
-4.4871473 8.2061367 -1.8395269 5
-4.131866 7.5563946 -1.8464706 4
-3.8097367 6.9672818 -1.8433653 5
-3.5412393 6.4762511 -1.8437625 6
-2.5459943 4.6561379 -1.8256066 7
-1.8715619 3.4227297 -1.8184044 11
-1.567991 2.915731 0.87389511 8
-1.7205904 3.1994944 0.70199925 12
-2.0769944 3.8622394 0.61350328 2
-5.4753728 10.181636 1.0036883 20
-5.6798048 10.561784 0.61693877 22
-5.6992269 10.597899 0.40611899 19
-4.7935815 10.716181 0.32647747 44
-5.6509156 8.8941212 0.23103237 25
-5.7036343 10.606095 0.19296217 18
-4.7870231 10.701519 0.11867896 42
-5.6565132 8.9029312 0.044551421 25
-5.7176199 10.632102 -0.020016124 19
-4.7920322 10.712716 -0.088486522 47
-5.6689219 8.9224615 -0.1420732 21
-5.6426864 10.492761 -0.2304202 25
-4.7824783 10.691359 -0.29565072 45
-5.6859856 8.9493179 -0.33005941 23
-5.6682658 10.540327 -0.44364926 28
-4.7959113 10.721388 -0.50458997 50
-5.6241245 8.8519535 -0.51200742 29
-5.6693459 10.542336 -0.65560901 24
-4.7899041 10.707959 -0.71130055 43
-5.6376605 8.8732586 -0.6995461 28
-5.6818867 10.565656 -0.86939365 25
-4.7856684 10.69849 -0.91827416 46
-5.6515636 8.8951406 -0.8877359 26
-5.6171675 10.445308 -1.0693173 28
-4.7832251 10.693027 -1.1250507 40
-5.6615405 8.9108438 -1.076279 27
-5.637568 10.483243 -1.2838279 29
-5.64675 10.500317 -1.497265 24
-5.6485729 10.503707 -1.708819 22
-5.4240899 10.086273 -1.8456277 5
-4.8767591 9.0684938 -1.8415248 4
-4.4297481 8.2372618 -1.8395269 4
-4.0753064 7.578166 -1.8447936 5
-3.761003 6.9937086 -1.8433653 5
-3.492264 6.4939799 -1.8418237 7
-2.5152175 4.6771297 -1.8269078 6
-1.8493381 3.438905 -1.8200943 11
-1.5602529 2.9505391 0.88104147 14
-1.7367659 3.2843366 0.71793652 5
-2.0814614 3.9361784 0.62292475 7
-5.4525928 10.311206 1.0126837 21
-5.6619534 10.70712 0.6231041 31
-5.6606078 10.704576 0.40868253 33
-4.6993661 10.70545 0.3251431 39
-5.6395879 9.0147209 0.23313665 29
-5.6537561 10.691619 0.19379529 23
-4.7025495 10.712702 0.11843601 43
-5.6493783 9.0303707 0.044990685 23
-5.6600838 10.703585 -0.020075815 32
-4.7042646 10.71661 -0.08824525 41
-5.6616459 9.0499802 -0.14347082 14
-5.6496854 10.683921 -0.23374617 34
-4.6932564 10.691532 -0.29474226 42
-5.6721387 9.0667524 -0.33292192 17
-5.6636806 10.710386 -0.44913188 51
-4.7048821 10.718016 -0.50287306 50
-5.6194 8.9824514 -0.51727372 26
-5.6590891 10.701704 -0.66304672 47
-4.7005877 10.708234 -0.70912158 46
-5.6327291 9.0037575 -0.70671684 35
-5.6490164 10.682655 -0.87575436 44
-4.6996422 10.706079 -0.91608703 43
-5.6400614 9.0154781 -0.89579397 24
-5.6204634 10.62866 -1.0840443 27
-4.6972542 10.700639 -1.1223737 43
-5.656177 9.0412378 -1.0872325 24
-5.6441846 10.673518 -1.3022724 32
-5.6475186 10.679823 -1.5172019 36
-5.6528459 10.689898 -1.7326472 30
-5.3350816 10.088985 -1.8392634 5
-4.800446 9.0779543 -1.8365953 5
-4.361125 8.2471695 -1.8348953 5
-4.0186448 7.5995178 -1.8431164 5
-3.7139075 7.0232396 -1.8442698 5
-3.4450283 6.5147715 -1.8408544 6
-2.4789674 4.6878877 -1.8243053 7
-1.8235903 3.4485273 -1.8184044 11
-1.537832 2.9579284 0.88002056 10
-3.5670838 6.8610735 1.4943098 19
-2.0831683 4.0068502 0.63179201 8
-4.9797421 9.5782366 0.93726009 10
-5.5649529 10.703856 0.62063795 30
-5.5654526 10.704817 0.40719837 35
-4.6166058 10.719636 0.32458711 39
-5.6583071 9.1866674 0.23655611 19
-5.5549927 10.684698 0.19296217 25
-4.6165719 10.719557 0.11815257 44
-5.6554208 9.181982 0.045548212 17
-5.5612335 10.696702 -0.019989595 32
-4.613513 10.712454 -0.087943658 44
-5.6591558 9.1880455 -0.14502971 13
-5.5657358 10.705361 -0.23335944 50
-4.6042662 10.690984 -0.29383382 41
-5.6674104 9.2014475 -0.33640671 16
-5.5666432 10.707107 -0.44735372 49
-4.6093922 10.702886 -0.50064111 46
-5.6131253 9.1133118 -0.52254009 16
-5.5639729 10.701971 -0.66064042 45
-4.6130815 10.711452 -0.70718479 43
-5.6325264 9.1448107 -0.71468437 19
-5.5540557 10.682896 -0.87257403 47
-4.6058569 10.694677 -0.91233772 41
-5.6396933 9.1564474 -0.90586662 17
-5.5681767 10.710056 -1.0883546 50
-4.6114106 10.707573 -1.1196969 41
-5.6576133 9.1855412 -1.0998087 18
-5.5658627 10.705606 -1.3014145 53
-5.5581751 10.690819 -1.5132145 45
-5.5616398 10.697483 -1.7275411 31
-5.2572303 10.11197 -1.8367178 4
-4.7333202 9.1042595 -1.835187 4
-4.3016319 8.2739334 -1.8341234 4
-3.9528637 7.6030979 -1.8372467 4
-3.6557987 7.0317111 -1.8397473 5
-3.3994625 6.5386639 -1.8408544 7
-2.4479241 4.7084365 -1.8256066 7
-1.7911086 3.4450908 -1.8099545 11
-1.5312247 2.9961433 0.88818777 3
-3.5047998 6.8578324 1.4882385 20
-2.082186 4.0742073 0.64010507 7
-4.8855495 9.5595417 0.93207043 10
-5.4682755 10.699759 0.61817187 31
-5.4723911 10.707812 0.40584913 33
-4.5292082 10.722136 0.32369754 38
-5.6603837 9.335372 0.23936182 19
-5.4620638 10.687605 0.19232132 25
-4.5245018 10.710995 0.11770717 44
-5.6575451 9.3306913 0.046088845 17
-5.4663978 10.696086 -0.019916641 34
-4.5230484 10.707555 -0.087642074 42
-5.6612325 9.3367729 -0.14674985 13
-5.4726629 10.708345 -0.23258595 49
-4.5186248 10.697082 -0.29312724 40
-5.667294 9.3467693 -0.34026489 17
-5.4735675 10.710114 -0.44587195 50
-4.525229 10.712717 -0.49961102 48
-5.6135798 9.2581816 -0.52858669 17
-5.4654946 10.694319 -0.65779656 49
-4.5210986 10.702939 -0.7045216 42
-5.6306267 9.2862959 -0.72265184 19
-5.4630003 10.689438 -0.86997193 45
-4.5186677 10.697184 -0.90983814 44
-5.6396966 9.3012543 -0.91627502 17
-5.475141 10.713194 -1.0847627 47
-4.5226007 10.706494 -1.1162552 37
-5.6552448 9.3268967 -1.1119791 20
-5.4692707 10.701707 -1.2962673 51
-5.468955 10.70109 -1.5092272 48
-5.4706049 10.704318 -1.7224351 33
-5.1793194 10.13436 -1.8341721 4
-4.6606855 9.1195517 -1.8316659 4
-4.2401924 8.296773 -1.8325795 4
-3.8979077 7.6270256 -1.8364081 5
-3.6066191 7.0570621 -1.8397473 5
-3.3449011 6.5449591 -1.8360075 7
-2.4115508 4.7186751 -1.8230041 7
-1.7719634 3.467196 -1.8150245 6
-1.5033267 2.9929361 0.88410413 0
-3.4533119 6.875114 1.4867206 26
-2.0821414 4.1452842 0.64897233 8
-4.8025942 9.561367 0.92895657 11
-5.3701344 10.691269 0.61550021 28
-5.379559 10.710032 0.40449989 31
-4.4328218 10.701779 0.32214075 37
-5.6545067 9.4742451 0.24190448 18
-5.3729558 10.696885 0.19180863 25
-4.4373693 10.712758 0.11738325 46
-5.659915 9.4833069 0.046646368 16
-5.3718424 10.694669 -0.019843686 31
-4.4359398 10.709307 -0.087400801 48
-5.6676536 9.496273 -0.14863126 13
-5.3834109 10.717701 -0.23196717 49
-4.4315929 10.698812 -0.29231972 40
-5.6654215 9.4925327 -0.34412304 16
-5.3825159 10.715919 -0.44453833 51
-4.4396248 10.718204 -0.49840921 46
-5.6163774 9.4103584 -0.53502333 16
-5.3745666 10.700093 -0.65582776 47
-4.4371009 10.71211 -0.70306903 44
-5.6331577 9.4384747 -0.73141611 19
-5.3667521 10.684535 -0.8665024 46
-4.4362473 10.710049 -0.9082759 46
-5.6399913 9.4499245 -0.92701918 17
-5.3841224 10.719117 -1.08153 48
-4.4309845 10.697343 -1.1120486 43
-5.653214 9.4720793 -1.1245553 19
-5.3801446 10.711198 -1.2928357 52
-5.3762999 10.703544 -1.5042429 46
-5.3690829 10.689176 -1.713925 34
-5.1031241 10.159685 -1.8322629 4
-4.5969057 9.1518669 -1.8316659 4
-4.1715965 8.3051291 -1.8279479 5
-3.8480773 7.6610427 -1.8380852 4
-3.5590127 7.0855513 -1.8406519 6
-3.2973852 6.5646834 -1.8350381 7
-2.3734562 4.725256 -1.8191005 7
-1.484107 3.0068262 0.88512504 0
-3.3878481 6.8638382 1.4791313 31
-2.0882177 4.2307649 0.66005635 10
-4.714561 9.5517817 0.92480481 13
-5.28122 10.699841 0.61385614 29
-5.2798862 10.69714 0.40261099 35
-4.3489752 10.710237 0.32147357 39
-5.6489949 9.6169329 0.24453484 19
-5.2786741 10.694684 0.1911037 23
-4.3519382 10.717533 0.11709981 43
-5.6665092 9.6467495 0.047254581 25
-5.275804 10.688869 -0.019764099 30
-4.350533 10.714072 -0.087189689 43
-5.686306 9.6804514 -0.15088895 18
-5.2872148 10.711987 -0.23103899 48
-4.3417487 10.69244 -0.29131034 39
-5.6860909 9.6800852 -0.34947467 22
-5.2863431 10.710221 -0.44276017 52
-4.3496542 10.711908 -0.49669233 50
-5.6193485 9.5664625 -0.54165506 23
-5.2838254 10.70512 -0.65385896 49
-4.3486886 10.709531 -0.70089006 43
-5.6338415 9.591135 -0.74018031 22
-5.2761374 10.689545 -0.8639003 46
-4.3493662 10.7112 -0.90577638 44
-5.6566563 9.6299763 -0.94078517 21
-5.2827091 10.702859 -1.0761421 48
-4.3442106 10.698503 -1.1089894 38
-5.6716046 9.6554241 -1.1415941 27
-5.2841129 10.705703 -1.2876884 54
-5.2838783 10.705227 -1.4992586 44
-5.2803073 10.697992 -1.7093863 34
-5.0338197 10.198605 -1.8328992 4
-4.5311594 9.1802063 -1.8309616 4
-4.1204629 8.3481274 -1.8310356 5
-3.7823818 7.6631703 -1.8322154 5
-3.4939384 7.0787792 -1.8325113 5
-3.2463219 6.5771036 -1.83213 6
-2.3387358 4.7383189 -1.8177992 1
-0.92427117 1.8725892 -0.97342092 7
-1.4698294 3.031034 0.88920867 0
-3.3278515 6.862586 1.473819 32
-2.0897431 4.3093996 0.67003202 11
-4.6303744 9.5486059 0.92134506 14
-5.1924481 10.707696 0.61221206 29
-5.1893787 10.701366 0.40139666 36
-4.2667055 10.721762 0.32091758 41
-5.6557674 9.7842379 0.24777894 20
-5.1899219 10.702486 0.19059101 25
-4.2681365 10.725357 0.11685687 41
-5.6650834 9.800354 0.047812108 25
-5.1888356 10.700246 -0.019717673 31
-4.2667546 10.721886 -0.08700873 43
-5.688642 9.8411102 -0.15277036 18
-5.1931076 10.709056 -0.23018816 49
-4.2536893 10.689054 -0.29040188 43
-5.6924038 9.8476171 -0.35407957 23
-5.1940017 10.710899 -0.44127837 53
-4.2644215 10.716022 -0.49549052 48
-5.6344013 9.7472763 -0.5496521 23
-5.1897907 10.702215 -0.65145266 49
-4.2590532 10.702533 -0.69846904 44
-5.6446438 9.7649946 -0.75053811 25
-5.1874552 10.6974 -0.86158735 46
-4.2582626 10.700546 -0.90233946 43
-5.6670833 9.8038149 -0.95387959 23
-5.1922154 10.707216 -1.0729094 46
-4.2561655 10.695275 -1.1055477 38
-5.6697779 9.8084755 -1.1549816 30
-5.1936269 10.710127 -1.2838279 53
-5.1882324 10.699002 -1.4932775 45
-5.1864882 10.695406 -1.7031456 36
-4.9607744 10.229946 -1.8322629 4
-4.4566503 9.1903582 -1.8267363 4
-4.0500937 8.3519707 -1.825632 5
-3.7236712 7.6788321 -1.8296998 5
-3.442734 7.0994925 -1.8316069 5
-3.1935527 6.5856395 -1.8282524 6
-0.95392716 1.9671572 -0.75210303 6
-0.90959364 1.8757341 -0.97173101 8
-1.4403185 3.0237625 0.88410413 0
-3.2815526 6.8891954 1.4745779 24
-2.1004946 4.4097171 0.68333292 9
-4.5516081 9.5555134 0.91892314 15
-5.1003942 10.707618 0.61015701 31
-5.0990753 10.704849 0.40018237 34
-4.18013 10.721485 0.32002801 40
-5.6604757 9.9520998 0.25102302 20
-5.1013236 10.709569 0.19007832 27
-4.1771731 10.713901 0.11641146 46
-5.665741 9.9613571 0.048403423 24
-5.0933704 10.692873 -0.019638086 33
-4.1787214 10.717872 -0.086737297 42
-5.6830764 9.9918356 -0.1544905 18
-5.1027441 10.712552 -0.22949202 49
-4.171699 10.699861 -0.28989717 43
-5.692698 10.008752 -0.35843557 23
-5.1070714 10.721636 -0.44024113 53
-4.1793442 10.719469 -0.49428868 51
-5.6313982 9.9009771 -0.55608881 25
-5.0960603 10.69852 -0.64904636 50
-4.1755295 10.709685 -0.69701642 43
-5.6473699 9.9290571 -0.76009905 26
-5.0920644 10.690131 -0.85811788 49
-4.1718664 10.700291 -0.89983994 43
-5.6595907 9.9505444 -0.964288 23
-5.1053514 10.718025 -1.070395 48
-4.1756091 10.709889 -1.1040181 41
-5.6719894 9.9723425 -1.1695863 26
-5.1033425 10.713808 -1.2799673 53
-5.0980568 10.702711 -1.4887917 45
-5.096374 10.699178 -1.6980395 37
-4.8824472 10.250067 -1.8297172 4
-4.3889985 9.2141352 -1.8253279 4
-3.9916914 8.3800402 -1.825632 4
-3.6649296 7.694046 -1.8271842 5
-3.3763337 7.0881763 -1.8225619 5
-3.1491706 6.6112766 -1.8292218 6
-0.93041199 1.9532797 -0.74429578 3
-0.88400447 1.8558532 -0.95821124 9
-1.4273673 3.05126 0.88920867 1
-3.2150719 6.8728065 1.4662298 39
-2.1049075 4.4996262 0.6949712 2
-4.4628358 9.5401316 0.91442543 15
-5.0052042 10.699544 0.60769087 30
-5.0123591 10.714838 0.3992379 35
-4.0951934 10.724259 0.3192496 37
-5.6650653 10.123988 0.2543548 22
-5.0111799 10.712317 0.18950154 25
-4.0894322 10.709172 0.11604705 47
-5.6683292 10.129822 0.049028527 23
-5.0033417 10.695562 -0.019578395 32
-4.0923791 10.71689 -0.086496025 45
-5.6854458 10.160411 -0.15647942 20
-5.0125804 10.715312 -0.2287959 49
-4.0854864 10.698839 -0.28908968 44
-5.6929684 10.173854 -0.36291602 21
-5.0168519 10.724442 -0.4389075 51
-4.0944266 10.722252 -0.49308687 49
-5.6343236 10.069051 -0.56330568 24
-5.0060153 10.701277 -0.64707756 50
-4.0892658 10.708736 -0.69507957 42
-5.6519742 10.100594 -0.77019125 24
-5.0020947 10.692896 -0.85551572 48
-4.0871048 10.703077 -0.8976528 42
-5.6658931 10.125468 -0.97738242 22
-5.0118322 10.713712 -1.0664438 47
-4.086534 10.701583 -1.100194 41
-5.6702428 10.133242 -1.1837852 27
-5.0082002 10.705948 -1.2748201 50
-5.0080781 10.705687 -1.484306 45
-5.0064554 10.702218 -1.6929336 41
-4.8057489 10.273171 -1.8278079 4
-4.3128858 9.2195864 -1.8203983 4
-3.9347532 8.4112577 -1.826404 5
-3.5995252 7.6946464 -1.8213143 6
-3.3366725 7.1327505 -1.8279889 5
-3.1029384 6.633101 -1.8292218 6
-0.90713656 1.9391711 -0.73648846 6
-0.86795431 1.8554118 -0.9548313 10
-1.4028021 3.0541213 0.88716686 0
-3.1620944 6.8843775 1.463953 34
-1.7725124 3.8590388 0.59410614 4
-4.3844814 9.5457067 0.91200358 20
-4.918714 10.708815 0.60625231 29
-4.9174099 10.705976 0.39761883 38
-4.007627 10.718879 0.31824884 40
-5.6636705 10.289412 0.25751123 21
-4.9145703 10.699794 0.18866843 26
-4.0061693 10.71498 0.1158041 44
-5.6746249 10.309315 0.049704317 25
-4.9168639 10.704787 -0.019531971 33
-4.0076618 10.718971 -0.086284913 45
-5.6915212 10.340011 -0.1586296 19
-4.920959 10.713703 -0.22802241 51
-4.0036983 10.708371 -0.28858498 39
-5.7008471 10.356954 -0.36801875 22
-4.9251747 10.722881 -0.4374257 54
-4.0110798 10.728113 -0.49205676 53
-5.6313205 10.230641 -0.57013243 25
-4.9195147 10.710559 -0.64554632 50
-4.0060205 10.714583 -0.69362694 44
-5.6525307 10.269176 -0.78001779 27
-4.9123354 10.694928 -0.85291362 46
-4.0025129 10.705201 -0.89546573 46
-5.6623378 10.286992 -0.98913383 22
-4.9169602 10.704997 -1.0621336 50
-4.0005736 10.700013 -1.0971347 43
-5.6684418 10.29808 -1.1983898 25
-4.9150767 10.700896 -1.2701017 51
-4.9183073 10.707931 -1.4798201 49
-4.9167433 10.704525 -1.6878275 42
-4.7223735 10.281351 -1.8233529 4
-4.2517028 9.2566261 -1.8218068 4
-3.8693831 8.4242563 -1.8233162 5
-3.5522485 7.7338042 -1.8246685 5
-3.2754109 7.1310859 -1.8216574 5
-3.0452163 6.6299157 -1.8224361 6
-0.88568264 1.9282706 -0.72998238 9
-0.84136075 1.831775 -0.93962163 11
-1.3703183 3.0391603 0.88002056 1
-3.1026554 6.8812237 1.4586406 37
-1.7585546 3.9002099 0.59853977 5
-4.2980771 9.5324898 0.90785182 21
-4.8241286 10.699193 0.60378623 29
-4.8294029 10.71089 0.39653942 36
-3.9230783 10.720311 0.31747043 42
-5.6659503 10.465856 0.26093069 21
-4.8282442 10.708321 0.18821983 28
-3.9230194 10.72015 0.11556116 44
-5.6729746 10.47883 0.050329421 22
-4.823925 10.698741 -0.019459015 36
-3.9217343 10.716638 -0.086043641 46
-5.6801295 10.492046 -0.16034974 17
-4.8296051 10.711338 -0.22724894 50
-3.9192226 10.709774 -0.28787839 46
-5.6969261 10.523072 -0.37249917 22
-4.8304787 10.713276 -0.43564755 55
-3.9250987 10.725831 -0.49068326 49
-5.6320391 10.403216 -0.57754433 23
-4.8298459 10.711872 -0.64357752 51
-3.9256325 10.72729 -0.69265854 42
-5.6529064 10.441761 -0.79010999 25
-4.8211527 10.692593 -0.85002238 48
-3.9194565 10.710414 -0.89359105 44
-5.6643901 10.462974 -1.0022283 21
-4.8322802 10.717272 -1.0599784 52
-3.9175653 10.705246 -1.0948402 44
-5.6759796 10.484381 -1.2154286 25
-4.8255386 10.70232 -1.2662412 55
-4.8254876 10.702207 -1.4743375 45
-4.8288717 10.709713 -1.6832888 43
-4.6618433 10.339269 -1.8278079 4
-4.1805019 9.2717257 -1.81899 4
-3.80725 8.4439087 -1.8217723 5
-3.4820936 7.7227607 -1.8162831 5
-3.2239451 7.1502261 -1.8207529 6
-2.9972615 6.6474757 -1.8214667 7
-0.87219918 1.9344068 -0.72998238 10
-0.8255716 1.8309939 -0.93624169 16
-1.361588 3.0769467 0.88818777 0
-3.0497723 6.8919425 1.4563638 41
-1.7521226 3.9594853 0.60574442 5
-4.2233601 9.5440426 0.90612191 23
-4.7380013 10.70704 0.60234761 31
-4.7415671 10.715097 0.39546004 33
-3.8400536 10.724852 0.31680325 42
-5.6622806 10.635765 0.26417479 23
-4.737184 10.705194 0.18757898 27
-3.8413415 10.728448 0.1153587 46
-5.6767488 10.662941 0.051022105 30
-4.7361674 10.702895 -0.019405957 34
-3.8400807 10.724927 -0.085892849 43
-5.683805 10.676195 -0.16255368 31
-4.7433796 10.719194 -0.22670749 53
-3.8308792 10.699228 -0.28686902 42
-5.6890812 10.686107 -0.37685516 47
-4.7426281 10.717495 -0.43446213 55
-3.8366511 10.715348 -0.48896638 54
-5.6418839 10.597453 -0.58612657 23
-4.7387829 10.708806 -0.64138997 51
-3.8358414 10.713087 -0.68999541 45
-5.6530194 10.618369 -0.80046773 23
-4.7383151 10.707748 -0.84857678 47
-3.8351781 10.711235 -0.89140391 43
-5.6736236 10.657071 -1.0170015 24
-4.7444453 10.721602 -1.0571048 49
-3.8346801 10.709844 -1.0925457 44
-5.6811881 10.67128 -1.2324673 40
-4.7394404 10.710292 -1.2632385 55
-4.7394123 10.710229 -1.4708486 47
-4.7395658 10.710576 -1.6781827 41
-4.5895481 10.371563 -1.8278079 4
-4.1092978 9.2862825 -1.8161731 5
-3.7450314 8.4631042 -1.8202285 5
-3.4344244 7.761188 -1.8196373 5
-3.1755257 7.1761227 -1.8216574 6
-2.9413581 6.646946 -1.8156505 7
-0.85408145 1.9300721 -0.72607875 13
-0.80983466 1.8300822 -0.93286175 17
-1.341614 3.0899251 0.88920867 0
-2.992198 6.8914509 1.4518104 46
-1.7433698 4.0152249 0.61239487 6
-4.1407561 9.5367413 0.9026621 22
-4.648818 10.706879 0.60049808 31
-4.6539087 10.718603 0.39438066 34
-3.7571573 10.728756 0.31613606 41
-5.6064367 10.710466 0.26505157 41
-4.6448107 10.69765 0.18687403 24
-3.7544513 10.721029 0.11499428 46
-5.5984588 10.695225 0.050988317 43
-4.6485863 10.706346 -0.0193529 33
-3.7518928 10.713723 -0.085591257 44
-5.5980029 10.694354 -0.16223115 35
-4.6572804 10.72637 -0.22616605 49
-3.7481613 10.703068 -0.28626338 44
-5.5920897 10.683058 -0.37536168 40
-4.6581383 10.728345 -0.43357304 54
-3.7525041 10.715469 -0.48776457 51
-5.6066718 10.710915 -0.5902226 40
-4.6495895 10.708656 -0.63942116 47
-3.7517188 10.713226 -0.68830067 43
-5.6009626 10.700008 -0.80365473 44
-4.645967 10.700314 -0.84539646 45
-3.7497618 10.707639 -0.88890439 44
-5.6009331 10.699952 -1.0173372 41
-4.6551986 10.721575 -1.0538721 52
-3.7506058 10.710048 -1.0898689 44
-5.5973229 10.693055 -1.2304388 46
-4.6550493 10.721231 -1.2606649 53
-4.6518798 10.713931 -1.4668611 47
-4.6504836 10.710715 -1.6730767 39
-4.5154562 10.399729 -1.8271714 4
-4.0396628 9.3039093 -1.8140604 5
-3.6796036 8.4746428 -1.8171407 5
-3.3723691 7.7670383 -1.8154446 5
-3.1175902 7.1802468 -1.8171349 5
-2.8871539 6.6495194 -1.8108035 6
-0.83456039 1.9221096 -0.72087389 14
-0.78837502 1.8157381 -0.92272192 18
-1.3275871 3.1170068 0.89431322 0
-2.9347801 6.8904934 1.4472568 38
-1.7354758 4.0746779 0.61959952 6
-4.0678301 9.5507517 0.9012782 24
-4.5567374 10.698645 0.59823745 29
-4.5554671 10.695662 0.39235681 33
-3.6743941 10.732028 0.31546888 40
-5.5132289 10.713787 0.26417479 39
-4.563745 10.715097 0.18661769 26
-3.6730349 10.728058 0.11479183 43
-5.5108438 10.709152 0.050870053 44
-4.5564876 10.698057 -0.019279946 30
-3.67571 10.735871 -0.085561097 41
-5.5067353 10.701168 -0.16174737 33
-4.5681787 10.725507 -0.22546992 49
-3.6733487 10.728975 -0.28626338 32
-5.4972486 10.682733 -0.37399265 43
-4.565897 10.72015 -0.43194306 51
-3.6711326 10.722502 -0.48690614 51
-5.5098219 10.707166 -0.58788198 41
-4.5621953 10.711459 -0.63767111 46
-3.6690755 10.716494 -0.68684804 43
-5.5023851 10.692715 -0.80020213 44
-4.5586452 10.703123 -0.84308344 49
-3.6684589 10.714693 -0.88734215 45
-5.502388 10.692719 -1.0129725 41
-4.5646243 10.717161 -1.0502801 52
-3.6718752 10.724671 -1.0887216 42
-5.5043268 10.696487 -1.226382 42
-4.566062 10.720537 -1.2568045 56
-4.5598621 10.70598 -1.4613785 48
-4.5600801 10.706491 -1.6674033 42
-4.4257207 10.391033 -1.8201708 4
-3.9653533 9.3101482 -1.8098351 5
-3.6141982 8.4856806 -1.8140529 5
-3.3211281 7.7975893 -1.8171216 5
-3.0673866 7.2018366 -1.8171349 5
-2.8482647 6.687366 -1.8156505 6
-0.81074613 1.9035296 -0.71176535 17
-0.77567959 1.8211977 -0.92272192 17
-1.3087752 3.1333368 0.89635503 0
-2.8775215 6.8890705 1.4427034 35
-1.7314161 4.1451812 0.62846678 7
-3.9887667 9.5495005 0.89851034 25
-4.4773169 10.719138 0.5976209 29
-4.4729824 10.708761 0.39168221 33
-3.6361735 10.86738 0.31869361 17
-5.4130335 10.702053 0.26294729 39
-4.4734135 10.709792 0.18597683 25
-3.6462772 10.897577 0.11633048 17
-5.4106755 10.697391 0.050633527 44
-4.4708982 10.703771 -0.019233519 33
-3.6590521 10.935758 -0.086948417 18
-5.4102354 10.69652 -0.16110231 31
-4.4762335 10.716544 -0.22461909 49
-3.66941 10.966714 -0.29191598 15
-5.4081039 10.692307 -0.37299702 39
-4.4801602 10.725945 -0.43090582 53
-3.6139383 10.800926 -0.48930976 21
-5.4151063 10.706151 -0.58573645 43
-4.4734492 10.709879 -0.63570231 48
-3.6245759 10.832719 -0.69265854 23
-5.4095926 10.69525 -0.79754633 47
-4.4730487 10.70892 -0.84105957 47
-3.6378534 10.872401 -0.8982777 19
-5.4096193 10.695303 -1.0096149 40
-4.4774089 10.719358 -1.0474066 50
-3.6449223 10.893528 -1.1032532 10
-5.407969 10.692039 -1.2215137 46
-4.4696479 10.700778 -1.2507992 48
-4.4727716 10.708256 -1.457391 50
-4.4699621 10.70153 -1.6617301 39
-4.3530693 10.421678 -1.8201708 4
-3.8926711 9.3194389 -1.806314 6
-3.5503306 8.4998417 -1.8117372 5
-3.2560575 7.7953224 -1.8112519 5
-3.0110266 7.2086945 -1.8135169 5
-2.7955256 6.6927638 -1.8117729 4
-0.7930637 1.8986727 -0.70786172 20
-0.75875431 1.8165326 -0.91765201 18
-1.3176494 3.2175567 0.91779405 2
-2.8204298 6.8871837 1.4381498 38
-1.7219535 4.2048235 0.63567144 7
-3.3828621 8.260582 0.77499545 4
-4.385726 10.709467 0.59536034 30
-4.3875117 10.713828 0.39073774 33
-3.6111474 11.048326 0.32325274 3
-5.3221679 10.707354 0.26215819 37
-4.3864155 10.71115 0.18546414 25
-4.321907 13.222898 0.14082751 47
-5.319838 10.702666 0.050481476 45
-4.3854566 10.708809 -0.019187093 33
-4.3269763 13.238407 -0.10501366 45
-5.3122845 10.687469 -0.1604035 32
-4.3891892 10.717924 -0.2240003 47
-4.3195095 13.215564 -0.35096535 42
-5.3119717 10.68684 -0.37150353 38
-4.3900266 10.719969 -0.42942402 49
-3.6129394 11.053808 -0.49961102 16
-5.3206706 10.704341 -0.58359092 43
-4.38344 10.703885 -0.63351476 49
-3.6394119 11.134802 -0.7103321 7
-5.3170295 10.697016 -0.79489046 44
-4.3860869 10.710348 -0.83874661 46
-3.7984924 11.62151 -0.95795459 2
-5.3188529 10.700685 -1.0065931 39
-4.3919015 10.724546 -1.0448923 48
-5.3154802 10.693899 -1.2174569 47
-4.3888102 10.716998 -1.2490834 56
-4.3843732 10.706164 -1.4529053 44
-4.3861442 10.710487 -1.658326 41
-4.2757215 10.440848 -1.8182615 5
-3.8275189 9.346386 -1.806314 6
-3.4804962 8.4989939 -1.8063335 5
-3.1956315 7.8033853 -1.8078977 5
-2.9562006 7.2187209 -1.8108034 5
-0.77979004 1.9041626 -0.70786172 21
-0.74605489 1.8217851 -0.91765201 19
-1.267782 3.1584828 0.89839685 6
-2.7635019 6.8848381 1.4335963 28
-1.7191179 4.2829165 0.64564711 7
-3.3666742 8.3875484 0.78468287 4
-4.2974615 10.706461 0.59351075 31
-4.3051629 10.725648 0.39006311 34
-4.2195611 13.221642 0.38596845 42
-5.2297368 10.708314 0.2612814 36
-4.2981224 10.708108 0.18488738 24
-4.2209759 13.226075 0.14054407 44
-5.2291918 10.707197 0.050329421 41
-4.3031383 10.720604 -0.019153932 36
-4.2235045 13.233998 -0.10474223 45
-5.2217455 10.691951 -0.15991971 33
-4.3023396 10.718614 -0.22338152 49
-4.2174163 13.214922 -0.35015786 39
-5.2179341 10.684146 -0.3701345 41
-4.3046575 10.724389 -0.42838678 48
-4.2233772 13.2336 -0.5967862 55
-5.2335377 10.716096 -0.58222556 41
-4.298192 10.708282 -0.63198346 48
-4.0665712 12.742261 -0.81104726 36
-5.2264566 10.701597 -0.79250026 44
-4.2963467 10.703684 -0.83585536 51
-4.0518932 12.696269 -1.0441892 23
-5.2247772 10.698158 -1.0028998 38
-4.3050513 10.725369 -1.0420188 48
-1.624573 5.0904636 -0.51319438 0
-5.2249765 10.698565 -1.2138058 42
-4.2990704 10.710469 -1.244794 50
-4.2991748 10.71073 -1.4494163 42
-4.2994647 10.711452 -1.6537873 40
-4.1983137 10.45945 -1.8163522 4
-3.7563088 9.358263 -1.8034972 6
-3.4225395 8.5267286 -1.8071055 5
-3.1381621 7.8182459 -1.8062205 5
-2.8955724 7.2138715 -1.804472 5
-0.80519432 2.0060172 -0.53994519 0
-0.76788646 1.9130704 -0.70916289 21
-0.73061728 1.8202201 -0.91427213 18
-1.2372072 3.1456614 0.8922714 7
-2.7110569 6.8929987 1.4313196 23
-1.7196242 4.372231 0.65728539 6
-3.3663788 8.5591869 0.79852211 5
-4.2123761 10.710178 0.59207219 32
-4.2155466 10.718239 0.3887139 34
-4.1224036 13.235505 0.38552365 44
-5.1479325 10.730141 0.26093069 39
-4.2115498 10.708077 0.18437469 25
-4.1202178 13.228486 0.14026064 45
-5.1370115 10.707378 0.050160475 43
-4.215013 10.716882 -0.019094242 34
-4.1191225 13.22497 -0.10444064 45
-5.1331334 10.699295 -0.15948968 33
-4.2171578 10.722336 -0.22284009 47
-4.1167388 13.217316 -0.34945127 42
-5.1293821 10.691476 -0.36913884 41
-4.2223668 10.735579 -0.42764586 54
-4.119009 13.224605 -0.59506935 74
-5.1361313 10.705544 -0.57968986 43
-4.2130961 10.712008 -0.63045222 48
-3.969209 12.743653 -0.80935252 36
-5.1343541 10.701839 -0.78984439 45
-4.2098346 10.703715 -0.83354241 48
-3.9643502 12.728053 -1.0445017 31
-5.1327214 10.698437 -0.99954224 39
-4.2140298 10.714382 -1.0380676 49
-1.5582123 5.00284 -0.50325173 4
-5.1312251 10.695317 -1.2093433 46
-4.2169142 10.721716 -1.2426493 50
-4.215579 10.718322 -1.4464258 44
-4.2144351 10.715412 -1.6498159 42
-4.1049547 10.437054 -1.8074423 6
-3.6894429 9.3805943 -1.802793 6
-3.3600552 8.5431089 -1.8055617 4
-3.0749147 7.8181248 -1.8011893 5
-2.8451395 7.2339101 -1.804472 0
-0.79117006 2.0115895 -0.53994519 1
-0.74205214 1.8867048 -0.69745195 22
-0.71523798 1.8185284 -0.91089219 18
-1.2138258 3.1506133 0.89125049 2
-2.6572211 6.8970985 1.4282839 23
-1.7175417 4.4580612 0.66836941 8
-3.3638482 8.7312241 0.8123613 6
-4.124577 10.705776 0.5902226 29
-4.1248074 10.706373 0.38722974 35
-4.0182786 13.225704 0.38441166 46
-5.0490313 10.715173 0.25970319 41
-4.126626 10.711095 0.18392609 26
-4.0184631 13.226313 0.1399367 45
-5.045085 10.706798 0.049991526 42
