# .PCD v0.7 - Point Cloud Data file format
VERSION 0.7
FIELDS x y z intensity
SIZE 4 4 4 4
TYPE F F F F
COUNT 1 1 1 1
WIDTH 1345
HEIGHT 1
VIEWPOINT 0 0 0 1 0 0 0
POINTS 1345
DATA ascii
-3.6962159 17.84836 0.18451723 20
-3.9087155 10.72163 0.048200686 46
-3.7583666 13.220125 -0.022788404 31
-3.7255006 17.989769 -0.13852032 16
-3.9056578 10.713243 -0.15325415 35
-3.7609496 13.229211 -0.26600036 75
-1.1084872 5.352685 -0.1379838 0
-3.9041193 10.709023 -0.35482633 43
-3.7656295 13.245672 -0.5104782 54
-1.0486592 5.0637865 -0.2221638 57
-3.9068375 10.716479 -0.55686897 45
-1.4515136 5.1057267 -0.29072553 2
-3.9028592 10.705566 -0.75823998 46
-1.4346133 5.0462794 -0.38019711 18
-1.0342896 4.9943976 -0.39961642 0
-3.9058778 10.713846 -0.96059471 44
-1.4238493 5.0084167 -0.46946517 39
-1.0246329 4.9477677 -0.48527846 0
-3.9049511 10.711305 -1.162284 48
-1.4115936 4.9653072 -0.55676866 42
-1.3935212 4.9017372 -0.63997608 24
-0.66373414 2.3346972 -0.34777758 1
-0.61877596 2.1765561 -0.36467057 3
-0.58251464 2.0490062 -0.38098085 11
-0.57526731 2.0235138 -0.41375846 17
-0.57219136 2.0126939 -0.44862026 19
-0.56364423 1.9826293 -0.47847903 22
-0.56032151 1.9709414 -0.51183313 28
-0.538885 1.8955381 -0.67793375 28
-0.51453853 1.809899 -0.87709284 23
-0.65609795 2.37063 0.64929587 3
-1.9107432 6.9039469 1.3842666 38
-1.9431715 7.0211177 1.0191803 18
-2.1248119 7.6774259 0.69161421 7
-3.6632817 13.236264 0.70654082 24
-3.6799009 13.296313 0.46562013 21
-3.6854947 18.444115 0.52307564 19
-3.823478 10.719805 0.24953251 41
-3.6879244 13.325304 0.22154441 13
-3.7063243 18.548355 0.19148168 21
-3.823019 10.718517 0.048065528 48
-3.7033298 13.380967 -0.023020532 15
-3.7283542 18.658604 -0.1434664 17
-3.8200204 10.710111 -0.1528241 35
-3.6599729 13.224309 -0.26538157 74
-1.02643 5.1367846 -0.13223027 3
-3.818516 10.705893 -0.35383067 41
-3.6688068 13.256227 -0.50988543 48
-1.0101496 5.0553088 -0.22147705 69
-3.8225319 10.717152 -0.55550361 46
-1.4083785 5.0887895 -0.28919423 21
-1.2525376 6.268343 -0.38760793 0
-3.8199804 10.709998 -0.75664651 52
-1.3929662 5.0331016 -0.37846234 34
-0.99783409 4.9936757 -0.39899153 0
-3.8229518 10.718328 -0.95858014 42
-1.3814132 4.9913578 -0.46695083 60
-0.99006605 4.9548006 -0.48527846 0
-3.8180454 10.704573 -1.1586328 46
-1.3715932 4.9558764 -0.5546239 42
-1.3560932 4.8998709 -0.63848084 23
-0.64847589 2.3430898 -0.34834489 1
-0.59724659 2.1579869 -0.36085203 4
-0.56504577 2.0416381 -0.37886822 10
-0.55903369 2.0199151 -0.41221458 17
-0.55499744 2.005331 -0.44610462 20
-0.54979008 1.9865158 -0.47847903 20
-0.54654896 1.9748049 -0.51183313 28
-0.52362156 1.891963 -0.67533129 24
-0.49899024 1.8029644 -0.87202293 24
-0.65863734 2.4461083 0.66869313 3
-1.8573924 6.8981562 1.3804721 16
-1.8889577 7.0153861 1.0164093 18
-2.1353998 7.9306459 0.71306503 8
-3.6590688 13.589389 0.7240091 17
-3.6857293 13.688402 0.47843784 20
-3.6904688 19.164354 0.54275769 21
-3.7406437 10.72358 0.24900644 41
-3.697753 13.733057 0.22788891 15
-3.6992698 19.210056 0.1980412 22
-3.7401922 10.722285 0.047964159 45
-3.7138224 13.792738 -0.023683757 13
-3.8823931 20.161003 -0.15480618 32
-3.7346184 10.706306 -0.15239407 36
-3.6257896 13.465794 -0.26971307 22
-0.9897874 5.1398988 -0.13212933 8
-3.7318304 10.698315 -0.35271055 43
-3.6437249 13.532403 -0.51951712 12
-0.9748323 5.0622377 -0.22147705 18
-3.7410395 10.724715 -0.55452836 43
-1.3676256 5.0792146 -0.28810045 32
-0.97092259 5.041935 -0.31134531 0
-3.7398596 10.721332 -0.75558418 44
-1.3546827 5.031146 -0.37759498 31
-1.2132987 6.3005772 -0.5027231 0
-3.7388413 10.718412 -0.95622987 41
-1.3444618 4.993187 -0.46623242 61
-0.9584626 4.977231 -0.48680812 0
-3.7379777 10.715938 -1.1570101 47
-1.3297232 4.9384494 -0.55162132 41
-1.3197887 4.9015536 -0.63748395 19
-0.62077796 2.3055029 -0.3421042 1
-0.56881869 2.1125317 -0.35257852 3
-0.54873121 2.0379288 -0.37745976 12
-0.54491842 2.0237684 -0.41221458 18
-0.53691649 1.9940503 -0.44275045 19
-0.53388208 1.9827808 -0.47667003 22
-0.527704 1.959836 -0.5069862 27
-0.50745016 1.8846153 -0.67142767 15
-0.4845058 1.7994025 -0.86864299 30
-0.64937991 2.4805787 0.67686033 2
-1.8399349 7.0284023 1.0164093 19
-2.1486075 8.2075062 0.73659164 7
-3.6683095 14.012646 0.74517655 18
-3.6923313 14.104406 0.4920651 20
-3.6979556 19.952358 0.5643301 14
-3.6605251 10.734294 0.24865572 40
-3.7010496 14.137711 0.2341693 11
-3.7392855 20.175354 0.20771854 40
-3.6613722 10.736777 0.047913473 42
-3.7136755 14.18594 -0.024313821 12
-3.7452025 20.207279 -0.15495697 28
-3.6597834 10.732119 -0.15239407 28
-3.6238587 13.842847 -0.27675176 22
-0.95315373 5.1427512 -0.13202839 11
-3.6673748 10.75438 -0.35370621 20
-1.4172353 5.4137239 -0.20745122 1
-0.94238287 5.0846367 -0.2221638 5
-3.6583388 10.727882 -0.55335808 42
-1.3290981 5.0770473 -0.2874442 29
-0.9298811 5.0171833 -0.30940846 0
-3.6571898 10.724514 -0.75399065 44
-1.3154842 5.025043 -0.3764385 32
-0.92074889 4.9679103 -0.39586708 0
-3.6600618 10.732935 -0.95522261 37
-1.3045254 4.983181 -0.46443647 52
-0.91861475 4.9563956 -0.48413125 0
-3.6605065 10.73424 -1.1561987 43
-1.2962211 4.9514599 -0.55205029 42
-1.2885525 4.9221663 -0.63897926 10
-0.60065627 2.2944584 -0.33983484 2
-0.55105621 2.10499 -0.35066926 3
-0.53449041 2.0417099 -0.37745976 12
-0.5277946 2.0161328 -0.40989879 17
-0.5229823 1.99775 -0.44275045 20
-0.5170663 1.9751515 -0.47395653 23
-0.51400888 1.9634722 -0.5069862 28
-0.49715436 1.8990895 -0.67533129 3
-0.47376806 1.8097557 -0.87202293 31
-0.92757332 3.6469913 0.99334103 11
-0.73959625 2.9079115 0.57981342 6
-1.7839875 7.0142026 1.0125299 17
-1.8063974 7.102313 0.63625741 2
-3.6757529 14.452161 0.76716608 14
-3.6962566 14.532777 0.50609714 17
-3.7037196 20.792543 0.5873481 18
-3.6310105 10.896169 0.25181213 18
-3.8684368 15.209747 0.25147247 14
-3.731616 20.949154 0.21541183 27
-3.6482902 10.948023 0.048741318 20
-3.8758297 15.238813 -0.026071366 21
-3.7611618 21.115023 -0.16171259 16
-3.6530511 10.96231 -0.15529682 12
-3.6316221 14.278649 -0.28495067 23
-0.91933107 5.1610904 -0.13233121 10
-3.6667798 11.003509 -0.36104915 14
-1.3399943 5.2685294 -0.20152403 1
-0.90265751 5.0674858 -0.22113366 2
-3.6073532 10.825177 -0.55706406 19
-1.2867299 5.0591073 -0.2859129 55
-0.8948319 5.0235529 -0.30940846 0
-3.6200836 10.863379 -0.76195818 20
-1.2744704 5.0109057 -0.37470376 34
-0.88884115 4.9899216 -0.39711687 0
-3.6367075 10.913265 -0.96898854 16
-1.2667586 4.9805846 -0.46335888 59
-1.7952553 5.3873172 -0.57891071 1
-1.2577008 4.944972 -0.55033451 40
-1.24731 4.9041176 -0.6354903 2
-0.58267134 2.2909212 -0.33870018 1
-0.53926748 2.1202676 -0.35257852 4
-0.51828247 2.0377598 -0.37605134 12
-0.51273912 2.015965 -0.40912685 17
-0.5070945 1.9937716 -0.44107336 20
-0.50326461 1.9787133 -0.47395653 23
-0.49646246 1.951969 -0.50310868 29
-0.47083139 1.8511939 -0.65711427 1
-0.45576018 1.7919376 -0.8618831 15
-0.90487128 3.6646423 0.99640375 13
-0.72210157 2.9244425 0.5820902 3
-1.726429 6.9918728 1.007542 33
-1.7863837 7.2346835 0.64698279 2
-3.6791477 14.900197 0.78956658 16
-3.6953335 14.965748 0.52026403 19
-3.7174625 21.748037 0.61359084 14
-4.3049359 13.225667 0.3049452 42
-3.7717457 15.27521 0.25211331 28
-3.8191237 22.342781 0.22946218 49
-4.305932 13.228727 0.058759898 48
-3.7703071 15.269384 -0.026077999 27
-3.8198853 22.347235 -0.17094125 44
-4.2993917 13.208634 -0.18668947 35
-3.773442 15.282081 -0.30444241 41
-0.88125628 5.1555581 -0.13202839 12
-4.3026481 13.218638 -0.43273628 38
-1.2811412 5.1884995 -0.19811592 2
-0.86658454 5.069725 -0.22096199 5
-3.5947573 11.043849 -0.56701159 8
-1.2485069 5.056334 -0.28525665 45
-0.85772091 5.0178709 -0.30868214 0
-4.1445236 12.732847 -0.89103162 24
-1.2385002 5.0158076 -0.37441462 33
-0.84592056 4.9488358 -0.39336753 0
-4.1427317 12.727342 -1.1274649 12
-1.2252716 4.9622331 -0.46084455 5
-0.85603124 5.0079861 -0.48795533 0
-1.6479818 5.0629458 -0.54280484 0
-1.2221944 4.9497709 -0.54990554 43
-0.65266442 2.6432285 -0.34191871 1
-0.5609684 2.2718687 -0.33529615 1
-0.52161205 2.112479 -0.35066926 4
-0.50121182 2.02986 -0.37393871 12
-0.49865255 2.0194952 -0.40912685 18
-0.49316299 1.9972631 -0.44107336 20
-0.49130636 1.9897439 -0.47576553 23
-0.48468363 1.9629225 -0.50504744 26
-0.47059029 1.9058458 -0.67533129 1
-0.44323897 1.7950757 -0.8618831 6
-0.88286877 3.6859148 1.0004873 16
-0.71173054 2.9714248 0.59043831 3
-1.6766517 6.9999027 1.0069878 25
-1.781317 7.436873 0.66393584 3
-3.6839054 15.380046 0.81361115 15
-3.7006462 15.449937 0.53618497 16
-3.7206216 22.720474 0.6402784 19
-4.2015982 13.221099 0.30415609 40
-3.7143891 15.507313 0.25550985 13
-3.7516029 22.909666 0.23500943 21
-4.2013583 13.220345 0.058590949 45
-3.7381542 15.60653 -0.026608579 13
-3.7801301 23.083872 -0.17636986 16
-4.1998053 13.215458 -0.18636693 37
-3.6620033 15.288606 -0.30405566 40
-0.84265733 5.1457996 -0.13162462 14
-4.200573 13.217873 -0.43174061 43
-1.2299898 5.1351209 -0.19574504 5
-0.82664931 5.0480447 -0.21976016 5
-4.0378838 12.705941 -0.65088332 15
-1.2103856 5.0532746 -0.28460038 35
-0.82202345 5.0197964 -0.30844006 0
-4.0482779 12.738648 -0.88943809 37
-1.1941601 4.9855342 -0.37152341 2
-0.82230604 5.021522 -0.39867908 0
-4.0453267 12.729362 -1.1251146 10
-1.1933827 4.9822888 -0.46192211 6
-0.81461358 4.9745469 -0.48413125 0
-1.5896963 5.0022712 -0.53509688 12
-1.1820505 4.9349771 -0.54733187 46
-0.62217706 2.5975451 -0.33543918 1
-0.53771555 2.2449243 -0.33075747 1
-0.50961113 2.1275904 -0.35257852 4
-0.48335975 2.017993 -0.37112182 13
-0.48454168 2.0229273 -0.40912685 18
-0.47647437 1.9892468 -0.43855774 21
-0.47558817 1.9855471 -0.47395653 24
-0.47096804 1.9662584 -0.50504744 27
-0.45551142 1.901728 -0.67272884 1
-0.43238521 1.8051777 -0.86526304 1
-0.85361624 3.6769192 0.99640375 16
-0.6980738 3.0069261 0.59650964 3
-1.6268464 7.0075784 1.0064336 33
-1.7690061 7.6199255 0.67915893 4
-3.6848471 15.872337 0.83827227 17
-3.704797 15.95827 0.55291545 20
-3.7338839 23.844084 0.67119145 14
-4.1009035 13.223372 0.30354235 39
-3.7163799 16.008163 0.26332831 17
-3.7704082 24.077324 0.24671133 119
-4.100667 13.222611 0.058472686 44
-3.7331336 16.08033 -0.027371287 17
-3.8756945 24.749668 -0.18888585 47
-4.1027031 13.229176 -0.18615192 37
-3.6365747 15.664406 -0.31101701 20
-0.80361915 5.1318049 -0.13111994 12
-4.0987186 13.216328 -0.43074495 42
-1.1886863 5.1202202 -0.19485597 15
-0.79386032 5.0694861 -0.22044691 1
-3.9467144 12.726191 -0.6504932 15
-1.1714648 5.0460391 -0.28372535 30
-0.78572327 5.0175242 -0.30795583 0
-3.949789 12.736104 -0.88731343 30
-1.1656407 5.0209527 -0.37354726 24
-0.78291053 4.9995623 -0.39649197 0
-1.6233947 5.2346401 -0.46166295 0
-1.1567689 4.9827375 -0.46120372 1
-0.77493674 4.9486427 -0.48107195 1
-1.5500202 4.998044 -0.53347415 27
-1.1466696 4.9392352 -0.54690295 41
-0.60043752 2.5863614 -0.33344549 1
-0.52023906 2.2409096 -0.32962278 1
-0.48938704 2.1080158 -0.34876001 4
-0.47193104 2.0328248 -0.37323448 12
-0.46685687 2.010968 -0.40603909 18
-0.46345967 1.9963347 -0.43939629 21
-0.45554686 1.9622506 -0.46762505 22
-0.46073985 1.9846193 -0.50892496 25
-0.42469135 1.8293417 -0.87540287 0
-0.83131886 3.6978822 1.0004873 17
-0.68740135 3.0577068 0.60561663 3
-1.582229 7.0380898 1.0092046 26
-1.7708311 7.8770318 0.70095569 4
-3.6931083 16.427727 0.86622155 15
-3.7055328 16.482994 0.57018566 17
-3.7399044 25.024294 0.70366126 14
-4.0038614 13.236366 0.30319163 39
-3.7299747 16.591719 0.27249259 17
-3.7707191 25.23048 0.25825125 17
-4.000155 13.224114 0.058354422 39
-3.733958 16.609436 -0.028226847 15
-3.8145554 25.523796 -0.1945859 15
-3.9928815 13.200068 -0.18534559 15
-3.6402838 16.192753 -0.32099491 32
-0.76718181 5.1333351 -0.131019 13
-3.9970968 13.214004 -0.42974931 31
-1.1502812 5.116694 -0.19441143 20
-0.76081204 5.090714 -0.22113366 0
-3.8358004 12.680774 -0.64678723 9
-1.1344562 5.0463014 -0.28328785 27
-0.75244564 5.0347333 -0.30868214 0
-3.7983828 12.557075 -0.87297195 3
-0.74504077 4.9851861 -0.39492974 2
-1.5314187 5.0627174 -0.44554672 0
-0.73742718 4.9342427 -0.47915989 0
-1.502418 4.9668441 -0.52901161 57
-1.1060534 4.9199595 -0.54390031 49
-0.57017958 2.5362794 -0.32646757 1
-0.50197643 2.2328975 -0.32792076 2
-0.47205991 2.0998225 -0.34685072 3
-0.45686412 2.0322285 -0.37253025 13
-0.45280629 2.0141783 -0.40603909 18
-0.44607994 1.9842581 -0.4360421 21
-0.44525516 1.9805893 -0.47124305 22
-0.44261748 1.9688562 -0.50407809 36
-0.41270497 1.8357992 -0.87709284 0
-0.78493452 3.6091166 0.97496474 5
-0.68106121 3.1315088 0.61927718 3
-1.5397905 7.0799322 1.0136383 27
-1.7725375 8.1500998 0.72413635 6
-3.6980336 17.0035 0.89519835 14
-3.718658 17.098331 0.59055907 18
-3.7577891 26.403624 0.74169099 14
-3.9045701 13.240981 0.30266556 38
-3.8180437 17.555305 0.28787315 28
-3.761867 26.432278 0.27027705 17
-3.900948 13.228699 0.058253054 46
-3.8176785 17.553625 -0.029785426 32
-3.8898876 27.331797 -0.20815746 44
-3.8983679 13.219949 -0.18523809 36
-3.6214893 16.65155 -0.32958058 13
-0.72794509 5.1148129 -0.13041335 17
-3.901356 13.230082 -0.42937595 43
-1.1102844 5.1050706 -0.19367053 23
-0.71793348 5.0444679 -0.21890174 0
-3.769779 12.783884 -0.65068823 7
-1.0983499 5.0501957 -0.2830691 4
-0.71390283 5.0161467 -0.30722952 1
-3.8189979 12.950792 -0.8984679 5
-1.3675833 6.2881265 -0.46635583 0
-0.71021944 4.9902658 -0.39492974 0
-1.4734894 4.9968228 -0.43883163 15
-1.070153 4.9205465 -0.45401987 0
-0.70857197 4.9786901 -0.48298401 0
-1.4632043 4.9619446 -0.52738887 49
-1.0716786 4.9275613 -0.54390031 68
-0.55161572 2.5363204 -0.32596913 1
-0.48805863 2.2440858 -0.32905546 1
-0.45319265 2.0837727 -0.34366861 3
-0.44182861 2.0315208 -0.37182605 14
-0.4353973 2.00195 -0.40295133 19
-0.43387872 1.9949676 -0.4377192 22
-0.42893302 1.9722273 -0.46852955 24
-0.42803675 1.9681063 -0.50310868 22
-0.77960867 3.7091286 1.0004873 11
-0.67291707 3.201524 0.63217878 3
-1.4984773 7.1292758 1.0191803 21
-1.7844534 8.4898577 0.75319868 9
-3.6983881 17.595747 0.92499715 14
-3.7233739 17.714621 0.61093247 19
-3.7742665 27.915115 0.78339028 13
-3.8009925 13.229483 0.30178878 40
-3.7406459 17.796797 0.29139787 11
-3.8050077 28.142481 0.28748569 16
-3.7996628 13.224854 0.058117896 45
-3.7534626 17.857775 -0.030256314 12
-3.8388581 28.392845 -0.21602896 14
-3.7982492 13.219934 -0.18486181 34
-3.688602 17.549189 -0.34682921 47
-0.69275498 5.123733 -0.13051429 19
-3.8033772 13.237782 -0.42875364 39
-1.0721531 5.1009612 -0.19322599 26
-0.68323439 5.0533175 -0.21907341 0
-1.4926959 5.1953788 -0.26390323 1
-1.0597824 5.0421057 -0.28219408 75
-0.67833114 5.0170522 -0.30698743 0
-1.4570101 5.0711727 -0.35110098 2
-1.3211917 6.2858071 -0.46548846 0
-0.6705547 4.9595361 -0.39211774 0
-1.4363676 4.9993262 -0.43816012 31
-1.040694 4.9512887 -0.45617503 0
-0.67112941 4.9637866 -0.48107195 0
-1.4307255 4.9796882 -0.52820027 34
-1.0339818 4.9193549 -0.54218459 67
-0.52165127 2.4818499 -0.31849277 1
-0.46097878 2.1931896 -0.32111272 2
-0.43782279 2.0830207 -0.34303218 3
-0.42844599 2.038409 -0.37253025 14
-0.41979676 1.9972588 -0.40140745 18
-0.41591915 1.9788103 -0.43352649 21
-0.41275039 1.9637343 -0.46581605 19
-0.416682 1.9824396 -0.50601685 18
-0.45825216 2.1802173 -0.76641643 0
-0.75138789 3.7031102 0.99742466 15
-0.67007411 3.3023667 0.65115172 2
-1.4486691 7.1395636 1.0191803 24
-1.8796651 9.2636671 0.82066482 8
-3.7009668 18.239698 0.95746762 13
-3.7196515 18.331783 0.63130587 18
-3.7881033 29.570827 0.82909268 13
-3.7020762 13.23259 0.30126271 39
-3.7379937 18.42218 0.30120301 15
-3.8071618 29.719603 0.30331767 32
-3.7007773 13.227947 0.058016527 46
-3.7583539 18.522522 -0.031337373 17
-1.5506496 12.104736 -0.092015125 3
-3.7004762 13.226871 -0.18459304 35
-3.6494992 17.986048 -0.35495076 15
-0.6539191 5.1046467 -0.12990867 22
-3.7011731 13.229362 -0.42763355 31
-1.0357207 5.1044049 -0.19307782 29
-0.64743114 5.0540004 -0.21890174 0
-1.4305551 5.1133332 -0.25922203 21
-0.63111311 4.9266181 -0.30117694 0
-1.4140439 5.054316 -0.34924188 3
-1.2756896 6.2870579 -0.46491021 0
-0.81326091 6.3485065 -0.50147331 0
-1.4025048 5.0130706 -0.43849587 31
-1.2794133 6.3054099 -0.5800966 0
-0.80341601 6.2716546 -0.60726732 0
-1.3905652 4.9703941 -0.5261718 36
-0.99882227 4.9225559 -0.54175562 70
-0.50273353 2.4776521 -0.31749594 1
-0.45904168 2.2623227 -0.33075747 2
-0.42012876 2.0705459 -0.3404865 4
-0.41420478 2.0413504 -0.37253025 14
-0.41052586 2.0232193 -0.40603909 18
-0.40364978 1.9893316 -0.43520358 21
-0.40213019 1.9818424 -0.46943405 45
-0.40051669 1.9738905 -0.50310868 8
-0.73145771 3.7386301 1.0055919 15
-0.66811723 3.4148839 0.67240143 11
-1.3980296 7.1456156 1.0186261 28
-1.83178 9.3626022 0.8282764 14
-3.6671159 18.74338 0.98253977 22
-3.734354 19.087048 0.65640163 17
-3.8054309 31.446335 0.88091099 10
-3.64007 13.370011 0.30380538 21
-3.7536628 19.18574 0.31325111 19
-3.8653309 31.941322 0.32570916 54
-3.6598258 13.442575 0.058844369 22
-3.759516 19.215654 -0.032464854 16
-1.4593831 12.059673 -0.0915929 33
-3.6784403 13.510946 -0.18819459 18
-3.6497779 18.654762 -0.36763588 17
-0.61778802 5.1051173 -0.12980773 21
-3.6937957 13.567347 -0.43771455 17
-0.99852496 5.1036654 -0.19278145 31
-0.61309445 5.0663314 -0.21924511 0
-1.3874756 5.0962114 -0.25785667 24
-0.99311417 5.0760098 -0.28328785 0
-0.76363003 6.3102884 -0.38542902 0
-1.3682389 5.0255547 -0.34658605 31
-1.2317666 6.2958107 -0.46491021 0
-0.76700687 6.3381934 -0.50022352 0
-1.3611902 4.9996643 -0.43648133 30
-1.2200634 6.2359939 -0.57291275 0
-0.75817996 6.2652516 -0.60612005 0
-1.3526951 4.968462 -0.5249548 34
-0.96214116 4.9177003 -0.54046881 34
-0.48161379 2.4616265 -0.31500381 1
-0.43943515 2.246043 -0.32792076 1
-0.40793815 2.0850554 -0.34239575 4
-0.39465111 2.0171428 -0.36760074 15
-0.39413035 2.0144808 -0.40372327 18
-0.38900083 1.9882629 -0.43436503 20
-0.38678819 1.9769536 -0.46762505 18
-0.35154036 1.7967947 -0.85343331 0
-0.70175892 3.7246423 1.0004873 15
-0.68061835 3.612437 0.71034735 3
-0.78700858 4.1771116 0.59466034 8
-1.766372 9.3751621 0.8282764 13
-3.5199013 18.682161 0.97801858 11
-3.7357242 19.827658 0.68095762 19
-3.8238888 33.561802 0.93940115 11
-3.6428559 13.758485 0.31204715 23
-3.7980936 20.158688 0.32869577 28
-3.9315772 34.506969 0.35158285 51
-3.6641748 13.839004 0.060466263 24
-3.8000569 20.169109 -0.034030065 35
-1.3737968 12.057645 -0.091502421 35
-3.6833272 13.91134 -0.19340877 16
-1.0677578 5.6672106 -0.11153606 6
-0.57986921 5.0894408 -0.12930302 22
-3.7023427 13.983158 -0.45028469 16
-0.96139008 5.1026554 -0.19248509 32
-0.57363826 5.0347524 -0.21769992 0
-1.3467506 5.086462 -0.25688142 24
-0.96061069 5.0985188 -0.28416288 0
-0.71820134 6.3035645 -0.38470271 0
-1.3331207 5.0349841 -0.34658605 29
-1.1929542 6.3317008 -0.46693408 0
-0.55661309 4.885324 -0.38524398 0
-1.3221722 4.9936333 -0.43513831 30
-0.94046092 4.9915724 -0.45797101 0
-0.55035269 4.8303776 -0.46692279 0
-1.3128833 4.9585505 -0.52292639 34
-0.92484033 4.9086647 -0.53875303 2
-0.46000764 2.4415276 -0.31201327 2
-0.417146 2.214036 -0.32281473 2
-0.38898474 2.0645678 -0.33857721 4
-0.37983012 2.0159791 -0.36689654 14
-0.37715024 2.0017555 -0.40063554 19
-0.37655899 1.9986172 -0.4360421 34
-0.37009132 1.9642897 -0.46400708 15
-0.43840432 2.3268664 -0.81456143 0
-0.33496019 1.7778283 -0.84329349 0
-0.67918658 3.7484784 1.0055919 15
-1.2554491 6.9289112 1.3607402 14
-0.75500262 4.1669121 0.59244353 4
-1.7001677 9.3833437 0.82793039 14
-3.3858285 18.686625 0.976991 8
-3.7461734 20.675394 0.70915657 18
-3.839752 35.929436 1.0048968 10
-3.6453731 14.166997 0.32072729 19
-3.7685039 20.798635 0.33869317 11
-3.9234965 36.713051 0.37377191 55
-3.6701391 14.263246 0.062206421 22
-3.7903769 20.919355 -0.035250399 10
-1.2934104 12.102736 -0.091773853 5
-3.6877811 14.331807 -0.19889173 19
-1.0246022 5.654851 -0.11114933 23
-0.54389918 5.0893888 -0.12920208 24
-3.6883211 14.333906 -0.46073905 18
-0.9236055 5.0974436 -0.19204056 31
-0.53889978 5.0426083 -0.21787161 0
-1.3072252 5.0802636 -0.25610122 26
-0.92072046 5.0815206 -0.28285033 0
-0.53416514 4.9983053 -0.3048085 0
-1.2929646 5.0248423 -0.34525815 34
-0.91328692 5.0404944 -0.37123427 0
-0.53605378 5.0159774 -0.39524218 0
-1.2842979 4.9911613 -0.43413106 29
-0.90203905 4.9784164 -0.45617503 0
-0.5204249 4.8697343 -0.47036448 0
-1.2742674 4.9521799 -0.52130365 34
-0.89480317 4.9384813 -0.5413267 0
-0.44578171 2.4603004 -0.31400695 2
-0.39885521 2.2013099 -0.32054541 2
-0.37385777 2.0633473 -0.33794081 5
-0.36364067 2.0069582 -0.36478388 15
-0.36246645 2.0004778 -0.3998636 20
-0.36189952 1.9973487 -0.43520358 16
-0.35636899 1.9668255 -0.46400708 5
-0.32771146 1.8086624 -0.85681325 0
-0.65366364 3.7569389 1.0066128 13
-1.2056992 6.929769 1.3592223 21
-0.73472112 4.2228179 0.59964818 4
-1.6305195 9.3714285 0.82585454 17
-3.2511802 18.686193 0.97575796 5
-3.7627771 21.626602 0.74086356 16
-3.8584719 38.656895 1.0804002 8
-3.6704741 14.688709 0.33195013 7
-3.8885236 22.349333 0.36349434 39
-3.9058478 39.131538 0.39810696 22
-3.8167799 15.274203 0.066497684 39
-3.8842177 22.324583 -0.037571684 41
-1.2100778 12.123412 -0.091864333 0
-3.8174391 15.276841 -0.21163155 31
-0.98235679 5.6461062 -0.11083993 54
-0.50875247 5.0970411 -0.12930302 27
-3.8149662 15.266945 -0.48986194 14
-0.88594055 5.0919528 -0.19159602 34
-0.50527018 5.0621533 -0.21855836 0
-1.2688208 5.0776377 -0.25551608 27
-0.87974524 5.0563455 -0.2811003 0
-0.50005043 5.0098581 -0.3052927 0
-1.2559178 5.0260024 -0.34472698 32
-0.87055296 5.0035124 -0.36805391 0
-0.49547762 4.9640446 -0.39086798 0
-1.2445903 4.9806709 -0.43245226 7
-0.86043227 4.945344 -0.4525831 0
-0.49274239 4.9366407 -0.47648305 0
-1.2396636 4.9609551 -0.52130365 35
-0.85825908 4.9328532 -0.54003984 0
-0.42247194 2.4281621 -0.30952114 1
-0.37804767 2.172833 -0.31600669 2
-0.36012071 2.0697978 -0.33857721 5
-0.35232037 2.0249653 -0.36760074 14
-0.3491644 2.0068262 -0.40063554 19
-0.34660575 1.9921204 -0.43352649 18
-0.33595034 1.9308782 -0.4549621 1
-0.42337891 2.4333749 -0.84969431 0
-0.31196934 1.7930472 -0.8483634 24
-0.62805569 3.7652256 1.0076337 17
-1.1585832 6.945765 1.3607402 27
-0.71890974 4.3099008 0.61128646 5
-1.5650549 9.3825836 0.82585454 16
-2.1551392 12.920169 0.67386484 0
-3.7695632 22.598724 0.77324516 20
-3.8559036 41.565395 1.1609076 16
-3.6733844 15.149255 0.34177008 16
-3.7916248 22.730982 0.36926207 11
-1.1346217 12.230855 0.12434769 1
-3.7025123 15.26938 0.06636253 42
-3.8125081 22.85618 -0.038420614 12
-0.57896215 6.241025 -0.047259163 1
-3.7069235 15.287572 -0.21141654 29
-0.94094151 5.6409922 -0.11060788 54
-0.47241727 5.0925055 -0.12910116 36
-1.3227741 5.4551988 -0.17473733 0
-0.84971273 5.0940709 -0.19144784 24
-0.46844086 5.0496411 -0.21787161 0
-1.2286339 5.0669589 -0.2545408 26
-0.84245247 5.0505452 -0.28044403 0
-1.2160965 5.015254 -0.34339905 33
-0.83034939 4.9779868 -0.36574093 0
-1.2079098 4.9814916 -0.43178076 12
-0.82719725 4.9590893 -0.45330149 0
-0.46267959 4.9875364 -0.48107195 0
-1.2031239 4.9617543 -0.52049226 36
-0.82118309 4.9230342 -0.53832406 0
-0.3989799 2.3919048 -0.30453691 1
-0.3609148 2.1637025 -0.31430468 2
-0.34241331 2.0527852 -0.3353951 6
-0.33817488 2.0273757 -0.36760074 14
-0.33449987 2.0053437 -0.3998636 23
-0.33204618 1.9906337 -0.43268794 9
-0.32502639 1.9485497 -0.45858008 1
-0.36655146 2.1974945 -0.76641643 0
-0.29884744 1.7916056 -0.84667343 14
-0.60175419 3.7695184 1.0076337 12
-1.1082071 6.942049 1.3584634 21
-0.70379108 4.4086995 0.62458736 8
-1.4988859 9.3893461 0.82550853 12
-2.1732006 13.613399 0.70921248 3
-3.7843788 23.706169 0.8102141 15
-3.5649455 41.583328 1.1606853 18
-3.6554017 15.548247 0.35018721 18
-3.8062229 23.843006 0.38688564 50
-1.0474985 12.218553 0.12414523 1
-3.6800492 15.653085 0.06791684 24
-3.8312981 24.000082 -0.040297538 82
-0.53435254 6.2329588 -0.047168687 8
-3.6998875 15.737467 -0.21727578 14
-0.89081955 5.5802865 -0.10929297 31
-0.43685338 5.0956793 -0.12910116 29
-1.250805 5.3202977 -0.17013244 1
-0.81160825 5.0840898 -0.19085512 11
-0.57381356 6.6932516 -0.28860691 0
-1.1914036 5.0676341 -0.25415072 30
-0.80213559 5.0247512 -0.278694 0
-0.58795458 6.8582006 -0.41738668 0
-1.1819696 5.0275064 -0.34366465 20
-0.797463 4.995481 -0.36660829 0
-0.42952615 5.0102105 -0.39399242 0
-1.1740175 4.9936824 -0.43211651 26
-0.79444015 4.9765453 -0.45437905 0
-0.55096585 6.4267449 -0.61950445 0
-1.1648145 4.9545369 -0.51886952 34
-0.79118234 4.9561377 -0.5413267 0
-0.38289723 2.3985512 -0.30503535 1
-0.34018284 2.1309791 -0.30919865 2
-0.33243155 2.0824234 -0.33985007 6
-0.32401291 2.0296869 -0.36760074 15
-0.32172918 2.0153813 -0.40140745 16
-0.3230733 2.0238011 -0.43939629 1
-0.31750676 1.9889312 -0.50310868 0
-0.3029035 1.8974532 -0.66101789 2
-0.28461784 1.7829077 -0.84160352 17
-1.0567586 6.9302039 1.3546689 23
-0.69449514 4.5544868 0.6445387 5
-1.4296994 9.3759432 0.82343268 13
-2.1600106 14.165312 0.7371617 2
-3.7923551 24.870197 0.84907198 20
-3.2720423 41.575317 1.1597956 23
-3.6577685 16.060787 0.36114702 22
-3.8097026 24.983963 0.40495783 11
-0.97597933 12.401016 0.12592684 5
-3.6817086 16.165905 0.070028685 20
-3.8421438 25.196711 -0.042260684 10
-0.49019757 6.2285624 -0.047108367 22
-3.703613 16.262085 -0.22415636 14
-0.78070509 5.1198502 -0.10016588 14
-0.40126815 5.0986052 -0.12910116 27
-1.1719049 5.1456823 -0.16428296 4
-0.77368695 5.0738249 -0.19026241 3
-0.40102607 5.0955291 -0.21958849 0
-1.1533343 5.0641413 -0.25356555 27
-0.767039 5.0302281 -0.278694 0
-0.54757917 6.9576664 -0.42319718 0
-1.1406382 5.0083942 -0.34180555 8
-0.76257086 5.0009265 -0.36660829 0
-0.39266053 4.9892344 -0.39211774 0
-0.75847924 4.9740934 -0.45366067 0
-0.50296128 6.3907409 -0.61568034 0
-1.1266623 4.9470282 -0.51724678 23
-0.75176901 4.930088 -0.53789514 0
-0.35776812 2.3462369 -0.29805741 2
-0.33246103 2.1802735 -0.31600669 2
-0.31074288 2.0378463 -0.33221298 8
-0.30805537 2.0202217 -0.36548811 16
-0.30587739 2.0059385 -0.39909166 18
-0.30893758 2.0260072 -0.43939629 1
-0.47752032 3.1315699 -0.73535621 0
-0.28965029 1.8995215 -0.66101789 2
-0.27107167 1.7776831 -0.83822358 7
-0.3059639 2.1050191 0.56149805 3
-1.0060912 6.9218669 1.3516332 25
-0.69174188 4.7591558 0.67280304 4
-1.3636351 9.381753 0.82308668 11
-2.1501274 14.792789 0.76901567 3
-3.8147197 26.245115 0.89508086 13
-2.980283 41.577206 1.1592396 27
-3.6626201 16.617052 0.37307125 34
-3.8348107 26.383339 0.42719558 47
-0.8950997 12.487319 0.12673666 12
-3.6720772 16.65996 0.072056055 20
-3.8577363 26.541067 -0.044469222 64
-0.44841796 6.2557707 -0.047289323 37
-3.866344 17.541334 -0.24141157 18
-0.74666852 5.1370487 -0.10039793 26
-0.36566344 5.1012821 -0.12910116 26
-1.1282076 5.1185994 -0.16316286 7
-0.73824608 5.079103 -0.19026241 2
-0.47887585 6.6806812 -0.28774849 0
-1.1153719 5.0603647 -0.25298041 29
-0.73017925 5.0236034 -0.27803773 0
-0.49528116 6.9095478 -0.42004985 0
-1.1056453 5.0162358 -0.34180555 16
-0.72477007 4.9863882 -0.3651627 0
-0.59988236 8.3688145 -0.65738308 0
-1.0973163 4.9784479 -0.42943048 0
-0.7208699 4.9595551 -0.45186472 0
-0.46317276 6.4616117 -0.6221813 0
-1.0835327 4.9159126 -0.51318997 8
-0.71618813 4.9273448 -0.53703725 1
-0.34480479 2.3722429 -0.30104795 1
-0.3115364 2.1433578 -0.31033331 2
-0.29650846 2.0399659 -0.33221298 7
-0.2933777 2.0184267 -0.36478388 17
-0.29186583 2.0080249 -0.39909166 22
-0.45732757 3.146395 -0.73806971 14
-0.44767779 3.0800049 -0.77744347 0
-0.3933548 2.706265 -0.94077945 0
-0.26178336 1.8010588 -0.8483634 26
-0.29126066 2.1071038 0.56149805 5
-0.95559204 6.9131603 1.3485975 36
-0.69863909 5.0542536 0.71381414 7
-1.2981049 9.3910446 0.82308668 9
-1.8684863 13.517426 0.70201963 0
-3.8262732 27.680893 0.94311351 13
-2.6889343 41.581036 1.1587949 16
-3.6682117 17.213255 0.38587227 9
-3.8520563 27.867418 0.45077914 9
-0.80945462 12.517212 0.1269796 13
-3.7457602 17.577154 0.075908057 39
-3.8908844 28.148317 -0.04711549 9
-0.40396217 6.2467742 -0.047198843 50
-3.743788 17.5679 -0.24141157 33
-0.71023935 5.1381745 -0.10032058 37
-0.3295272 5.0957298 -0.12889928 26
-1.0949453 5.138082 -0.16353622 6
-0.70222205 5.080174 -0.19011423 4
-0.43403268 6.7117772 -0.28895029 0
-1.0758531 5.048491 -0.25200516 16
-0.69290257 5.0127525 -0.2771627 0
-0.44420046 6.8690095 -0.41738668 0
-0.68830204 4.9794707 -0.3642953 0
-1.0650257 4.9976821 -0.43043774 0
-0.68677366 4.9684134 -0.4522239 0
-0.31861526 4.92699 -0.47418857 0
-1.0508454 4.9311409 -0.51400131 2
-0.32497442 2.3510036 -0.29805741 1
-0.29764968 2.1533248 -0.31146801 2
-0.27955598 2.0224271 -0.32903087 9
-0.27820101 2.0126247 -0.36337546 17
-0.27784008 2.0100136 -0.39909166 22
-0.44068563 3.1881077 -0.74711472 0
-0.4309468 3.1176529 -0.78616792 6
-0.37807736 2.735173 -0.94988793 3
-0.24870682 1.7992512 -0.84667343 29
-0.27453199 2.0937471 0.55741441 4
-0.90628463 6.9118757 1.3470796 34
-0.96513426 7.3606987 1.0385774 11
-1.2366558 9.4314871 0.82585454 3
-1.8296407 13.953949 0.7240091 1
-3.8413432 29.296412 0.99721771 12
-2.5357583 43.977924 1.2250689 1
-3.665652 17.810318 0.39867333 19
-3.8757949 29.55916 0.47769514 31
-0.72066677 12.498599 0.12673666 15
-3.69311 17.943726 0.077377893 19
-3.8809671 29.598608 -0.049496468 26
-0.36011136 6.2454486 -0.047168687 64
-3.7178047 18.063711 -0.2478621 11
-0.6743508 5.1430078 -0.10032058 34
-0.29325369 5.0859294 -0.12859645 23
-1.0509884 5.106441 -0.16229166 9
-0.66414016 5.0651355 -0.18937333 11
-0.29215661 5.0669026 -0.2180433 0
-1.0381656 5.0441389 -0.25142002 3
-0.65944779 5.0293489 -0.27781898 0
-0.29120049 5.0503201 -0.30674532 0
-1.2881386 6.2586837 -0.42519867 0
-0.83920527 6.4002876 -0.46780145 0
-0.28808933 4.9963632 -0.39211774 0
-1.0252882 4.9815712 -0.42842323 0
-0.6380868 4.8664365 -0.44252568 0
-0.27985576 4.8535676 -0.46692279 0
-1.0171962 4.942255 -0.51440698 0
-0.37226143 2.8390915 -0.30883932 0
-0.3059735 2.3335395 -0.29556528 1
-0.28157985 2.1474986 -0.31033331 2
-0.26748356 2.0399916 -0.33157656 9
-0.26260772 2.0028055 -0.3612628 19
-0.26431102 2.0157959 -0.3998636 19
-0.43220222 3.296236 -0.71276116 0
-0.42247012 3.2220132 -0.75435066 0
-0.41270265 3.1475203 -0.79295361 2
-0.36831614 2.8090022 -0.97461104 0
-0.23613961 1.8009437 -0.84667343 27
-0.25848013 2.0840983 0.55435169 4
-0.85752523 6.9141369 1.3463207 34
-0.91226071 7.3554635 1.0369148 5
-1.1663673 9.4042988 0.82274067 3
-1.7990475 14.505533 0.75195837 4
-3.8665087 31.175259 1.0602269 10
-2.0360892 40.192902 1.1192085 1
-3.6720626 18.49445 0.41340327 18
-3.9602668 31.931221 0.51556981 26
-0.63197601 12.475363 0.12645322 17
-3.6947238 18.608583 0.080131739 19
-1.5055356 12.138978 -0.020281414 8
-0.31710824 6.2597947 -0.047259163 53
-3.7185698 18.728683 -0.2566241 17
-0.63744497 5.1396527 -0.10016588 30
-0.25774008 5.087853 -0.12859645 22
-1.0129772 5.1018891 -0.16191828 12
-0.62925476 5.0736156 -0.18952151 12
-0.30752447 6.0706091 -0.26113689 0
-1.0029256 5.0512638 -0.25142002 10
-0.78703684 6.3457961 -0.35022691 0
-0.31653586 6.2484961 -0.37937641 0
-0.99335438 5.003058 -0.33941531 0
-0.7841906 6.3228474 -0.46172985 0
-0.25158712 4.9663916 -0.38961819 0
-0.98893279 4.9807887 -0.42775172 0
-0.62223965 5.0170536 -0.45581585 0
-0.97956806 4.9336228 -0.51278424 0
-0.34606847 2.7903142 -0.30326304 1
-0.28967491 2.3356187 -0.29556528 1
-0.26414388 2.1297648 -0.30749664 2
-0.25177705 2.0300522 -0.3296673 11
-0.25007305 2.0163131 -0.36337546 18
-0.24781629 1.9981171 -0.3960039 11
-0.3990705 3.217664 -0.69515175 0
-0.3937315 3.1746163 -0.74259222 0
-0.40170476 3.2389038 -0.81524932 0
-0.35661101 2.8753176 -0.99673176 0
-0.22311467 1.7989504 -0.84498346 31
-0.24527171 2.0973761 0.55741441 3
-0.82591838 7.0626225 0.99479532 12
-0.86508805 7.3975716 0.64663684 0
-1.7664062 15.104956 0.78237373 10
-3.8953333 33.309914 1.1318711 11
-1.8150884 41.572308 1.1572381 4
-3.6766069 19.218784 0.42901003 23
-3.9165621 33.491444 0.54030693 14
-0.54347038 12.447503 0.12612928 15
-3.8548293 20.150408 0.086653106 28
-1.4142485 12.093572 -0.020188563 26
-0.27304995 6.2538638 -0.047198843 51
-3.8552673 20.152699 -0.27576071 8
-0.6015479 5.1439776 -0.10016588 34
-0.22256273 5.0975184 -0.12879834 20
-0.97808599 5.1127639 -0.16204275 16
-0.5905689 5.0500937 -0.18848425 9
-0.26443887 6.0566378 -0.26045012 0
-0.96613538 5.0502944 -0.25102991 5
-0.58637881 5.0142636 -0.27650645 0
-0.2737762 6.2704978 -0.38058695 0
-0.95915222 5.0137911 -0.33968091 0
-0.58803856 5.0284562 -0.36689743 0
-0.2160393 4.9481072 -0.38805598 0
-0.94514912 4.9405928 -0.42372265 0
-0.21848767 5.0041838 -0.48107195 0
-0.94584876 4.9442501 -0.51318997 0
-0.32935148 2.8163621 -0.30583671 2
-0.27197918 2.325758 -0.29407001 1
-0.24880897 2.127624 -0.30692929 2
-0.23851584 2.0396051 -0.33094013 12
-0.23599042 2.0180097 -0.36337546 19
-0.23614012 2.0192897 -0.3998636 6
-0.37478015 3.2048333 -0.69179755 0
-0.37382174 3.1966376 -0.74711472 0
-0.37322336 3.1915207 -0.80264741 0
-0.34224012 2.9265759 -1.0136476 0
-0.20844468 1.7824596 -0.83653361 30
-0.23231284 2.1144149 0.56149805 5
-0.3212612 2.9239862 0.56842965 8
-0.81423169 7.410799 1.043011 0
-0.80297697 7.308363 0.63833332 3
-1.8040099 16.41935 0.8497808 8
-3.9054449 35.545738 1.2068884 9
-1.5243751 41.571976 1.1569046 2
-3.6777256 19.979448 0.44540587 11
-3.9281332 35.752239 0.57632309 13
-0.45523804 12.415019 0.12576488 10
-3.7155075 20.1847 0.086686894 46
-1.3276006 12.08327 -0.020155402 30
-0.23011594 6.2756038 -0.047349639 30
-1.0441095 5.6721821 -0.077514023 24
-0.56343764 5.1281753 -0.099779144 45
-0.18711644 5.1029439 -0.12889928 17
-0.94019693 5.1076717 -0.16166937 19
-0.55791754 5.0779338 -0.18937333 3
-0.2228813 6.0783048 -0.26130858 0
-0.54874122 4.9944148 -0.2751939 0
-0.18654028 5.0872307 -0.30868214 0
-0.92051321 5.0007391 -0.33835298 0
-0.55248326 5.0284734 -0.36660829 0
-0.18222037 4.9694204 -0.38961819 0
-0.91352057 4.9627509 -0.42506567 0
-0.53994685 4.9143724 -0.44575843 0
-0.91563076 4.9742146 -0.51562405 0
-0.30273217 2.7553425 -0.29897362 3
-0.25746951 2.3433805 -0.29606372 1
-0.23481418 2.1371813 -0.30806398 3
-0.22340831 2.0333698 -0.3296673 12
-0.22189631 2.019608 -0.36337546 19
-0.22117978 2.0130866 -0.39831972 3
-0.34684411 3.1568313 -0.68089652 0
-0.34809157 3.168185 -0.73987871 0
-0.35135707 3.1979063 -0.80361676 0
-0.33171469 3.0191293 -1.0448767 0
-0.1967876 1.7910789 -0.83991355 28
-0.21873239 2.127527 0.56456071 7
-0.29602024 2.8792765 0.55932266 7
-1.0841564 10.545178 1.4830486 23
-0.76497704 7.4406419 0.64940464 10
-1.8805368 18.291269 0.94595915 5
-3.6081309 35.094921 1.1906977 0
-1.3304294 44.826923 1.2471974 16
-3.6913903 20.870977 0.4646951 16
-1.3138162 12.778992 0.2058434 0
-0.36712989 12.369919 0.12527898 15
-3.7187169 21.025482 0.090184107 21
-1.2415748 12.076327 -0.020128872 32
-0.18570505 6.2570667 -0.047198843 19
-1.0044874 5.6793327 -0.077514023 25
-0.52598643 5.1160707 -0.099469751 46
-0.15148662 5.104126 -0.12889928 13
-0.90173286 5.0983629 -0.16117154 22
-0.52122688 5.0697761 -0.18892878 0
-0.1815083 6.1156635 -0.26285377 0
-0.88996315 5.0318174 -0.2494695 0
-0.51590258 5.0179887 -0.27628767 0
-0.87932533 4.9716711 -0.33596274 0
-0.51206023 4.9806161 -0.36284971 0
-0.14669472 4.9426694 -0.38743109 0
-0.88024253 4.9768567 -0.42573717 0
-0.51173645 4.9774661 -0.45114633 0
-0.87256736 4.9334621 -0.51075584 0
-0.28023505 2.72574 -0.29554206 2
-0.23501487 2.2859006 -0.28858736 2
-0.21786334 2.1190741 -0.30522728 2
-0.20839952 2.0270231 -0.32839444 12
-0.20658328 2.0093572 -0.3612628 18
-0.20671898 2.0106773 -0.39754778 1
-0.33799669 3.2875657 -0.70856845 0
-0.32875443 3.1976697 -0.74621022 0
-0.32822913 3.1925604 -0.801678 0
-0.31217644 3.036422 -1.0500816 0
-0.18427871 1.7924091 -0.83991355 29
-0.20792949 2.1713512 0.5757907 6
-0.27478877 2.8695447 0.55704588 6
-1.0090004 10.536717 1.4808317 32
-0.75099981 7.8424873 0.6840027 5
-1.6655922 17.393328 0.89889753 6
-3.622169 37.825329 1.2824454 9
-0.67518288 29.752834 0.82764709 19
-3.6994588 21.803057 0.48486111 15
-4.460988 46.584888 0.74986732 51
-0.28085339 12.376179 0.12531947 13
-3.7926555 22.352318 0.095759369 48
-1.1564734 12.076738 -0.020115608 27
-0.14174573 6.2462144 -0.047108367 11
-0.96347558 5.6783209 -0.077406511 20
-0.49025676 5.1196184 -0.099469751 38
-0.11566798 5.0970635 -0.1286974 10
-0.86411119 5.0927086 -0.16079818 22
-0.48124805 5.0255427 -0.18715064 0
-0.15258962 6.7240653 -0.28895029 0
-0.85815459 5.0576029 -0.25044477 0
-0.47514695 4.9618306 -0.27300635 0
-0.11304697 4.9815655 -0.30214536 0
-0.84459513 4.9776888 -0.33596274 0
-0.11146103 4.9116788 -0.38493153 0
-0.84147543 4.9593029 -0.42372265 0
-0.47393665 4.949192 -0.44827279 0
-0.8367728 4.9315872 -0.5099445 0
-0.25664982 2.6801243 -0.29039475 2
-0.2209422 2.3072395 -0.29107946 1
-0.20268668 2.1166019 -0.30465996 2
-0.19311385 2.0166357 -0.32648519 13
-0.19255029 2.0107503 -0.3612628 16
-0.19005787 1.9847229 -0.3921442 1
-0.30646196 3.200299 -0.68928194 0
-0.3049368 3.1843722 -0.74259222 0
-0.30297342 3.1638691 -0.79392296 0
-0.30322963 3.1665447 -1.0943229 0
-0.17141525 1.790043 -0.83822358 30
-0.19379191 2.1843071 0.57885343 5
-0.25683269 2.8948648 0.56159937 8
-0.39034203 4.399703 0.61793691 9
-0.74272043 8.3715019 0.72967207 9
-1.8950385 21.359743 1.1031737 1
-2.2949765 25.867607 0.87646145 2
-0.46726409 29.744829 0.82731354 11
-3.708797 22.823061 0.50695604 16
-4.1342635 46.598957 0.74961096 48
-0.19444452 12.377837 0.12531947 11
-3.7404516 23.017857 0.098496318 17
-1.0721394 12.084517 -0.020115608 6
-0.098386779 6.2630491 -0.047229003 6
-0.92316842 5.6809607 -0.077352762 10
-0.45450556 5.1229157 -0.099469751 37
-0.080143757 5.1017451 -0.12879834 59
-0.8278951 5.0946708 -0.16067372 24
-0.44792002 5.0486879 -0.18789153 0
-0.079718776 5.0746922 -0.2180433 0
-0.81962073 5.0437527 -0.2494695 0
-0.44226247 4.9849191 -0.27410012 0
-0.078454472 4.9942098 -0.30287167 0
-0.81558532 5.0189195 -0.33835298 0
-0.4340103 4.8919053 -0.35591075 0
-0.078233153 4.9801211 -0.39024308 0
-0.81194705 4.9965305 -0.42640868 0
-0.44219211 4.9841256 -0.45114633 0
-0.80679137 4.9648037 -0.51278424 0
-0.2358253 2.6580822 -0.28782108 2
-0.20027076 2.2573328 -0.28459996 2
-0.18930575 2.1337416 -0.30692929 3
-0.18077627 2.0376024 -0.3296673 13
-0.17781293 2.0042014 -0.35985437 15
-0.17966668 2.0250959 -0.3998636 1
-0.28653318 3.2296312 -0.69515175 0
-0.28373277 3.1980667 -0.74530572 0
-0.28533798 3.2161596 -0.80652493 0
-0.2771059 3.1233726 -1.0787084 3
-0.15955585 1.7984185 -0.84160352 29
-0.18357596 2.2472816 0.5951879 5
-0.2369362 2.9005015 0.56235832 17
-0.33703998 4.1259418 0.57914269 3
-0.80949467 9.9095907 0.86322039 0
-1.924103 23.554291 1.2157928 1
-1.9847889 24.297188 0.82276195 0
-0.25962955 29.751364 0.82742471 12
-3.7157292 23.919294 0.5307169 15
-3.8908987 47.63121 0.76576054 11
-0.10785168 12.358895 0.12511702 12
-3.8424606 24.735104 0.10572726 42
-0.98383945 12.043866 -0.020036021 1
-0.054834578 6.2835817 -0.047379799 3
-3.8452177 24.752851 -0.33666459 40
-0.41775298 5.114006 -0.099237703 29
-0.044524908 5.10218 -0.12879834 6
-0.78923875 5.0805731 -0.16005144 26
-0.41396442 5.0676274 -0.18848425 0
-0.043974951 5.0391598 -0.21649811 0
-0.78316218 5.0414562 -0.24907941 0
-0.55183029 6.7553401 -0.37122738 0
-0.043377355 4.9706802 -0.30141905 0
-0.7737875 4.9811087 -0.33543158 0
-0.043602638 4.9964962 -0.39149284 0
-0.77153826 4.9666295 -0.4233869 0
-0.40835863 4.9990034 -0.4522239 0
-0.02637173 3.0219786 -0.29024929 0
-0.76722401 4.9388576 -0.50953877 0
-0.21629128 2.6477726 -0.28653425 2
-0.18644549 2.2824097 -0.2875905 2
-0.17150344 2.0994935 -0.30182326 3
-0.16558215 2.0270069 -0.32775801 13
-0.16285488 1.9936205 -0.35774174 14
-0.16552448 2.0263009 -0.3998636 1
-0.37383777 4.5764093 -0.98444891 0
-0.26235086 3.2116201 -0.74801922 0
-0.26129821 3.198734 -0.801678 0
-0.25652573 3.1403105 -1.0839132 5
-0.14640629 1.7922618 -0.83822358 28
-0.17277788 2.314074 0.61254328 5
-0.22165221 2.9686649 0.57525992 5
-0.30439287 4.076839 0.57193804 3
-0.93552858 12.529859 1.0908753 2
-1.7483138 23.415773 1.2079834 3
-2.0032337 26.830002 0.90803349 3
-0.051961645 29.768444 0.82786947 10
-3.7215984 25.111622 0.55658197 14
-3.5454705 47.485714 0.7630049 11
-0.021385077 12.251353 0.12402376 5
-3.7623346 25.386492 0.10839663 14
-0.90271169 12.09033 -0.020102343 0
-0.93229818 6.2907166 -0.085469693 0
-0.38204029 5.1167984 -0.099237703 41
-0.0088784024 5.0863714 -0.12839457 6
-0.75375044 5.085959 -0.16005144 26
-0.37857559 5.070394 -0.18848425 0
-0.0088102659 5.0473366 -0.21684147 0
-0.74853283 5.0507531 -0.24927445 0
-0.50614256 6.7789426 -0.37232119 0
-0.0087116249 4.9908257 -0.30262956 0
-0.73840886 4.9824414 -0.33516598 0
-0.0086939987 4.9807281 -0.39024308 0
-0.73217118 4.9403524 -0.42070085 0
-0.37344906 5.0017323 -0.4522239 0
-0.0052473401 3.0061624 -0.28871965 0
-0.73330903 4.94803 -0.5099445 1
-0.19632052 2.6293888 -0.28438953 1
-0.17021123 2.2796979 -0.28709209 2
-0.15743166 2.108537 -0.30295795 3
-0.15201503 2.03599 -0.32903087 14
-0.14951919 2.0025623 -0.35915017 14
-0.1493286 2.0000098 -0.39446002 1
-0.35702214 4.7817216 -1.0280532 0
-0.24079345 3.2250302 -0.75073266 0
-0.23953836 3.2082202 -0.80361676 0
-0.13362044 1.7896248 -0.83653361 29
-0.15975076 2.3615284 0.62479419 4
-0.2043675 3.0210788 0.58512586 5
-0.27699322 4.0946746 0.57415485 4
-0.8563686 12.659337 1.1016006 4
-1.5856072 23.439363 1.2085999 4
0.1560133 29.796072 0.82864791 1
-3.7405994 26.515013 0.58709401 14
-3.2082024 47.42551 0.76165909 20
0.064189628 12.259204 0.12410475 5
-3.8504233 27.293493 0.11642163 42
-0.81666344 12.072392 -0.020062551 0
0.032566771 6.219738 -0.046897255 1
-0.86545062 6.1346946 -0.083265759 5
-0.34495938 5.0993896 -0.098850965 36
0.026673974 5.0943074 -0.12859645 6
-0.71599144 5.0752621 -0.1595536 34
-0.34262881 5.0649376 -0.1881879 0
0.026364941 5.0352864 -0.21632642 0
-0.70990509 5.0321193 -0.24810416 0
-0.46069124 6.810205 -0.37385246 0
0.026131824 4.9907651 -0.30262956 0
-0.7036069 4.9874749 -0.33516598 0
0.025974553 4.9607286 -0.38868085 0
-0.69989038 4.9611306 -0.42204386 0
-0.33126149 4.8968997 -0.44252568 0
0.01586527 3.0300157 -0.29101411 2
-0.17688549 2.6148238 -0.28267375 1
-0.15455966 2.2847903 -0.2875905 2
-0.14190574 2.0977328 -0.30125594 4
-0.13753089 2.0330613 -0.32839444 13
-0.13580078 2.0074859 -0.35985437 15
-0.13377286 1.9775082 -0.38982841 0
-0.32389471 4.7879992 -1.0288917 0
-0.21616881 3.1955326 -0.74349672 0
-0.21818261 3.225302 -0.80749428 0
-0.21622881 3.1964197 -1.1021303 0
-0.12161263 1.7977484 -0.83991355 31
-0.14911243 2.4590969 0.65031677 2
-0.18897635 3.1165154 0.60333991 3
-0.25247633 4.1637292 0.58357632 4
-0.69657475 11.487606 0.99919057 13
-0.86244303 14.223033 0.73305154 2
-1.7779648 29.321419 0.99141604 18
0.54769629 44.82732 1.2467526 13
-3.7518589 28.007025 0.61953503 13
-2.8777583 47.458729 0.76185131 20
0.14913751 12.206464 0.12357836 8
-3.786186 28.263271 0.12044258 14
-0.7326045 12.081793 -0.020069182 0
0.067240462 5.5034328 -0.041498791 13
-0.83269137 6.2159076 -0.084287092 7
-0.30910847 5.0976815 -0.098773614 40
0.062335715 5.1019936 -0.12879834 5
-0.68266535 5.0959873 -0.16005144 23
-0.30387339 5.0113473 -0.18611337 0
0.061663408 5.0469675 -0.21684147 0
-0.67740929 5.0567517 -0.24907941 0
-0.41023496 6.7654152 -0.37122738 0
0.060826678 4.9784837 -0.30190325 0
-0.66824067 4.9883094 -0.33490041 0
-0.29724997 4.9021163 -0.35591075 0
0.060362466 4.9404893 -0.38711864 0
-0.66523808 4.9658957 -0.42204386 0
-0.38893542 6.4141526 -0.57937819 0
0.036969565 3.0258496 -0.29063171 3
-0.65569788 4.8946795 -0.50345355 0
-0.1567006 2.5842376 -0.27924222 1
-0.13788439 2.2739291 -0.28609523 2
-0.12701769 2.0947204 -0.30068859 4
-0.12166096 2.0063794 -0.32393947 14
-0.12249753 2.0201757 -0.36196703 14
-0.12115177 1.997982 -0.39368808 0
-0.29022357 4.7862401 -1.0280532 1
-0.19385451 3.1969638 -0.74349672 0
-0.19448602 3.2073784 -0.80264741 0
-0.19276364 3.1789737 -1.0956242 0
-0.10862015 1.791316 -0.83653361 30
-0.20754308 3.8696988 1.0229473 9
-0.17562768 3.2746272 0.63369662 3
-0.22934225 4.2761502 0.59909397 4
-0.38671845 7.2104735 0.62691593 2
-0.78623205 14.659517 0.75524652 19
-2.2258015 41.50069 1.4026622 12
0.86117154 44.850391 1.2475309 7
-3.7646029 29.674974 0.65583384 13
-0.65843892 12.276777 0.19699958 0
0.23458074 12.217122 0.12369984 4
-3.7866168 29.848503 0.12708221 26
-0.64738292 12.070635 -0.020042654 1
0.12017258 6.2586684 -0.047198843 2
-0.78776568 6.2096658 -0.084125832 5
-0.27286986 5.0877347 -0.098541573 40
0.097722247 5.0894403 -0.12849551 5
-0.64556241 5.0887303 -0.15967807 17
0.096972823 5.0504098 -0.21701317 0
-0.6395759 5.0415406 -0.24810416 0
-0.330908 6.1698723 -0.33841413 0
0.095887884 4.9939051 -0.30287167 0
-0.7991581 6.2994685 -0.42254284 0
-0.26900205 5.0156188 -0.36400619 0
0.095464282 4.9718437 -0.38961819 0
-0.62553704 4.9308772 -0.41868633 0
-0.27053812 5.0442591 -0.45545664 0
0.057787161 3.009594 -0.28910208 8
-0.62551707 4.9307203 -0.50669903 0
-0.13759045 2.5654125 -0.27709749 1
-0.11966792 2.2312419 -0.28061259 2
-0.11217863 2.0916021 -0.30012125 5
-0.10828531 2.0190098 -0.32584876 14
-0.10775843 2.009186 -0.35985437 15
-0.10741048 2.0026982 -0.39446002 0
-0.25701168 4.7920547 -1.0288917 1
-0.17132209 3.1943483 -0.74259222 0
-0.17021902 3.1737812 -0.79392296 0
-0.17056552 3.1802418 -1.0956242 0
-0.095140934 1.7739294 -0.82808381 34
-0.18142323 3.8903701 1.0280519 9
-0.16593449 3.5582354 0.6883387 0
-0.20612681 4.420104 0.61904532 7
-0.32894501 7.0537705 0.61307675 2
-1.0910288 23.395603 1.2049007 12
-1.9315482 41.419376 1.399424 10
1.1742629 44.843285 1.2475309 3
-3.7789614 31.550859 0.69669193 10
-0.57085168 12.241124 0.19635873 0
0.32038945 12.235178 0.12390229 2
-1.4827269 12.37941 0.052660897 2
-0.56216651 12.054883 -0.020009492 1
0.16344424 6.241683 -0.047078207 2
-0.6197741 5.1745453 -0.070042141 1
-0.2377167 5.0975056 -0.098696269 44
0.13345993 5.0966287 -0.1286974 5
-0.60764337 5.0732646 -0.15905578 10
0.13170564 5.029635 -0.21615472 0
-0.60388863 5.0419159 -0.2479091 0
-0.28726792 6.1600628 -0.33775786 0
0.1306448 4.9891229 -0.30262956 0
-0.59378082 4.9575253 -0.33224458 0
0.12985852 4.9590969 -0.38868085 0
-0.5944159 4.9628272 -0.4210366 0
-0.23197554 4.9743943 -0.44899118 0
0.078692287 3.005137 -0.28871965 7
-0.59439164 4.9626245 -0.50953877 0
-0.1198624 2.5702832 -0.27752644 1
-0.10538216 2.2597744 -0.28410155 2
-0.097389311 2.0883789 -0.29955393 6
-0.093819402 2.0118272 -0.3245759 15
-0.094279304 2.0216892 -0.36196703 16
-0.093060717 1.9955583 -0.39291614 0
-0.22391495 4.8015461 -1.0305687 1
-0.14938016 3.2032509 -0.74440122 1
-0.14878081 3.1903985 -0.79780048 0
-0.14871149 3.1889119 -1.0982267 0
-0.083092026 1.7817934 -0.83146369 31
-0.15625034 3.9417803 1.0413237 6
-0.27440077 6.922401 1.3387315 19
-0.19393541 4.8924742 0.68499553 2
-0.28805792 7.2669349 0.6314137 2
-0.92846131 23.422607 1.2059283 11
-1.594678 40.229485 1.3588121 2
1.3076652 39.419067 1.0968575 3
-3.7941868 33.666733 0.74281073 11
-0.48553702 12.248808 0.1964228 0
0.41322497 12.456509 0.12616979 2
-1.3770101 12.218541 0.051934421 6
-0.53804016 13.573322 -0.022523114 4
0.20714767 6.2443871 -0.047108367 1
-0.5805009 5.1509242 -0.069665864 6
-0.20212363 5.099041 -0.098696269 45
0.16930273 5.1035657 -0.12889928 5
-0.5690788 5.0495725 -0.15818459 8
0.16774312 5.0565519 -0.21735655 0
-0.70693147 6.2727723 -0.30817968 0
-0.24599575 6.2058182 -0.34016418 0
0.16560435 4.9920797 -0.30287167 0
-0.55871171 4.9575834 -0.33197898 0
-0.25377902 6.4021692 -0.46433195 0
0.16526939 4.9819827 -0.39055553 0
-0.5566321 4.9391303 -0.41868633 0
-0.25862378 6.5243902 -0.58871722 0
0.099934034 3.0124731 -0.28948447 7
-0.55661434 4.9389729 -0.50669903 0
-0.10112792 2.5511885 -0.27538171 1
-0.089288995 2.2525239 -0.28310469 2
-0.083120972 2.096921 -0.30068859 6
-0.080241166 2.024271 -0.32648519 15
-0.079539128 2.0065606 -0.35915017 18
-0.079593197 2.0079246 -0.39523196 0
-0.19007856 4.7951765 -1.0288917 1
-0.12763095 3.2197893 -0.74801922 0
-0.12727256 3.210748 -0.80264741 0
-0.075807109 1.9124117 -0.6584155 0
-0.070363536 1.7750849 -0.82808381 34
-0.12759189 3.9079857 1.0321355 10
-0.22619477 6.9280729 1.3394904 20
-0.34398115 10.535728 1.4747355 18
-0.25370285 7.7706127 0.67500716 5
-0.76439661 23.412546 1.2051063 14
-0.97095603 29.739212 1.0042337 0
