# .PCD v0.7 - Point Cloud Data file format
VERSION 0.7
FIELDS x y z intensity
SIZE 4 4 4 4
TYPE F F F F
COUNT 1 1 1 1
WIDTH 1433
HEIGHT 1
VIEWPOINT 0 0 0 1 0 0 0
POINTS 1433
DATA ascii
2.8909914 3.4760394 1.1934385 22
5.5072765 6.6217799 1.6643074 25
5.9172921 7.1147699 1.2946194 17
8.8599882 10.652977 1.2029729 30
8.8330393 10.620576 0.71065104 27
8.8575811 10.650084 0.46750906 28
13.665237 14.190365 0.54787278 46
2.5554466 3.5707269 0.0962708 32
8.8666019 10.66093 0.22218527 25
13.653172 14.177836 0.19925593 42
2.5583656 3.5748057 0.018567316 36
8.880517 10.677661 -0.023027165 26
13.642385 14.166635 -0.14829183 29
2.5581574 3.5745149 -0.05907622 27
8.8302803 10.617258 -0.26708323 42
8.8787088 9.2198992 -0.32310617 0
2.5618036 3.5796094 -0.13702694 34
8.8539848 10.64576 -0.51329356 35
8.446456 8.7710361 -0.52313221 1
2.5460446 3.5575895 -0.21358022 34
8.8646851 10.658625 -0.75929892 46
8.4193602 8.7428989 -0.73599511 0
2.5504203 3.5637038 -0.29161033 41
8.8777084 10.674284 -1.0061489 41
8.5833197 8.9131594 -0.96951503 3
2.5655975 3.5849109 -0.37134489 35
8.852294 10.643726 -1.2481954 37
9.175046 9.5276241 -1.2703664 2
2.5614078 3.5790565 -0.44868624 39
8.2011976 9.8608685 -1.3833427 3
7.2911615 8.7666693 -1.4319714 3
6.5297647 7.8511887 -1.4631621 3
5.9089074 7.1046891 -1.4892306 3
5.4233522 6.5208721 -1.5168812 4
5.0068011 6.0200238 -1.5400152 4
4.6667194 5.6111202 -1.5647204 5
4.3526611 5.2335062 -1.5801566 5
1.8785026 2.2586539 -0.73382133 1
1.5116489 1.8175602 -0.8132602 1
1.4303695 1.7198324 -1.0427096 17
2.9326441 3.476465 1.2005849 20
5.558435 6.5891747 1.6658252 24
5.9974689 7.109622 1.3012699 17
9.0060892 10.676151 1.2126603 28
8.9584846 10.619719 0.7147612 26
8.9832706 10.649101 0.47020751 28
13.668988 13.997354 0.54409206 48
2.5873625 3.5625064 0.096533827 30
8.9872313 10.653797 0.22333881 24
13.651216 13.979154 0.19779827 40
2.5950127 3.57304 0.018651789 20
9.014164 10.685724 -0.023179706 26
13.659912 13.988059 -0.14741722 29
2.5995026 3.579222 -0.059452504 5
8.9634962 10.625661 -0.26886225 38
8.8674269 9.0804462 -0.32038081 0
8.9899473 10.657017 -0.51684988 46
8.465601 8.6689672 -0.52055693 0
2.5872536 3.5623562 -0.21494558 31
8.9955359 10.663641 -0.76411158 42
8.4857712 8.689621 -0.73647928 1
2.5940006 3.5716465 -0.293735 33
9.0034609 10.673036 -1.0119314 40
8.6063299 8.813077 -0.96514082 4
2.5999315 3.5798125 -0.37268791 14
8.9751902 10.639524 -1.2550201 34
9.2969742 9.5203123 -1.2780147 3
2.6027012 3.583626 -0.45152602 2
8.2647104 9.7972937 -1.3824848 2
7.3521862 8.7155542 -1.4319714 3
6.5767579 7.7963328 -1.46146 3
5.9532704 7.0572271 -1.4879578 3
5.4611268 6.4738221 -1.5147686 4
5.0512371 5.9879236 -1.5407871 5
4.6956911 5.5664458 -1.5613662 4
4.3890915 5.202992 -1.5801566 6
12.641513 14.985717 -4.8973122 1
1.5243009 1.8069627 -0.8132602 15
1.4587049 1.7292029 -1.0545393 16
2.9744432 3.4764779 1.2077312 20
5.5813217 6.5233521 1.658995 24
6.0752859 7.1006894 1.3073661 18
9.1296263 10.670549 1.2192339 32
9.0869427 10.620661 0.71907693 28
9.109375 10.64688 0.47290599 28
13.684783 13.819194 0.54086733 41
13.661105 18.536243 0.50485176 32
9.1237926 10.663731 0.22487688 24
13.658414 13.792565 0.19650255 42
9.1431541 10.68636 -0.023318984 25
13.650282 13.784353 -0.14627118 28
9.0868578 10.620563 -0.27033186 39
8.8574486 8.9444447 -0.31775638 0
9.1057062 10.642592 -0.51922077 41
8.5146675 8.5982981 -0.51987016 0
9.1216936 10.661278 -0.76848668 39
8.5293722 8.6131458 -0.73502666 1
9.1399994 10.682673 -1.0188704 39
8.6003036 8.6847744 -0.95764214 6
9.1062279 10.643202 -1.2629224 30
9.4220467 9.5145893 -1.2860453 2
7.998651 10.853071 -1.3744565 3
8.3303204 9.7363348 -1.3820559 2
7.4128528 8.6640139 -1.4319714 3
6.6336002 7.7532372 -1.4620274 3
6.0023937 7.0154943 -1.4879578 3
5.5061893 6.4355388 -1.5147686 4
5.095469 5.9554963 -1.5415591 5
4.7496934 5.5513597 -1.5663974 4
4.4227748 5.1692629 -1.5792521 6
1.9476992 2.276437 -0.74836206 1
1.5393376 1.7991512 -0.81456143 14
1.4778123 1.7272414 -1.0596093 16
3.018919 3.478996 1.2158984 20
5.639596 6.4990592 1.6627896 23
6.1506729 7.0880232 1.3129082 17
9.2482977 10.657719 1.2251155 17
9.215847 10.620323 0.72339261 26
9.2385035 10.646433 0.47573939 30
13.678928 13.62175 0.53686422 44
13.608163 18.197025 0.49818823 35
9.2583055 10.669252 0.22635084 26
13.666511 13.609385 0.19524734 41
9.2673454 10.67967 -0.023444997 25
13.649817 13.59276 -0.14524578 31
11.384952 15.224117 -0.25549525 0
9.2184458 10.623318 -0.27203351 42
8.8686743 8.8316031 -0.31593949 0
11.346946 15.173295 -0.58980072 0
9.2400389 10.648202 -0.5226289 46
8.5405064 8.5048065 -0.51780993 0
11.420289 15.271371 -0.93097574 0
9.2561064 10.666718 -0.77351803 38
8.5270529 8.4914093 -0.72970039 1
10.954513 14.648528 -1.2171677 1
9.2718801 10.684896 -1.0252311 39
8.4742298 8.4388065 -0.93702084 1
9.2809725 12.410647 -1.3054149 1
9.2299185 10.636539 -1.269747 35
9.835269 9.794157 -1.3330817 2
8.0885239 10.816087 -1.3768907 2
8.3928766 9.6719341 -1.381198 2
7.4549499 8.5910692 -1.4284825 3
6.6849709 7.7037468 -1.46146 3
6.0564013 6.9793844 -1.4892306 3
5.5432415 6.38802 -1.512656 4
5.1317768 5.9138494 -1.5400152 5
4.7703896 5.4973874 -1.5605277 4
4.461309 5.1412034 -1.5801566 6
1.9788047 2.2803705 -0.75417835 1
1.5518605 1.7883607 -0.81456143 14
1.4922106 1.7196205 -1.0612992 16
3.0533535 3.4694488 1.219982 19
5.6926146 6.4683747 1.6650664 23
6.2235603 7.0716748 1.3178959 15
12.618647 14.338251 1.6582826 20
9.334631 10.606706 0.72688627 2
13.638764 15.497385 0.69674367 27
13.670987 13.425064 0.53286105 46
13.609171 17.935919 0.49362895 46
13.620998 15.477198 0.33036202 19
13.661304 13.415554 0.19383015 41
11.670812 15.381298 0.081550896 0
13.628014 15.485168 -0.034202501 23
13.664469 13.418663 -0.14440133 17
11.536893 15.204803 -0.25651658 0
9.3425856 10.615745 -0.27350312 26
8.8787584 8.7190409 -0.31412259 0
11.527515 15.192445 -0.59365892 0
9.3696079 10.64645 -0.52574068 4
8.5825644 8.428175 -0.51677978 0
11.548359 15.219914 -0.93273115 0
13.68152 15.545967 -1.1342452 19
8.5006638 8.3477478 -0.72243732 1
11.068574 14.587592 -1.2184956 2
8.4902573 8.3375282 -0.93233413 1
9.3842535 12.367778 -1.3077652 1
9.3697481 10.646608 -1.2787268 25
9.0170412 8.8548365 -1.2137698 0
8.1445932 10.733994 -1.3736452 2
8.4496841 9.6011639 -1.3794823 2
7.5121222 8.5358353 -1.427984 3
6.7412057 7.659862 -1.4620274 2
6.1023693 6.9339685 -1.4885942 4
5.5877028 6.3491659 -1.512656 3
5.1703448 5.8749328 -1.5392432 5
4.8164039 5.4727583 -1.5630432 4
4.4945178 5.1070075 -1.5792521 5
2.015187 2.2898064 -0.76193339 1
1.5718044 1.7860017 -0.81846511 16
1.5113649 1.7173259 -1.0663692 16
3.098103 3.4711313 1.2281493 19
5.7376332 6.4284754 1.6650664 24
6.3176212 7.0782971 1.3273174 16
12.800698 14.341971 1.669008 17
13.651165 15.29484 1.0546736 26
13.637482 15.279509 0.69121182 40
13.666718 13.234724 0.52908033 48
13.670629 17.758083 0.49134931 53
13.62219 15.262376 0.32779858 24
13.682795 13.250292 0.19281788 44
8.6156597 11.191703 0.059655316 0
13.605275 15.243424 -0.033877522 27
8.6369171 11.219316 -0.19029102 5
13.695955 15.345023 -0.39780164 33
8.913558 8.6318073 -0.31321412 0
8.6237593 11.202225 -0.44007921 12
13.689114 15.337358 -0.76208687 29
8.6383238 8.3652725 -0.51660806 0
8.6615419 11.251303 -0.69320923 0
13.680676 15.327903 -1.1252762 21
8.5185795 8.2493134 -0.71904784 5
8.6551561 11.243009 -0.94414824 2
11.492276 12.876009 -1.2507472 0
8.5224743 8.2530861 -0.92952216 1
8.6388226 11.221791 -1.192937 7
9.7409563 10.91382 -1.3189565 4
8.9470654 8.6642551 -1.1961789 0
8.2314682 10.692639 -1.3756737 2
8.5059147 9.5300722 -1.3777665 2
7.5715299 8.4831829 -1.427984 3
6.7892437 7.6067052 -1.4608927 2
6.1585169 6.9000354 -1.4905034 3
5.6345139 6.3129396 -1.5133601 4
5.2138467 5.8416224 -1.5400152 4
4.8440757 5.4273291 -1.559689 4
4.5248728 5.0696921 -1.5774431 5
2.0569651 2.3046348 -0.77162719 1
1.5993465 1.7919165 -0.82627237 14
1.5426303 1.7283714 -1.0798888 14
3.1288395 3.4591124 1.231212 20
5.798584 6.4106693 1.6703788 25
6.3989735 7.0744343 1.334522 16
11.537548 12.755425 1.4932501 2
13.642437 15.0825 1.0462476 26
13.633932 15.073098 0.6859498 32
13.673251 13.066442 0.52596676 57
8.6680021 11.10652 0.30889073 40
13.62653 15.064914 0.32549149 22
13.669162 13.062534 0.19140069 43
8.6626244 11.099629 0.059469476 20
13.609477 15.046061 -0.03363876 23
9.8494244 9.4123135 -0.10272157 0
8.6397734 11.07035 -0.18873213 25
13.684751 15.129281 -0.39455304 36
8.9474831 8.5503998 -0.3124066 0
8.6314507 11.059685 -0.43671888 27
13.696685 15.142474 -0.75690061 37
8.702282 8.3160801 -0.51712316 14
8.6818943 11.12432 -0.68891811 22
8.4878473 9.3838043 -0.69301617 0
8.55867 8.1788425 -0.71783733 17
8.6632318 11.100407 -0.93697751 33
8.4863625 9.382163 -0.91680986 1
8.5568419 8.1770954 -0.92733502 15
8.6517496 11.085694 -1.1845431 34
9.8051081 10.840113 -1.3178788 4
8.8344927 8.4424238 -1.1736168 0
8.3781004 10.735061 -1.3882498 2
8.5716009 9.4763994 -1.3781954 2
7.6356134 8.4416113 -1.4294794 3
6.8368878 7.5585737 -1.4603254 3
6.204144 6.8590393 -1.4905034 3
5.6683345 6.2666707 -1.5112475 4
5.2498426 5.8040037 -1.5392432 5
4.8720937 5.3863807 -1.5571735 4
4.5531693 5.0337911 -1.5756341 5
2.1112537 2.3341129 -0.78616792 1
1.6061211 1.7756594 -0.82366997 15
1.5516273 1.7154135 -1.0781989 14
3.18167 3.4685357 1.242442 23
5.853816 6.381608 1.6734145 24
6.5044403 7.0908937 1.3461603 16
11.690967 12.745048 1.5015537 3
13.636685 14.866196 1.0378218 29
13.630733 14.859708 0.6805529 37
13.673931 12.885659 0.52251965 49
8.6783056 10.961082 0.30652341 29
13.625931 14.854472 0.32299215 26
13.672694 12.884494 0.19018596 38
8.6604509 10.93853 0.058928844 29
13.600621 14.82688 -0.033360206 24
9.6849251 9.1266108 -0.10033901 0
8.6498156 10.925097 -0.18728076 28
13.687309 14.921384 -0.39161381 38
8.9662151 8.4493332 -0.31099346 0
8.6389627 10.911389 -0.4332341 32
8.7659426 8.2606058 -0.51746655 24
8.6775055 10.960071 -0.68248147 30
8.4802542 9.2448511 -0.68710977 1
8.606843 8.1106777 -0.71711099 35
8.6686697 10.948911 -0.92927557 31
8.5058079 9.2727089 -0.9118948 1
8.616622 8.1198931 -0.92764747 10
8.6646032 10.943774 -1.1758136 28
9.9020901 10.794883 -1.3207524 3
8.8323631 8.3231974 -1.1655861 0
8.4503708 10.673189 -1.3878441 2
8.6375494 9.4163275 -1.3781954 2
7.6782632 8.3705502 -1.4264888 3
6.8894892 7.5106592 -1.4603254 6
6.2465391 6.8097396 -1.4892306 4
5.7119455 6.2269459 -1.5112475 4
5.287581 5.7643199 -1.5384713 5
4.9227977 5.3666472 -1.5613662 4
4.5908341 5.0047526 -1.5765387 6
2.18521 2.3822329 -0.80749428 1
1.6363761 1.783915 -0.83277845 15
1.5709174 1.7125545 -1.0832688 14
3.2242465 3.4660611 1.2495884 22
5.8768258 6.3175807 1.6673431 27
6.5969553 7.0917192 1.3550276 17
11.866514 12.756488 1.512625 4
13.64491 14.668262 1.0306289 27
13.647011 14.67052 0.67623532 35
13.678614 12.710952 0.51929492 43
8.6744823 10.800456 0.3037177 30
13.625787 14.647705 0.32055688 22
13.665621 12.698878 0.18884976 10
8.6639662 10.787362 0.058438897 34
13.619344 14.640778 -0.033154607 27
9.6985931 9.0124884 -0.099826306 0
8.6557474 10.777129 -0.18577564 26
13.698533 14.725906 -0.38898396 43
8.998621 8.3620338 -0.31008503 0
8.6373167 10.754181 -0.42937595 18
8.6114168 9.2572632 -0.46869159 0
8.6812563 10.808889 -0.67682499 39
8.5391483 9.179574 -0.68667227 2
8.6661816 8.053112 -0.71735311 46
8.6749163 10.800996 -0.92183924 35
8.4915352 9.1283903 -0.90351021 1
8.7256813 8.1084032 -0.93327147 1
8.6659145 10.789788 -1.165741 29
8.9759636 9.6491499 -1.1882102 0
8.8377533 8.2125473 -1.1587027 1
8.5022497 10.586012 -1.3841929 3
8.6949511 9.3470621 -1.3769085 3
7.7365131 8.3167429 -1.4264888 3
6.9552398 7.4768744 -1.4631621 2
6.2993064 6.7717471 -1.4905034 3
5.7418699 6.172503 -1.5077264 5
5.3276944 5.7272654 -1.5384713 5
4.9548163 5.3264217 -1.559689 4
4.6230083 4.9697285 -1.5756341 6
2.1885719 2.3527122 -0.80264741 0
1.6616715 1.7862949 -0.83928454 15
1.6025896 1.7227819 -1.0967885 15
3.2669427 3.4631608 1.2567346 20
5.9288721 6.2849703 1.6696198 25
6.68436 7.0858335 1.3627864 17
12.031846 12.754499 1.5223125 5
13.642815 14.462225 1.0228196 26
13.642109 14.461477 0.6709733 33
13.669736 12.526005 0.51562536 55
8.6738949 10.646623 0.30108735 41
13.626169 14.444579 0.31818572 25
10.197497 9.344285 0.14001769 0
8.6759024 10.649086 0.058016527 51
13.619665 14.437685 -0.032909214 22
9.6875486 8.8770027 -0.099072337 0
8.6853008 10.660623 -0.18480805 35
13.693977 14.51646 -0.38596737 48
9.027297 8.2719936 -0.30907562 0
8.6919813 10.668822 -0.42838028 8
8.5743465 9.0893364 -0.46320894 0
8.7920322 8.0564137 -0.51231587 1
8.665659 10.636514 -0.6698032 11
8.5646544 9.0790625 -0.68360966 4
8.7221909 7.9924154 -0.71735311 3
8.6694403 10.641154 -0.91334057 32
8.3798475 8.8831549 -0.88500631 3
8.7320929 8.0014896 -0.92795992 4
8.6806078 10.654862 -1.1576828 13
9.0185032 9.5601702 -1.1849775 2
8.8302879 8.0914679 -1.1502897 1
8.5633793 10.510972 -1.3821646 3
8.7463474 9.2716684 -1.3747638 4
7.7862153 8.2538681 -1.4249935 3
6.9882483 7.4079747 -1.4591907 3
6.3437181 6.7247324 -1.4898671 4
5.795629 6.143724 -1.5105433 5
5.367548 5.6899319 -1.5384713 4
4.9704099 5.2689409 -1.5529808 4
4.6575904 4.9373331 -1.5756341 4
4.3699422 4.6324081 -1.590754 7
1.6870791 1.7884078 -0.84579062 13
1.6195532 1.7168262 -1.1001685 14
3.3044078 3.4542422 1.2618392 21
5.9726048 6.2434258 1.6696198 22
6.7802181 7.0876589 1.3722079 17
12.189463 12.74218 1.530962 5
13.638515 14.256937 1.0150102 26
13.632198 14.250334 0.6655764 32
13.676746 12.357888 0.51262301 37
8.7862234 10.632049 0.30240253 33
13.621621 14.239278 0.31575045 20
10.24171 9.2540941 0.13973425 0
8.7959003 10.643759 0.058320634 37
13.626116 14.243976 -0.032683719 26
9.6988325 8.7635679 -0.098559633 0
8.8104715 10.661392 -0.18588313 28
13.68717 14.307799 -0.38295081 39
8.9987841 8.1310253 -0.30614838 0
8.8197355 10.672602 -0.43099388 34
8.5270672 8.9137173 -0.45728177 0
8.8539925 8.0001955 -0.51265925 0
8.7804251 10.625032 -0.67292398 37
8.5588074 8.9468966 -0.67814082 3
8.8281364 7.9768333 -0.72146887 1
8.8019943 10.651134 -0.91944897 39
8.3616829 8.7408342 -0.87662172 8
8.823247 7.9724154 -0.93170923 0
8.8258753 10.680031 -1.167084 32
9.0547333 9.4653091 -1.1810263 1
8.9633741 8.0990295 -1.1602323 2
8.6416206 10.457067 -1.3829759 3
8.7806225 9.1787701 -1.3700455 4
7.8409052 8.1964417 -1.4244951 3
7.0343213 7.3532844 -1.458056 2
6.3823218 6.671721 -1.4879578 3
5.8111601 6.0746603 -1.5035012 4
5.4071403 5.6523204 -1.5384713 5
5.0178871 5.2454176 -1.556335 4
4.6838655 4.8962498 -1.5729207 4
4.4048581 4.6045914 -1.5917234 6
1.7047526 1.7820525 -0.84839308 14
1.6314994 1.7054778 -1.1001685 14
3.3419068 3.4449689 1.2669437 20
6.0187807 6.2043962 1.6703788 23
6.8764238 7.0884886 1.3816293 15
12.369688 12.751162 1.5423794 7
13.634798 14.055286 1.0074064 26
13.639492 14.060125 0.66112393 29
13.679096 12.18763 0.5095095 41
8.9013367 10.619488 0.30380538 35
13.626014 14.046231 0.31357154 26
10.117922 9.01474 0.13718332 0
8.9213829 10.643403 0.058658529 38
13.627745 14.048016 -0.032451589 25
9.7000475 8.6424265 -0.097956449 0
8.9412117 10.667059 -0.18706574 28
9.0851851 8.0946045 -0.30715778 0
8.9453945 10.67205 -0.433483 35
8.5278568 8.7908506 -0.45402181 0
8.9454336 7.9700904 -0.51471955 0
8.9031506 10.621651 -0.67662996 38
8.5292864 8.7923241 -0.67092186 1
8.9074583 7.9362559 -0.72340572 0
8.91716 10.638365 -0.92369831 41
8.3613873 8.6192474 -0.87026101 14
8.9739676 7.995513 -0.94170749 2
8.9463091 10.67314 -1.1731275 33
8.5963249 8.8614302 -1.1131389 0
8.9691572 7.9912276 -1.1537313 2
8.7041883 10.384285 -1.3813531 2
8.8361807 9.1086836 -1.3687587 3
7.8924079 8.1358051 -1.4234983 3
7.0717001 7.2897868 -1.4552194 2
6.4204941 6.6184978 -1.4860486 3
5.8534274 6.0339432 -1.5035012 4
5.4328046 5.6003489 -1.5346116 4
5.0625539 5.2186799 -1.5588505 4
4.7179332 4.863431 -1.5729207 5
4.4368963 4.5737276 -1.5917234 6
1.7250531 1.7782526 -0.85229671 12
1.663561 1.7148641 -1.1136882 15
3.3957098 3.4518821 1.2781737 21
6.0757189 6.1762247 1.6741734 23
6.9590797 7.0741982 1.3882798 17
12.525476 12.732675 1.5506829 3
13.640142 13.86578 1.0006245 26
13.641998 13.867666 0.65653652 36
13.676735 12.015306 0.50628471 32
9.0296526 10.621068 0.30564663 28
13.631185 13.856674 0.31145671 24
10.078444 8.8541288 0.13580662 0
9.047287 10.64181 0.058996424 34
13.624499 13.849878 -0.032212827 23
9.7421169 8.5586586 -0.097775497 0
9.0698662 10.668369 -0.18819459 27
9.2103262 9.3626852 -0.25401139 0
9.1715164 8.057374 -0.30816716 0
9.0766525 10.676352 -0.43622106 30
8.5525789 8.6940565 -0.45209548 0
9.0248756 7.9285474 -0.51609302 0
9.0366049 10.629246 -0.6811161 37
8.5596495 8.7012453 -0.66851556 4
9.1246233 8.0161772 -0.73647928 2
9.0480852 10.64275 -0.92954117 36
9.0804977 7.9774122 -0.94701904 4
9.0799828 10.680268 -1.1808499 33
8.4624128 8.6023998 -1.0879954 1
9.0606232 7.9599524 -1.1583203 2
8.7790489 10.326297 -1.3817589 2
8.9079227 9.0552788 -1.3700455 2
7.9434476 8.0748491 -1.4225014 3
7.1251965 7.2430625 -1.4557867 3
6.4665427 6.5735135 -1.4860486 3
5.9064541 6.0041599 -1.506318 5
5.4635124 5.5538907 -1.5322958 4
5.0988636 5.1832099 -1.5588505 4
4.7545033 4.8331532 -1.5738251 4
4.4659977 4.5398746 -1.590754 6
1.7506882 1.7796484 -0.8588028 12
1.6882049 1.7161314 -1.122138 7
3.4470396 3.4554727 1.2883828 21
6.1159148 6.1308775 1.6734145 24
7.0614538 7.0787296 1.3988097 17
13.565322 13.59851 1.6676241 25
13.646331 13.679717 0.9940483 27
13.642484 13.67586 0.65194917 31
13.68775 11.856701 0.50361598 34
9.1558104 10.618343 0.3074002 31
13.634377 13.667734 0.30934188 25
10.082568 8.7337952 0.1350373 0
9.1762133 10.642006 0.059351213 37
13.627633 13.660973 -0.031993963 25
9.7441854 8.4406786 -0.097202472 0
9.2015858 10.671431 -0.18937719 28
9.2302742 9.2528553 -0.25277382 0
9.2849693 8.0428925 -0.31008503 0
9.2084045 10.679338 -0.43895912 34
8.5763655 8.5973473 -0.45016915 0
9.1434402 7.9202962 -0.51969844 0
9.1575527 10.620364 -0.684627 34
8.5863371 8.6073437 -0.66589051 4
9.1803637 7.95228 -0.73647928 2
9.1821098 10.648845 -0.93564957 41
8.4471045 8.4677706 -0.86679155 0
9.2505074 8.0130405 -0.95889193 5
9.1985722 10.667936 -1.1865578 35
8.44911 8.4697809 -1.0786564 1
9.2423754 8.0059958 -1.1743815 7
8.7521772 10.150235 -1.3663429 2
8.9681139 8.9900541 -1.3696165 2
7.9968233 8.0163879 -1.422003 3
7.1783848 7.1959467 -1.456354 3
6.5066981 6.5226169 -1.4847757 3
5.9482269 5.962779 -1.506318 4
5.5104675 5.5239491 -1.5346116 5
5.1349244 5.1474872 -1.5588505 4
4.7936325 4.8053603 -1.5756341 5
4.4838786 4.4948483 -1.5859072 6
1.7710836 1.7754165 -0.86270642 12
1.7539139 1.7582048 -1.1576273 2
3.4930825 3.4530756 1.29655 20
6.1613603 6.0907927 1.6741734 14
7.1614103 7.0793891 1.4087853 17
13.566403 13.411025 1.6562067 22
13.656272 13.499864 0.98788303 28
13.643805 13.487539 0.6474967 34
13.688098 11.69074 0.50061363 28
9.2928982 10.626413 0.30950448 34
13.641289 13.485052 0.30735523 23
10.085507 8.6138372 0.13426797 0
9.302948 10.637905 0.059689108 36
13.631643 13.475517 -0.031781733 23
9.7450857 8.3230896 -0.096629456 0
9.3179874 10.655104 -0.19023725 13
9.2206974 9.1150904 -0.25076279 0
9.4108276 8.0376062 -0.3124066 0
13.620117 15.574581 -0.64406389 27
8.6020641 8.5035429 -0.44839099 0
9.2714424 7.91856 -0.52381897 0
9.2919636 10.625345 -0.6891132 40
8.4786339 8.3815269 -0.65298396 1
9.2963772 7.9398561 -0.74132138 2
9.3219128 10.659592 -0.94228917 41
8.4776421 8.3805466 -0.8639003 0
9.3486757 7.9845233 -0.96326613 6
9.3305492 10.669467 -1.1939443 19
8.457037 8.3601761 -1.0721909 2
9.3737345 8.0059252 -1.1839418 2
8.7756729 10.034967 -1.3590406 2
9.0193434 8.9160433 -1.3679007 2
8.0469475 7.9547844 -1.4210061 3
7.2087345 7.1261716 -1.4523827 3
6.5464592 6.4714813 -1.4835029 3
5.9869089 5.9183397 -1.5056138 5
5.5349412 5.4715486 -1.5307519 5
5.1623912 5.1032653 -1.556335 5
4.8270631 4.7717776 -1.5756341 4
4.5206685 4.4688926 -1.5878459 7
1.8022647 1.781623 -0.87181497 12
1.7713023 1.7510153 -1.1610073 2
3.5376937 3.4462683 1.3036963 17
6.2058425 6.0454636 1.6741734 18
7.2641888 7.0764589 1.418761 19
13.567295 13.216673 1.6444434 23
13.660438 13.307408 0.98110121 28
13.667856 13.314635 0.64398867 31
13.693884 11.523153 0.49772248 22
13.684177 15.418281 0.45198175 33
13.648099 13.295388 0.3053045 26
10.105533 8.5036221 0.1337011 0
13.658136 15.388939 0.08690653 39
13.635507 13.283121 -0.031562869 22
9.7782898 8.2282534 -0.096358024 0
13.646406 15.375723 -0.27629825 25
9.1984625 8.9607449 -0.24836498 0
9.5398645 8.0276222 -0.3147282 0
13.622453 15.348734 -0.63883674 28
8.6527147 8.429101 -0.44779828 1
9.4026251 7.912138 -0.5279395 0
13.713616 15.45145 -1.0086058 31
8.5055151 8.2857056 -0.65035892 3
9.4459782 7.9486184 -0.74858451 3
12.552495 14.143187 -1.2583331 4
8.4759779 8.2569323 -0.85753959 6
9.5320539 8.0210505 -0.97607636 4
10.204898 11.498096 -1.2950065 2
8.4838495 8.2645988 -1.0678806 30
9.4930992 7.9882703 -1.19159 3
8.8437138 9.9644165 -1.3582292 2
9.0787621 8.8441381 -1.3670429 2
8.0993576 7.8900442 -1.4200093 3
7.2721243 7.0841889 -1.454652 3
6.582407 6.4122968 -1.4809572 3
6.0273113 5.8715467 -1.5049096 5
5.5833354 5.4390445 -1.5330677 4
5.2024632 5.0680146 -1.5571735 5
4.8479576 4.7226706 -1.5711117 5
4.5560861 4.4383421 -1.5888153 6
1.8179858 1.7710032 -0.8731162 13
1.7866873 1.7405136 -1.1626972 2
3.5867684 3.4456005 1.3128844 18
6.2818832 6.0346413 1.6832803 23
7.3762641 7.0859494 1.4309535 18
13.584515 13.049856 1.635448 25
13.663702 13.125927 0.97473043 29
13.662453 13.124727 0.63940126 32
13.690908 11.35834 0.49472013 33
13.676442 15.194562 0.44821158 32
13.63675 13.100037 0.30299741 22
10.124635 8.3996649 0.13317472 0
13.671579 15.189159 0.086315215 38
9.7923985 8.124033 -0.095935799 0
13.64906 15.164141 -0.27420181 28
9.220418 8.857522 -0.2472821 0
9.6818447 8.0323153 -0.3175545 0
13.627636 15.140338 -0.63410735 27
8.6969357 8.3546429 -0.44705737 9
9.534524 7.9100938 -0.53223169 0
13.722258 15.245463 -1.0013889 27
8.5458698 8.2095222 -0.64904636 7
9.7009745 8.0481853 -0.76432121 2
8.4855728 9.4274931 -0.84402335 0
8.5247841 8.1892662 -0.85667223 16
9.5939579 7.9594011 -0.97670126 2
8.4263287 9.3616714 -1.0609854 0
8.5499582 8.2134495 -1.0689582 2
10.654881 8.839572 -1.32964 3
8.9050751 9.8935614 -1.3570122 2
9.1316805 8.7722759 -1.365756 1
8.1542425 7.8333082 -1.4200093 3
7.33568 7.0469627 -1.4574887 3
6.6298604 6.3689227 -1.4815936 3
6.0624766 5.8238702 -1.5035012 5
5.624001 5.4026523 -1.5338397 4
5.2348967 5.028862 -1.556335 5
4.8808093 4.6887107 -1.5711117 5
4.5729666 4.3929844 -1.5839684 7
1.8466716 1.7739904 -0.88092345 13
1.8040237 1.7330211 -1.1660771 1
3.6331973 3.4417546 1.3210517 18
6.3295617 5.9960408 1.6847982 22
7.474443 7.0805955 1.440375 16
13.579819 12.864263 1.6240306 27
13.656403 12.936811 0.9677431 29
13.669582 12.949296 0.63548851 31
13.652258 11.166287 0.49049461 31
13.679739 14.986477 0.4448798 37
13.643672 12.924751 0.30113891 25
10.155163 8.3059864 0.13281029 0
13.680207 14.98699 0.085707001 40
9.9429369 9.4190178 -0.022708816 0
9.8736448 8.0757303 -0.096177071 0
13.649433 14.953277 -0.2721054 28
9.2442865 8.7571812 -0.24627659 0
9.8119707 8.0252867 -0.31997705 0
13.63597 14.938527 -0.62962693 12
8.7579527 8.2964735 -0.44720554 24
9.6668491 7.9065905 -0.53652388 0
8.5971756 8.1441679 -0.64860886 20
9.7043848 7.9372916 -0.76020545 0
8.4731522 9.2825375 -0.83632147 0
8.6136065 8.1597328 -0.85985261 1
9.7573271 7.9805937 -0.9876368 2
8.400116 9.2025251 -1.0495697 1
8.60709 8.1535606 -1.0689582 2
10.716332 8.7649717 -1.32964 3
8.960515 9.8164558 -1.3549837 2
9.1724892 8.689167 -1.3627535 1
8.1885614 7.7570848 -1.4165204 2
7.3703256 6.9819641 -1.454652 2
6.6741619 6.3224831 -1.4815936 3
6.1087031 5.7868199 -1.5049096 5
5.6615815 5.3632579 -1.5338397 4
5.2613587 4.9841242 -1.5538193 5
4.8936229 4.6357651 -1.5647801 5
4.6147933 4.3716278 -1.5878459 7
1.8837248 1.7844665 -0.89263445 11
1.8266064 1.7303579 -1.172837 2
3.6825724 3.4400675 1.3302399 17
6.4028363 5.9811964 1.6931463 21
7.5815887 7.0823259 1.4514591 16
13.581933 12.687535 1.6136513 26
13.658809 12.759348 0.96157783 40
13.657404 12.758036 0.63076621 33
13.65829 11.01298 0.48793706 35
13.672648 14.770287 0.44128498 35
13.645889 12.74728 0.29921633 24
10.197333 8.2223349 0.13260785 0
13.670377 14.767833 0.084997423 36
9.8009157 9.1555061 -0.022237927 0
9.9360104 8.0116243 -0.096237391 0
13.658397 14.75489 -0.27022398 26
9.2613592 8.6514797 -0.24511635 0
9.92379 8.001771 -0.32179394 0
8.6692715 9.3652391 -0.39726609 0
8.8068953 8.226943 -0.44676101 9
9.8151407 7.9141645 -0.54167449 0
8.4460325 9.1240778 -0.60699695 0
8.642148 8.0730448 -0.64773387 38
9.8403721 7.9345093 -0.76650017 0
8.3723621 9.0444937 -0.82012087 20
8.6878538 8.1157408 -0.86158735 12
9.8966208 7.9798641 -0.99607283 0
8.3910494 9.064682 -1.0405043 2
8.643424 8.0742369 -1.0664438 1
10.771063 8.6849461 -1.3288752 2
9.0315304 9.7565804 -1.3553895 3
9.238739 8.6303492 -1.3636113 2
8.2425156 7.6997294 -1.4165204 3
7.4102082 6.9222307 -1.45295 2
6.7123661 6.2703428 -1.4803207 3
6.1489534 5.7440324 -1.5049096 5
5.684545 5.3102059 -1.5299799 4
5.2960258 4.9472718 -1.5538193 5
4.9401035 4.6147876 -1.5693027 5
4.6338568 4.3287077 -1.5839684 6
1.9099569 1.7841824 -0.89914054 11
1.8439405 1.7225133 -1.176217 2
3.7434785 3.448339 1.3435116 18
6.4762115 5.9656205 1.7014943 22
7.6803803 7.0748515 1.4608804 19
13.585179 12.51411 1.6036178 25
13.662347 12.585194 0.95561808 46
13.654987 12.578414 0.62658358 34
13.631548 10.835256 0.48426753 53
13.685109 14.578259 0.4383916 33
13.658067 12.58125 0.29755011 25
10.238832 8.1385002 0.13240539 0
13.671848 14.564133 0.084372319 42
9.7851601 9.0136881 -0.022058856 0
10.066849 8.0017967 -0.0969612 0
13.6461 14.536704 -0.2679663 30
9.2921181 8.5595179 -0.24434288 0
10.048277 7.9870348 -0.3240146 0
8.6304607 9.1937218 -0.39253673 0
8.8288345 8.132761 -0.44498286 7
9.9546194 7.9125896 -0.54631007 0
8.4302254 8.9804182 -0.60134047 0
8.6953602 8.0098085 -0.64751506 5
9.9955435 7.9451184 -0.77424747 0
8.3642769 8.9101658 -0.81321573 27
8.7149572 8.0278616 -0.8586961 5
10.033255 7.9750943 -1.0041964 0
8.3777437 8.924511 -1.0311033 2
8.6995821 8.0136976 -1.0664438 2
10.825198 8.6045828 -1.3281105 3
9.0994234 9.6932917 -1.3553895 2
9.2929144 8.5602512 -1.3627535 2
8.2931499 7.6393094 -1.4160219 3
7.452529 6.864964 -1.4518154 3
6.7617869 6.2286806 -1.4815936 3
6.1831126 5.6956301 -1.5035012 5
5.7214785 5.2703915 -1.5299799 4
5.3218055 4.9022288 -1.5513036 5
4.9664688 4.5749073 -1.5674937 5
4.669672 4.3015103 -1.5859072 5
1.9418402 1.7887436 -0.90824902 10
1.8692538 1.72188 -1.1846668 2
3.7875006 3.4403234 1.3506579 17
6.5322361 5.9334655 1.705289 22
7.791163 7.0769944 1.4725187 17
13.586668 12.34126 1.5935844 27
13.667078 12.4143 0.94986379 42
13.671447 12.418268 0.62334543 32
13.63447 10.683106 0.48170996 54
13.670743 14.360711 0.4347091 57
10.389853 8.14083 0.13362011 0
13.665632 14.355343 0.08371342 44
9.7915916 8.8940554 -0.021932844 0
10.32712 8.0916758 -0.098921537 0
13.647974 14.336794 -0.26603115 26
9.3190832 8.46486 -0.24349205 0
10.191925 7.9857464 -0.32684091 0
8.6117353 9.0463734 -0.38880304 0
8.8646841 8.0521126 -0.44394562 2
10.094551 7.9094505 -0.55094564 0
8.4458847 8.8721523 -0.59802461 0
8.8042822 7.9972467 -0.65145266 0
10.141909 7.946557 -0.78126848 0
8.3684883 8.7908497 -0.80763847 37
8.7826014 7.9775538 -0.85985261 1
10.192273 7.9860191 -1.0145071 0
8.3821306 8.8051805 -1.0240524 1
8.7582636 7.9554472 -1.066803 1
10.900677 8.5410795 -1.3300225 2
9.1504116 9.612237 -1.3529553 2
9.3642235 8.5058622 -1.3644692 2
8.3345289 7.5705528 -1.4140282 3
7.4973421 6.8101063 -1.4512479 3
6.7992592 6.1760125 -1.4803207 3
6.21981 5.6496778 -1.502797 5
5.7523227 5.2250423 -1.5284361 3
5.3616891 4.8702154 -1.5529808 5
4.9954019 4.5375037 -1.5665891 5
4.6938429 4.263587 -1.5839684 7
1.96268 1.782773 -0.91215265 4
1.9000145 1.7258517 -1.1964966 2
3.8517585 3.449923 1.3649507 16
6.5764256 5.8903384 1.7060479 20
7.8934941 7.070004 1.4824944 17
13.586411 12.169005 1.5835509 27
13.664145 12.238629 0.94369853 45
13.668471 12.242506 0.61929774 35
13.680239 10.565664 0.4807092 50
13.673454 14.164223 0.43164039 57
10.254385 9.1845942 0.22058313 0
10.547731 8.1463337 0.13491583 0
13.671062 14.161744 0.083139002 38
9.8147097 8.7907887 -0.021846624 0
10.576463 8.1685238 -0.10076124 0
13.64217 14.131816 -0.26398847 28
9.3481617 8.3729124 -0.24271856 0
10.320216 7.9706163 -0.32916251 0
8.5997066 8.9083681 -0.38544267 0
8.9385481 8.006032 -0.44483468 0
10.244408 7.9120674 -0.55609626 0
8.4382467 8.7411127 -0.59314835 0
8.8866749 7.9595704 -0.65342146 2
10.291938 7.9487758 -0.7885316 0
8.3769865 8.6776543 -0.8025924 27
8.9094038 7.979928 -0.86679155 1
10.326679 7.9756079 -1.0223181 0
8.3852625 8.6862268 -1.0170015 1
8.8759079 7.9499273 -1.0743461 0
10.934829 8.4453001 -1.3269632 2
9.1924191 9.5223541 -1.3493042 2
9.361167 8.3845615 -1.3554614 1
8.3842211 7.5095353 -1.4135298 3
7.5535512 6.7655253 -1.45295 3
6.8333855 6.120491 -1.4784114 3
6.2854972 5.6297617 -1.5091349 5
5.7945065 5.1899934 -1.5299799 4
5.3955588 4.8326659 -1.5529808 5
5.0327625 4.5077186 -1.5683981 4
4.7234941 4.2307143 -1.5839684 8
2.0201585 1.8094051 -0.93297213 0
1.9228191 1.7222207 -1.2032565 2
3.9076369 3.4511106 1.3761806 17
6.6291623 5.854682 1.7090836 23
8.0050135 7.0697937 1.4941326 16
13.593375 12.005271 1.5745555 28
13.674397 12.076828 0.93856078 39
13.672703 12.075332 0.61565477 33
13.680492 10.414197 0.47815162 52
13.676891 13.971258 0.42865932 57
10.240314 9.0439453 0.21891691 0
10.747562 8.1815205 0.13673791 0
13.671661 13.965916 0.082547687 46
10.76029 9.5031738 -0.023803137 0
10.639598 8.0993328 -0.10082155 0
13.653762 13.947631 -0.26232207 25
9.373414 8.2783251 -0.24186774 0
10.477425 7.9758801 -0.33239257 0
8.6169405 8.8024025 -0.38345137 0
9.0451555 7.9884167 -0.44735372 0
10.37571 7.8984504 -0.56021672 0
8.4431686 8.6248913 -0.58924735 0
8.9839373 7.9343505 -0.65648407 0
10.44884 7.9541197 -0.79627889 0
8.3759403 8.5562153 -0.79674959 9
9.0187216 7.9650712 -0.87199575 2
8.6845436 6.6110597 -0.85516036 1
8.4178171 8.5989933 -1.013644 1
8.9998703 7.9484224 -1.0826075 2
8.7536306 6.6636515 -1.0565993 4
9.2809429 9.4806957 -1.3525497 2
9.1064844 8.0425806 -1.3104223 2
8.4572659 7.4692097 -1.4170188 3
7.5798244 6.6942792 -1.4489787 3
6.8848271 6.0804782 -1.4803207 3
6.3157935 5.5779238 -1.5070223 5
5.83354 5.1520119 -1.5307519 4
5.4291654 4.7948799 -1.5529808 5
5.0553479 4.4647355 -1.5656847 5
4.747097 4.1924973 -1.5820297 7
2.0469165 1.8077768 -0.93947822 0
1.9782741 1.7471539 -1.2302959 1
3.9403846 3.431366 1.3792434 16
6.6787586 5.8159971 1.7113603 21
8.1169109 7.0683689 1.5057709 18
13.589705 11.834188 1.564522 28
13.671011 11.904991 0.93260103 48
13.657183 11.892949 0.6112023 37
13.70169 10.280043 0.47637245 34
13.686756 13.787456 0.42594129 47
10.251927 8.9275846 0.21782744 0
10.820415 8.1182919 0.13694037 0
13.675833 13.776452 0.08199016 40
9.8188467 8.5504494 -0.021587968 0
10.769469 8.0800695 -0.10151521 0
13.612728 13.712883 -0.25968811 2
9.3827229 8.1706638 -0.24063016 0
10.596823 7.9505363 -0.33441135 0
8.6274815 8.690958 -0.38121116 0
9.1429071 7.9618268 -0.44942826 0
10.539284 7.9073668 -0.56605411 0
8.4525108 8.5146999 -0.58573645 0
9.3282652 8.1232405 -0.67748451 3
8.9136467 6.6876907 -0.67571127 2
8.4129744 8.4748726 -0.79462492 1
9.2636538 8.0669756 -0.89021051 2
8.6347914 6.4784727 -0.84578705 3
8.4860668 8.5485029 -1.0146512 1
9.1212378 7.9429564 -1.0905098 2
8.69802 6.5259118 -1.0443621 1
9.3216715 9.3902559 -1.3488985 1
9.1414165 7.9605293 -1.3074198 2
8.4942389 7.3969536 -1.4145266 2
7.6293602 6.6438003 -1.449546 3
6.9300871 6.0348587 -1.4809572 4
6.3664579 5.5440392 -1.5098391 5
5.8752851 5.1163163 -1.5322958 3
5.4477596 4.7440186 -1.5487881 4
5.0746403 4.4190989 -1.5620667 4
4.7733235 4.1567059 -1.5810603 7
2.0680447 1.8008947 -0.94338185 0
2.12166 1.8475841 -1.3114144 1
4.0041232 3.4404438 1.393536 17
6.7142062 5.7690148 1.7106014 20
8.2387276 7.0789218 1.519626 18
13.592328 11.67887 1.5558726 31
13.6618 11.738563 0.92664123 51
13.669049 11.744792 0.60823399 30
13.708497 10.143754 0.4742597 31
13.681469 13.600521 0.42296022 63
10.253275 8.8098717 0.21660982 0
11.025135 8.1581707 0.13884345 0
13.68747 13.606487 0.081517108 44
9.8328657 8.4486456 -0.021495115 0
10.916065 8.0774632 -0.10238983 0
9.5988874 9.5420942 -0.18190531 1
9.3669395 8.0483103 -0.23885116 0
10.752179 7.9561939 -0.33764139 1
8.6764259 8.6250906 -0.3808378 0
9.2349243 7.9348798 -0.45135459 0
10.691081 7.9109836 -0.57137644 0
8.4889622 8.4387369 -0.58437109 0
9.5485497 8.2043543 -0.68951607 3
8.8069572 6.5168052 -0.66433239 1
8.429369 8.3794956 -0.79090673 0
9.3320818 8.0183601 -0.89165616 5
8.6262779 6.38311 -0.84078795 3
8.469079 8.4189711 -1.0059216 1
9.2643661 7.9601765 -1.1012856 2
8.5906773 6.3567667 -1.0263888 30
9.3781013 9.3226147 -1.3480871 1
9.2513237 7.9489698 -1.3155696 2
8.5431099 7.3404555 -1.4145266 3
7.6792617 6.5982151 -1.4506806 3
6.9849353 6.0016322 -1.4841392 3
6.4120464 5.5093918 -1.5119518 5
5.92695 5.0925846 -1.5369275 4
5.4791036 4.7077837 -1.5487881 5
5.1245246 4.4031205 -1.5683981 4
4.8125606 4.1350732 -1.5849378 8
2.1086318 1.8117896 -0.95639402 0
2.1201179 1.8216586 -1.3029644 2
4.0634561 3.4424052 1.4057869 16
3.8865793 3.292562 0.98431677 2
8.3514204 7.0750055 1.5312643 17
13.582314 11.506419 1.5454931 29
13.661121 11.573182 0.92109251 42
13.668353 11.579309 0.60459107 35
13.707905 9.9959755 0.47181335 28
13.687555 13.41789 0.42024219 60
10.247393 8.681201 0.21519993 0
11.156153 8.1352053 0.13977474 0
13.682154 13.412595 0.080925792 44
9.8610878 8.3539381 -0.021428794 0
11.062683 8.0670462 -0.10323428 0
9.6024342 9.4132519 -0.18072271 0
9.480876 8.0318375 -0.24032077 0
10.914083 7.9586854 -0.34097239 0
8.7050228 8.5335207 -0.37946877 0
9.3663425 7.9348092 -0.45505905 0
10.83969 7.9044371 -0.5763554 1
8.5048742 8.3373156 -0.58144534 0
9.6360683 8.1633101 -0.69170362 5
8.7167444 6.356359 -0.65416408 2
8.4591627 8.2925043 -0.78825092 6
9.4365368 7.9942751 -0.89628214 2
8.5997448 6.2710409 -0.83391416 3
8.4991846 8.3317385 -1.0025641 1
9.3957043 7.9596834 -1.1102654 6
8.6123257 6.2802157 -1.0237119 1
9.440114 9.2541304 -1.3476814 1
9.3763838 7.9433155 -1.3254354 2
8.5759783 7.2652426 -1.4115361 3
7.7190962 6.5393248 -1.449546 3
7.0146117 5.942512 -1.4815936 3
6.4293227 5.4466772 -1.5070223 5
5.9593635 5.0485458 -1.5361555 4
5.5178041 4.6744738 -1.5504651 4
5.1432471 4.3571634 -1.5647801 4
4.8324285 4.0938492 -1.5820297 8
2.2741885 1.9266059 -1.0253584 0
2.1300173 1.8044696 -1.3012745 1
4.1319141 3.4511425 1.4211005 16
3.9727697 3.3182187 1.000254 13
8.4735785 7.077477 1.5445652 21
13.56138 11.327016 1.5340759 28
13.661869 11.410948 0.91574925 46
13.669084 11.416973 0.6010831 33
13.699426 9.8440361 0.46914458 34
13.688889 13.233066 0.41743648 54
10.258635 8.568428 0.21417455 0
11.329609 8.1411495 0.14123242 0
13.677677 13.222226 0.080351368 42
9.8853979 8.2566853 -0.021355838 0
11.281144 8.1063242 -0.10474223 0
9.5385113 9.220891 -0.17830375 0
9.5704813 7.9936547 -0.2411716 0
11.092776 7.9709682 -0.34480807 0
8.7068949 8.4169664 -0.37697962 0
9.4859352 7.923038 -0.45817083 0
9.278429 6.6672273 -0.49085495 0
8.5599985 8.2749605 -0.58125031 1
9.6499081 8.0599947 -0.68864107 3
8.6798477 6.237103 -0.64811146 2
8.5082388 8.224925 -0.78745413 10
9.5502949 7.9767942 -0.90177548 2
8.5850229 6.1689649 -0.82829016 2
8.5399485 8.255579 -1.0005496 1
9.5152531 7.947526 -1.1178085 2
8.5330887 6.1316462 -1.0091803 6
9.5016289 9.185236 -1.3472757 1
9.6849499 8.089263 -1.3610377 1
8.6203976 7.2001057 -1.4105393 3
7.7645607 6.4852767 -1.449546 3
7.0710812 5.906054 -1.4847757 4
6.4762564 5.4092321 -1.5091349 4
6.0065122 5.0168829 -1.5392432 4
5.5473018 4.6333318 -1.5496266 4
5.1795211 4.3261466 -1.5665891 5
4.8608904 4.0600133 -1.5820297 8
2.3485465 1.9616015 -1.0526841 0
2.1314325 1.780259 -1.2945147 1
4.1917338 3.451714 1.4333513 16
3.9018545 3.213011 0.9767276 3
8.5931177 7.076066 1.5573119 16
13.550915 11.158601 1.5240424 28
13.608598 11.2061 0.90691239 60
13.615753 11.211992 0.59528136 29
13.686233 9.6903925 0.46636462 57
13.676734 13.03784 0.41428006 53
10.265718 8.4533806 0.2130851 0
11.516744 8.1543083 0.14285205 0
13.682795 13.043618 0.079844527 35
9.9026575 8.1544161 -0.021269619 0
11.500685 8.1429377 -0.10625017 1
9.5505428 9.1043997 -0.17733617 0
9.7217588 8.0054541 -0.24356939 0
11.242795 7.9603424 -0.34773532 0
8.7307177 8.3228712 -0.37548614 0
9.6335888 7.9328494 -0.46261621 0
9.2236414 6.5307016 -0.48553261 1
8.5973167 8.1957026 -0.57988495 0
9.6381111 7.9365735 -0.68382841 0
8.664525 6.1348252 -0.64375359 3
8.5683413 8.1680803 -0.78771973 4
9.7166214 8.0012236 -0.91218388 1
8.7385368 6.1872287 -0.83891326 1
8.5627546 8.162755 -0.99652046 2
9.6289368 7.9290195 -1.1246331 2
8.5204449 6.0328107 -1.0026793 23
9.5540009 9.1076956 -1.3456531 1
9.7227678 8.0062847 -1.358464 2
8.6827087 7.1498408 -1.4125329 3
7.8157601 6.435945 -1.4506806 3
7.099947 5.8465037 -1.4822299 4
6.5138621 5.3638878 -1.5091349 5
6.0292711 4.964848 -1.5361555 3
5.5764942 4.5920053 -1.5487881 4
5.212605 4.2923579 -1.5674937 5
4.8951077 4.0309129 -1.5839684 7
3.6907301 3.0391591 -1.6447375 6
2.1018288 1.7307664 -1.2691652 1
4.2547631 3.4540548 1.4466231 16
3.9028463 3.1683657 0.97141516 3
6.8738642 5.5802646 1.2386448 3
13.566609 11.013495 1.5171227 31
13.621368 11.057949 0.90259665 58
13.622309 11.058713 0.59217817 31
13.694522 9.5534315 0.46436307 49
13.68001 12.859871 0.4116497 35
10.312061 8.3714247 0.21282876 0
11.704608 8.1652479 0.14447169 0
10.015243 8.1304646 -0.021389 0
11.580215 8.0784702 -0.10646129 0
9.5177031 8.9471006 -0.17556228 0
9.8488235 7.9953632 -0.24534841 0
11.432555 7.975461 -0.35187382 0
8.7769575 8.2507639 -0.37498832 0
9.7818365 7.9409823 -0.46706161 0
9.2362318 6.443285 -0.48381576 1
8.6397686 8.1218004 -0.5789097 0
9.7894096 7.9471307 -0.69060981 0
8.6711226 6.0490589 -0.64109045 3
8.6455116 8.1271992 -0.7895788 0
9.8620672 8.006115 -0.92056847 0
8.7717066 6.1192269 -0.83797592 2
8.6108198 8.0945864 -0.9955132 10
11.25528 9.1371374 -1.3071032 2
8.5394936 5.9572334 -1.0000025 22
9.6144514 9.0380487 -1.3452474 1
9.7722483 7.9331994 -1.3576062 1
8.7139235 7.0740418 -1.4095423 4
7.8236113 6.3512783 -1.4438726 3
7.1497869 5.8042612 -1.4841392 4
6.5542068 5.3207641 -1.5098391 5
6.0607376 4.9201612 -1.5353836 3
5.6114526 4.5554276 -1.5496266 4
5.2303438 4.2460399 -1.5638757 6
4.9171033 3.9917488 -1.5820297 7
3.7118571 3.013319 -1.6447375 8
2.1026013 1.7069106 -1.2624053 9
4.3270869 3.4629321 1.4629576 18
3.897274 3.1189563 0.96458489 3
6.9528618 5.5643182 1.2458495 6
13.568496 10.858755 1.5088192 32
13.623382 10.90268 0.89766443 52
13.636756 10.913383 0.58947968 30
13.688389 9.4077692 0.46191671 58
13.693202 12.693368 0.40937006 39
10.34215 8.2767372 0.21225199 0
11.847031 8.1422386 0.14552446 0
10.073535 9.3379974 0.058016527 0
11.892485 9.517458 -0.0252556 0
11.748408 8.0744581 -0.1074867 0
9.5271349 8.8314934 -0.17459469 0
9.9293804 7.9464016 -0.24596719 0
11.606592 7.9769897 -0.35550761 0
8.8079557 8.1648264 -0.3738682 0
9.9244213 7.9424324 -0.47121063 0
9.2085333 6.3288498 -0.48003861 0
8.6845388 8.0504217 -0.57812947 1
9.9350853 7.9509668 -0.69695371 0
8.6802359 5.9657612 -0.63866943 3
8.7049656 8.0693569 -0.78984439 1
9.9924765 7.9968967 -0.92750746 0
8.7747755 6.0307364 -0.83422661 3
8.6700439 8.0369844 -0.99584895 7
11.35923 9.0906992 -1.3117726 5
8.5480604 5.8749194 -0.99617839 25
9.691906 8.9842339 -1.3472757 1
9.8460245 7.8796926 -1.3601798 2
8.7630978 7.0130348 -1.4095423 4
7.8924923 6.3162971 -1.4484113 3
7.1808848 5.7468033 -1.4822299 4
6.6127124 5.2920995 -1.5147686 5
6.0888104 4.8728251 -1.5338397 3
5.6400647 4.5136976 -1.5487881 3
5.2476902 4.1996832 -1.5602577 9
4.950911 3.9621735 -1.5839684 7
3.7357566 2.9896953 -1.6460387 7
2.1427727 1.7148433 -1.279305 8
4.3815212 3.4565935 1.4731666 18
3.8912029 3.0697803 0.95775467 3
7.0537405 5.5647149 1.2569336 8
13.575142 10.709465 1.5012077 29
13.617621 10.742978 0.89232123 47
13.631009 10.753539 0.58597165 32
13.697447 9.2738695 0.46002635 60
13.704741 12.527312 0.40709046 39
10.42166 8.2216759 0.21270059 0
12.095685 8.189395 0.14787292 0
9.961338 9.1055202 0.057002842 0
10.325631 8.1459179 -0.021806831 0
11.92373 8.0729723 -0.10857242 0
9.5531321 8.7323847 -0.17394964 0
10.097648 7.9660616 -0.24875173 0
10.171965 6.8869381 -0.31008503 6
8.8647423 8.103137 -0.3738682 1
10.061222 7.9373245 -0.47506329 0
9.2061644 6.2330418 -0.477635 1
8.7375813 7.9869008 -0.57793444 0
10.081286 7.9531536 -0.70329762 0
8.6952238 5.8871093 -0.63673258 3
8.7286835 7.9787679 -0.78692299 2
10.129498 7.991188 -0.93502462 0
8.724205 5.9067311 -0.82547814 1
8.7524185 8.0004635 -0.99887073 2
11.353608 8.956892 -1.3038703 2
8.5460052 5.7860808 -0.99120706 18
9.7338314 8.8975592 -1.3444359 1
9.8851843 7.7984476 -1.3580351 1
8.7993803 6.9418545 -1.4075487 5
7.9270697 6.2536864 -1.4467093 3
7.2115283 5.6891937 -1.4803207 4
6.6464057 5.2433672 -1.5140644 5
6.135006 4.8399229 -1.5369275 3
5.6775799 4.4790578 -1.5504651 3
5.298295 4.1798391 -1.5665891 5
4.9693108 3.9203024 -1.5810603 7
3.7535679 2.9611998 -1.6447375 7
2.1916947 1.7290338 -1.3012745 7
4.4494958 3.4576061 1.4874593 17
3.8980951 3.0291247 0.95396006 4
7.1600308 5.5639038 1.2685719 9
13.599789 10.568099 1.495326 25
13.658154 10.613455 0.88985509 54
13.681061 10.631254 0.58475739 29
13.698513 9.1288652 0.45780239 51
13.701117 12.340872 0.40428475 34
10.538493 8.1892328 0.21385413 0
12.265229 8.173707 0.14920913 0
9.9743185 8.9840698 0.05669874 0
10.549307 8.1976366 -0.022151709 0
12.115726 8.0740767 -0.10977878 0
9.5782518 8.6273251 -0.17325082 0
10.256823 7.9703536 -0.25122687 0
10.075764 6.7146187 -0.30564368 0
8.9357843 8.0486412 -0.37436604 1
10.194886 7.9222236 -0.47861961 0
9.2250023 6.1476603 -0.4762615 1
8.8463573 7.9680929 -0.58125031 0
10.230774 7.9501114 -0.70964152 0
8.6982746 5.7966423 -0.63382739 3
8.8254871 7.949295 -0.79037559 1
10.269711 7.9803681 -0.94254184 0
8.7141743 5.8072376 -0.82047904 1
8.8493299 7.9707704 -1.0032356 1
11.422107 8.8758698 -1.3042295 3
8.5782499 5.7166557 -0.99005985 13
9.0034151 8.1095581 -1.235307 2
9.9295225 7.7160153 -1.3563193 1
8.821825 6.855248 -1.4030628 4
7.9633188 6.1881213 -1.4450073 2
7.26863 5.648294 -1.4835029 4
6.6846633 5.1945062 -1.5140644 4
6.1641216 4.7900043 -1.5353836 3
5.7071724 4.4349189 -1.5496266 3
5.3195624 4.1337161 -1.5638757 5
5.0071077 3.8909142 -1.5839684 7
3.781147 2.9382467 -1.6473399 6
2.2214868 1.726269 -1.3114144 4
4.5165105 3.4593828 1.501752 17
3.8879688 2.9779565 0.9463709 3
7.2615976 5.5619588 1.2796559 8
13.606799 10.422011 1.4880605 27
13.681175 10.47898 0.88656694 30
13.681951 10.479573 0.58165413 28
13.705084 8.9957104 0.45591202 34
13.697236 12.165252 0.40165439 40
10.697012 8.193285 0.21590488 0
13.702991 8.994338 0.1659319 26
9.9530563 8.8398438 0.056225687 0
10.590402 8.1116276 -0.022118546 0
12.325618 8.0902605 -0.1111661 0
9.6023626 8.5283747 -0.17260577 0
10.401114 7.9666448 -0.25339261 0
10.10568 6.6331425 -0.30513901 0
9.0336065 8.0232315 -0.37610844 0
10.338799 7.9189148 -0.48276863 0
9.237628 6.0633721 -0.47471631 1
8.9316406 7.9326701 -0.58320081 1
10.377978 7.9489236 -0.71598542 0
8.718503 5.7226305 -0.63237476 3
8.9285145 7.929894 -0.79462492 0
8.7858982 6.7294841 -0.80202794 0
8.62782 5.6631083 -0.80860615 3
8.9733047 7.9696741 -1.010958 3
11.524907 8.827405 -1.308899 3
8.5846624 5.6347809 -0.98623574 15
8.9884033 7.9830842 -1.2255707 1
9.9894619 7.6513429 -1.3571771 2
8.8883734 6.8079734 -1.4060534 3
7.9843216 6.1155229 -1.4410359 3
7.2984796 5.5902081 -1.4815936 4
6.717638 5.1453176 -1.5133601 5
6.1974115 4.7468543 -1.5353836 3
5.7348895 4.3925896 -1.5487881 3
5.3451977 4.0941086 -1.5629711 5
5.0125828 3.839345 -1.5771828 7
3.7985647 2.9094782 -1.6460387 6
2.8839579 2.2089429 -1.6933469 12
4.5930252 3.4673815 1.5191073 16
3.9055295 2.9483747 0.94561195 3
7.382453 5.573185 1.2940652 6
13.618796 10.281145 1.4814868 31
13.67748 10.325447 0.88163471 27
13.690965 10.335627 0.57895565 33
13.697035 8.854228 0.45357686 48
10.824175 8.1714211 0.21731476 0
13.698268 8.8550253 0.16512206 38
10.020546 8.7754135 0.056259476 0
10.752124 8.1170273 -0.022337411 0
12.516164 8.0908728 -0.11237246 0
9.6345882 8.4374142 -0.17212199 0
10.526698 7.9468489 -0.25509426 0
9.9737587 6.4473763 -0.29978922 0
9.1495533 8.0126495 -0.37859756 0
10.499108 7.9260206 -0.48765853 0
9.242815 5.9748693 -0.47282773 1
9.010849 7.89118 -0.5847612 0
10.538411 7.9556913 -0.72320437 0
8.7448301 5.6529546 -0.63140631 3
9.0737352 7.9462519 -0.8025924 2
8.7084856 6.5742373 -0.79075211 1
8.6504002 5.5919123 -0.80704391 67
9.1696577 8.0302553 -1.0267384 6
8.7818966 6.6296577 -0.99209088 4
8.6104164 5.5660653 -0.9847061 21
9.1097784 7.9778166 -1.2344956 2
10.036286 7.5766253 -1.3563193 2
8.9261818 6.7385817 -1.4045582 2
8.0584221 6.0834899 -1.4467093 3
7.337328 5.5391192 -1.4815936 4
6.7408252 5.0888052 -1.5105433 5
6.2303991 4.7034731 -1.5353836 3
5.7622938 4.3500896 -1.5479496 3
5.3736496 4.0566926 -1.5629711 5
5.0454583 3.8089337 -1.5791215 8
3.8187838 2.8828886 -1.6460387 7
2.8935215 2.1843865 -1.6899669 11
4.6605611 3.4675524 1.5334001 18
3.8976595 2.8999381 0.93878168 2
7.4815674 5.5664392 1.3045951 1
13.613508 10.128728 1.4731833 29
13.672314 10.172481 0.87670249 31
13.679397 10.177751 0.57544768 27
13.704547 8.7240362 0.45179769 79
10.590761 9.1449261 0.30678645 1
11.034979 8.2102499 0.22039087 0
13.712517 8.7291088 0.16455519 39
9.9634924 8.6032906 0.05560058 0
10.895177 8.1062346 -0.022516482 0
10.419591 6.6328998 -0.093131013 0
9.6539021 8.3359661 -0.17142318 0
10.662136 7.932847 -0.25702798 0
9.9510612 6.3346429 -0.29777044 0
9.286973 8.0191288 -0.38195789 0
10.640775 7.916954 -0.49165937 0
9.2640743 5.8973217 -0.47179762 1
8.8280802 6.5682716 -0.60267031 1
8.7672405 5.5810471 -0.6301958 3
9.2014885 7.9453149 -0.8089664 2
8.7541695 6.5132809 -0.79075211 3
8.6892281 5.5313854 -0.80704391 50
9.2375631 7.9764643 -1.0280814 9
8.6681557 6.4492846 -0.97413123 2
8.6356287 5.4972653 -0.98317647 30
9.2435608 7.9816432 -1.2450434 3
10.069793 7.4921312 -1.3537456 2
8.9730082 6.6761017 -1.4045582 2
8.0784597 6.0105391 -1.4427379 3
7.3821564 5.492475 -1.4828664 4
6.7540736 5.0251684 -1.5056138 4
6.2567859 4.6551766 -1.5338397 3
5.8113499 4.3237629 -1.5529808 3
5.4112177 4.0260563 -1.5656847 5
5.0750408 3.7759337 -1.5800909 7
3.8327477 2.8516426 -1.6434363 7
2.9232445 2.1749537 -1.6984167 10
4.7220826 3.4623744 1.545651 19
3.9051411 2.863368 0.93574601 1
7.5745544 5.5538936 1.3140166 1
13.6164 9.9839582 1.4659177 30
13.691452 10.038989 0.87341434 30
13.695309 10.041816 0.57315397 28
13.704134 8.5899239 0.44979611 72
10.578222 9.0059566 0.30459449 1
11.188788 8.2039595 0.22231345 0
13.70873 8.592804 0.16378587 40
9.9502153 8.4712915 0.055195108 0
11.028921 8.0867405 -0.022675656 0
10.421584 6.5323796 -0.092738941 0
9.6905451 8.2502165 -0.1710469 0
10.807562 7.9244328 -0.25919372 0
9.9679375 6.2480288 -0.29696292 0
9.4157915 8.0163002 -0.38494486 0
10.805387 7.9228382 -0.49669749 0
9.2779303 5.8155236 -0.47042412 1
9.5582075 8.1375494 -0.61284846 3
8.8254051 6.471055 -0.59938896 1
8.7856913 5.5069818 -0.62874317 3
9.3418245 7.9533277 -0.81640273 18
8.6321249 6.3293362 -0.77571774 2
8.7276316 5.4705892 -0.80704391 6
9.4083519 8.0099669 -1.0408401 2
8.6069469 6.3108749 -0.96227789 3
8.6636753 5.4305005 -0.98202926 41
9.3717775 7.978828 -1.2547798 2
8.752387 6.4175158 -1.1705868 1
9.0578041 6.6414571 -1.4105393 2
8.1234169 5.956336 -1.4433053 3
7.4362435 5.4524798 -1.4860486 4
6.7921662 4.9802227 -1.506318 3
6.2922974 4.6137037 -1.5346116 4
5.8413935 4.2830873 -1.5529808 3
5.4297657 3.9812694 -1.5629711 5
5.1012774 3.7404115 -1.5800909 8
3.8556128 2.8270524 -1.6447375 7
2.9325094 2.1502051 -1.6950368 11
4.8057013 3.4723601 1.5650481 17
3.9123025 2.8268349 0.93271035 2
8.6855984 6.2757807 1.4991205 25
13.617938 9.8396435 1.4586521 27
13.677017 9.8823309 0.86807114 63
13.68407 9.8874273 0.56978089 28
13.70252 8.4562435 0.44779456 73
10.536695 8.844471 0.30161342 1
11.362495 8.2099724 0.22462054 0
13.717327 8.4653807 0.1631785 35
9.9876671 8.3836184 0.055076845 0
11.321789 8.1805601 -0.023159809 0
10.487357 6.4720678 -0.092919894 0
