# .PCD v0.7 - Point Cloud Data file format
VERSION 0.7
FIELDS x y z intensity
SIZE 4 4 4 4
TYPE F F F F
COUNT 1 1 1 1
WIDTH 1403
HEIGHT 1
VIEWPOINT 0 0 0 1 0 0 0
POINTS 1403
DATA ascii
1.9521508 3.5879443 0.35462961 34
1.9263598 3.5405419 0.20735884 29
1.950737 3.5853457 0.13775663 34
2.2974625 3.5759192 0.11820353 38
1.7290001 3.8133285 0.0917992 23
1.9420398 3.569361 0.065111116 26
2.2982328 3.5771182 0.043041874 42
1.7294002 3.8142109 0.01768879 24
1.9461098 3.5768414 -0.0067516286 28
2.293961 3.5704696 -0.031998705 35
1.7226529 3.7993298 -0.056065969 17
1.9342806 3.5551 -0.078276351 40
2.2997801 3.5795264 -0.10739924 36
1.7186725 3.7905509 -0.12955952 19
1.9447767 3.5743911 -0.15084668 49
2.2940724 3.5706429 -0.18233226 41
1.7290082 3.8133464 -0.20441285 25
1.9489266 3.5820184 -0.22334896 40
2.3006115 3.5808206 -0.25808248 38
1.7288957 3.8130984 -0.27859676 25
1.9505556 3.5850124 -0.29577309 39
2.2999506 3.579792 -0.3333782 39
1.7233124 3.8007843 -0.35153535 19
1.9382503 3.562396 -0.3656584 51
2.3050411 3.5877151 -0.40956125 44
1.7270712 3.8090742 -0.42637363 20
1.9462947 3.5771811 -0.43923813 56
1.9461197 3.5768595 -0.51138276 39
1.9491467 3.582423 -0.58435708 37
1.9345336 3.5555649 -0.65233392 59
1.2006153 2.2066638 -0.4492898 0
1.0504286 1.9306294 -0.43228495 11
1.039288 1.9101535 -0.46622965 17
1.0372375 1.9063848 -0.50380492 2
0.9495213 1.7451673 -0.92610186 19
1.969408 3.56023 1.0739926 31
1.9656512 3.5534384 0.78472131 32
1.9692835 3.5600047 0.56916702 33
1.9810096 3.5812027 0.35532156 32
1.9703666 3.5619628 0.20941393 32
1.9737844 3.5681415 0.13762172 36
2.3289251 3.5698392 0.11853713 38
1.7304282 3.746707 0.090484031 24
1.9746549 3.569715 0.06536746 26
2.3318915 3.5743866 0.043203838 34
1.7190886 3.7221544 0.017317105 27
1.9807141 3.5806687 -0.0067847897 29
2.3363159 3.5811682 -0.032239977 36
1.7189487 3.7218518 -0.055098385 17
1.9706674 3.5625064 -0.07874044 40
2.3312683 3.5734313 -0.10770205 35
1.7165953 3.7167561 -0.12744376 19
1.9735527 3.5677226 -0.15114303 45
2.3298619 3.5712755 -0.1831907 39
1.7271099 3.7395222 -0.201097 24
1.9835525 3.5857997 -0.22444274 39
2.3320987 3.5747039 -0.25880879 38
1.7286984 3.7429616 -0.27434742 26
1.9793983 3.57829 -0.29635134 42
2.3379593 3.5836873 -0.33525285 39
1.7247359 3.7343819 -0.34649903 20
1.9707865 3.5627217 -0.36709517 45
2.3322074 3.5748706 -0.40994367 40
1.7285933 3.7427342 -0.42028838 22
1.9789205 3.5774262 -0.44095391 54
1.9787276 3.5770774 -0.51337647 43
1.9721923 3.5652633 -0.58378977 37
1.9841583 3.586895 -0.66060746 67
1.9764624 3.5729825 -0.730272 44
1.0695806 1.9335519 -0.43460077 5
1.0601707 1.916541 -0.46958381 21
1.0599514 1.9161446 -0.50832742 6
0.9669463 1.7480131 -0.93117177 19
1.9980061 3.5531363 1.0760344 30
1.9981107 3.5533221 0.78775698 34
1.9999139 3.556529 0.57082963 32
2.0157285 3.5846527 0.35705146 31
1.9971435 3.5516021 0.20961945 33
2.0162818 3.5856366 0.13883603 34
2.3670385 3.5734942 0.11920431 37
1.7276075 3.6730165 0.088993497 24
2.0093296 3.5732732 0.065687887 27
2.3678324 3.5746927 0.043406293 36
1.7280073 3.6738665 0.017148158 26
2.0095847 3.5737267 -0.0067980541 28
2.3678865 3.5747743 -0.032330453 33
1.7261642 3.6699481 -0.054507088 19
1.9994105 3.5556338 -0.078895137 43
2.3782408 3.5904062 -0.10871144 37
1.7186778 3.6540313 -0.12570137 21
2.0121264 3.5782471 -0.15218028 46
2.3679786 3.5749135 -0.18422084 43
1.7344694 3.6876056 -0.19895144 26
2.0144105 3.582309 -0.225099 41
2.3746367 3.584965 -0.26074564 38
1.7242097 3.6657925 -0.26956692 23
2.0101974 3.5748165 -0.29721871 44
2.3717296 3.5805764 -0.33650264 35
1.7253174 3.6681476 -0.3414627 22
2.0014687 3.5592937 -0.36817276 50
2.3790956 3.5916965 -0.41376778 38
1.7309684 3.680162 -0.41460881 24
2.0174921 3.5877886 -0.44395649 52
2.0211594 3.5943108 -0.51786226 40
2.0106194 3.575567 -0.5877611 40
2.0072155 3.5695138 -0.659971 59
2.001358 3.5590973 -0.730272 51
1.1272986 2.0047214 -0.45235533 1
1.0811926 1.9227293 -0.47293797 19
1.0713928 1.9053018 -0.50742292 14
0.97557205 1.7348998 -0.92779183 18
2.0381157 3.5659633 1.0842017 35
2.0326126 3.5563345 0.79155159 27
2.0423856 3.5734341 0.57581747 30
2.0426824 3.5739532 0.35739744 33
2.0357652 3.5618505 0.21105801 31
2.0412648 3.5714729 0.13883603 34
2.3963909 3.5635183 0.11942671 36
1.7342075 3.621192 0.088029034 25
2.0461342 3.5799925 0.066072404 26
2.4016588 3.5713518 0.043568257 36
1.7242426 3.6003842 0.016860947 31
2.0503635 3.5873926 -0.006851112 31
2.4039454 3.5747523 -0.032481249 38
1.7223747 3.5964839 -0.053593259 32
2.0360918 3.5624218 -0.079359226 42
2.407711 3.5803516 -0.10891332 36
1.72515 3.6022792 -0.12433234 44
2.0469756 3.5814645 -0.15292118 46
2.4062586 3.578192 -0.18525095 40
1.7360121 3.6249602 -0.19622074 25
2.047298 3.5820289 -0.22597401 40
2.4062905 3.5782394 -0.26147196 37
1.7273487 3.6068702 -0.26611435 24
2.0509424 3.5884051 -0.2995317 42
2.4144714 3.5904045 -0.33900219 38
1.7233378 3.598495 -0.33609062 27
2.0361526 3.5625284 -0.36996871 45
2.4041121 3.575 -0.41376778 43
1.7291174 3.6105635 -0.40811786 41
2.0444634 3.5770693 -0.44438544 48
2.0462029 3.5801129 -0.51786226 39
2.0453563 3.5786316 -0.59059781 37
2.0458033 3.5794137 -0.66442597 55
2.0456948 3.5792236 -0.73731416 49
1.1899555 2.0819905 -0.47165376 0
1.1004118 1.9253213 -0.47545362 18
1.0904685 1.9079242 -0.51013643 17
0.99485612 1.7406373 -0.93455172 19
2.0629611 3.5516477 1.0842017 35
2.0652812 3.5556419 0.79458725 24
2.073252 3.569365 0.57748008 31
2.0755894 3.5733888 0.35878137 33
2.0726202 3.5682771 0.21229106 30
2.0842197 3.5882471 0.14005034 35
2.4392457 3.5731204 0.1203163 37
1.7436738 3.5766451 0.087239929 43
2.0811212 3.5829127 0.066392832 27
2.4378083 3.5710149 0.043770712 38
1.7440772 3.5774727 0.016810264 48
2.0753582 3.5729909 -0.006851112 31
2.4446299 3.5810072 -0.032692362 35
1.7439352 3.5771816 -0.053485751 36
2.0709558 3.5654116 -0.079745963 44
2.4461751 3.583271 -0.10951896 37
1.7520084 3.5937412 -0.12445679 42
2.069921 3.5636303 -0.15277301 43
2.4469528 3.58441 -0.18645278 45
1.7472703 3.5840225 -0.19466034 45
2.0762672 3.5745561 -0.22641152 40
2.4447193 3.5811384 -0.26292455 36
1.7507381 3.5911357 -0.26584876 50
2.0819554 3.5843489 -0.30039907 44
2.4462233 3.5833416 -0.33993953 41
1.7536578 3.5971246 -0.33709788 43
2.0709784 3.5654507 -0.37176469 51
2.4447262 3.5811484 -0.41644463 38
1.7490501 3.5876732 -0.40690079 53
2.0793736 3.5799041 -0.44653016 47
2.0771272 3.5760365 -0.51935756 40
2.0683014 3.5608418 -0.59003043 39
2.0747092 3.5718734 -0.66569883 57
2.0805209 3.5818791 -0.74083525 45
1.2576865 2.1652658 -0.49249607 1
1.1177548 1.9243559 -0.47713068 16
1.0998477 1.8935264 -0.50832742 15
1.0856888 1.8691502 -0.53994519 0
1.0142674 1.7461895 -0.9413116 18
2.1014667 3.5604737 1.0913479 33
2.0940459 3.5479012 0.79610509 32
2.1041608 3.5650384 0.57914269 31
2.1085877 3.5725389 0.3601653 32
2.1015418 3.560601 0.21270208 31
2.1153154 3.5839376 0.1404551 34
2.475518 3.5724368 0.12087228 38
1.7686007 3.5643849 0.087239929 38
2.1121824 3.5786293 0.066585086 27
2.4717917 3.5670595 0.043932673 38
1.7690099 3.5652096 0.016810264 44
2.1185501 3.5894182 -0.0069108023 31
2.4741263 3.5704286 -0.032752682 36
1.7724216 3.5720851 -0.053593259 33
2.0978291 3.5543108 -0.079823315 41
2.4802415 3.5792534 -0.10992271 37
1.7752775 3.577841 -0.12433234 39
2.1069398 3.569747 -0.15366209 49
2.4787455 3.5770941 -0.18696783 39
1.7651455 3.5574214 -0.19388013 41
2.1194425 3.5909302 -0.22838032 38
2.4855795 3.5869565 -0.26461929 39
1.7775401 3.582401 -0.26611435 45
2.1150393 3.5834699 -0.30155557 41
2.4825366 3.5825651 -0.34150174 39
1.7840425 3.5955057 -0.33810514 37
2.103919 3.5646291 -0.37320146 46
2.4855421 3.5869026 -0.4191215 42
1.7758228 3.5789399 -0.40730649 47
2.1144223 3.5824244 -0.44867489 51
2.1141455 3.5819554 -0.52234811 40
2.1112235 3.5770047 -0.59513646 37
2.1056168 3.5675054 -0.66760808 53
2.1034749 3.5638764 -0.74013102 40
2.112642 3.5794082 -0.81748176 23
1.1291741 1.9131376 -0.47629216 11
1.1150205 1.8891575 -0.50923193 13
1.108574 1.8782353 -0.54479206 1
1.0227479 1.7328217 -0.93793166 19
2.1342282 3.5589836 1.0954316 29
2.1308827 3.5534048 0.80065858 32
2.1371474 3.5638516 0.58135951 26
2.1416752 3.5714018 0.3615492 33
2.1386747 3.5663984 0.21393514 34
2.1464522 3.5793681 0.14085987 33
2.5141993 3.5746906 0.12153947 34
1.7988489 3.5626605 0.087502964 36
2.141228 3.5706563 0.066713259 24
2.5173435 3.5791612 0.044297092 36
1.7992651 3.5634849 0.016860947 44
2.1517859 3.5882623 -0.0069373315 30
2.5127985 3.5726991 -0.032933634 34
1.7991188 3.563195 -0.053647015 32
2.1349323 3.5601575 -0.080287404 46
2.5166709 3.5782049 -0.11042741 35
1.80742 3.5796359 -0.12483016 40
2.1482561 3.582376 -0.15484752 45
2.5151525 3.576046 -0.18782628 43
1.7953401 3.555711 -0.19446528 40
2.1485684 3.5828969 -0.22881784 39
2.5174508 3.5793138 -0.2653456 40
1.8043054 3.5734673 -0.26637992 48
2.148212 3.5823028 -0.30271205 43
2.5189574 3.5814557 -0.34306398 41
1.8108966 3.5865214 -0.33844092 38
2.138998 3.5669374 -0.37499744 49
2.5196853 3.5824904 -0.42065117 41
1.8079393 3.5806644 -0.40892923 43
2.1455166 3.5778079 -0.44996172 50
2.1411417 3.5705125 -0.52284652 39
2.1463261 3.5791576 -0.59797317 39
2.1426568 3.5730388 -0.67142665 61
2.1445041 3.5761194 -0.74576473 46
2.1476717 3.5814018 -0.82134145 40
1.1425027 1.9052079 -0.47629216 6
1.1321899 1.8880104 -0.51104093 14
1.1336346 1.8904197 -0.55060834 8
1.1399279 1.9009142 -0.7625128 0
1.0385493 1.7318578 -0.9413116 18
2.1590223 3.543997 1.0954316 21
2.1658542 3.5552115 0.80445319 29
2.1702194 3.562377 0.58357632 31
2.1769218 3.5733788 0.3632791 30
2.1739123 3.5684385 0.21496269 30
2.1693084 3.5608816 0.14072494 35
2.5507092 3.5733232 0.12209547 35
1.8291589 3.5606868 0.087765999 36
2.1723461 3.5658677 0.066905513 25
2.5562122 3.5810325 0.04454004 33
1.8332378 3.5686269 0.016945422 41
2.1830273 3.5834005 -0.0069572283 30
2.5516229 3.5746033 -0.03311459 33
1.8349161 3.5718939 -0.05396954 31
2.1618152 3.5485816 -0.080364749 43
2.5555291 3.5800755 -0.11103304 36
1.8378471 3.5775995 -0.12520353 38
2.1773725 3.5741184 -0.15514387 48
2.5516655 3.5746629 -0.1886847 45
1.8255965 3.5537519 -0.19505043 40
2.185997 3.5882754 -0.23013036 38
2.5539763 3.5779002 -0.26655611 37
1.8365036 3.5749843 -0.26744226 42
2.1897738 3.594475 -0.30502504 41
2.560117 3.586503 -0.34525108 39
1.8431762 3.5879734 -0.33978394 38
2.172138 3.565526 -0.37643421 48
2.5585139 3.5842569 -0.42294562 36
1.8383478 3.5785742 -0.41014627 44
2.1787183 3.5763276 -0.4516775 48
2.1742756 3.5690351 -0.52484024 38
2.1877408 3.5911379 -0.60251188 37
2.171658 3.5647385 -0.67269945 79
2.1776121 3.5745118 -0.74858159 48
2.1807899 3.5797284 -0.82442915 40
1.206646 1.9806881 -0.49725571 1
1.1514244 1.8900428 -0.51375443 17
1.1508425 1.8890877 -0.5525471 15
1.1689137 1.9187514 -0.77292252 0
1.0506145 1.7245651 -0.9413116 19
2.1804452 3.5263107 1.0944107 18
2.2038438 3.5641518 0.80976564 31
2.2042148 3.5647519 0.58634734 31
2.2131484 3.5791996 0.36535498 32
2.19543 3.5505445 0.21475717 31
2.2096972 3.5736182 0.14180434 34
2.5790415 3.5628061 0.12231786 35
1.8638394 3.569747 0.08829207 38
2.2085681 3.5717921 0.06729003 25
2.5892878 3.5769608 0.044702001 31
1.8642706 3.5705729 0.017013 41
2.2109523 3.5756478 -0.0069704927 31
2.5916922 3.5802822 -0.033325702 25
1.8696723 3.5809188 -0.054292068 30
2.2084384 3.5715826 -0.081215583 42
2.5885959 3.5760047 -0.1114368 9
1.865235 3.5724201 -0.12545244 35
2.2115397 3.5765982 -0.15588477 44
2.5846908 3.5706103 -0.18937145 40
1.854673 3.552191 -0.19563559 39
2.2223501 3.5940809 -0.2314429 37
2.5916965 3.5802884 -0.26800874 40
1.8638678 3.5698016 -0.26797342 44
2.217761 3.5866594 -0.3056033 41
2.5932007 3.5823662 -0.34650087 33
1.8706216 3.5827367 -0.34045544 41
2.2062132 3.5679839 -0.37823015 43
2.5962377 3.5865617 -0.42524007 25
1.8730921 3.5874684 -0.41258037 48
2.2149384 3.5820944 -0.45425114 48
2.210422 3.5747905 -0.52783078 35
2.2177572 3.586653 -0.60421389 33
2.201483 3.5603337 -0.67460877 58
2.2095542 3.5733869 -0.7513985 41
2.2127402 3.5785391 -0.82751691 38
1.267065 2.0491526 -0.5165422 0
1.1639342 1.8823649 -0.51375443 17
1.1653869 1.8847144 -0.55351651 20
1.1855922 1.9173911 -0.77552497 0
1.0696558 1.7298938 -0.94807142 18
2.2173519 3.5306537 1.1005361 18
2.2328496 3.5553308 0.81128347 29
2.2395821 3.5660508 0.5891183 31
2.2507982 3.5839097 0.36743087 32
2.2392848 3.5655775 0.21660677 32
2.2473485 3.5784173 0.14261387 28
13.634712 18.561411 0.64050078 27
1.8943418 3.5672433 0.088555105 36
2.2483397 3.5799954 0.06773863 24
1.8947802 3.5680687 0.017063685 42
2.255007 3.5906119 -0.007030183 30
1.9021294 3.5819082 -0.054507088 30
2.235446 3.5594649 -0.081292927 40
1.8995053 3.5769665 -0.12607473 37
2.2470846 3.577997 -0.15662567 43
1.8869216 3.5532703 -0.19641578 40
2.2473872 3.5784786 -0.2314429 41
1.8981036 3.5743272 -0.26930135 43
2.2554774 3.5913606 -0.30733803 43
9.7548981 13.279684 -1.2910204 1
1.9011961 3.5801508 -0.3414627 37
2.2395437 3.5659897 -0.37966692 45
8.4175825 11.45915 -1.3655866 1
1.8999577 3.5778184 -0.41298607 48
2.2462373 3.5766478 -0.45553797 45
2.241657 3.5693545 -0.52932602 37
2.2511659 3.5844953 -0.60648322 36
2.2451875 3.574976 -0.68033653 61
2.2428236 3.5712121 -0.75421536 39
2.2397561 3.5663278 -0.82828885 40
1.1811917 1.8807925 -0.51556343 15
1.1826441 1.8831054 -0.55545527 21
1.1426226 1.8193797 -0.73909092 1
1.0952039 1.7438757 -0.95990121 17
2.2523448 3.5313916 1.1056406 19
2.2681754 3.5562119 0.81507802 29
2.275074 3.567028 0.59188932 30
2.2886209 3.5882678 0.36950675 30
2.2705669 3.5599616 0.21722329 30
2.2808745 3.5761228 0.14315356 34
13.577574 18.215714 0.63182735 31
1.923 3.5609694 0.088730462 32
2.2797296 3.5743277 0.067930892 24
11.500109 15.428579 0.19480193 0
1.9291468 3.5723517 0.017148158 41
2.2778683 3.5714092 -0.0070235506 30
11.402364 15.297444 -0.14385846 0
1.9346913 3.582619 -0.054722104 31
2.2709939 3.560631 -0.081679672 40
11.324974 15.193618 -0.47835055 0
1.9320295 3.5776899 -0.12657256 38
2.2827563 3.5790732 -0.15736657 42
11.284707 15.139595 -0.81122404 0
1.9230722 3.5611031 -0.19758609 38
2.2809055 3.5761714 -0.23231791 41
11.758789 15.775626 -1.1930867 4
1.9249071 3.5645008 -0.26956692 43
2.2976573 3.6024356 -0.30965102 38
9.8402195 13.201667 -1.2900831 2
1.9299316 3.5738051 -0.34213421 39
2.2708111 3.5603442 -0.38074452 46
8.4450264 11.329872 -1.3571736 3
1.936234 3.5854759 -0.41542017 43
2.2839832 3.5809968 -0.45811164 47
2.2835946 3.5803874 -0.53331339 39
2.2867813 3.5853837 -0.60931993 35
2.2807083 3.5758622 -0.68351865 62
2.2804048 3.575386 -0.75844061 42
2.2814834 3.5770772 -0.83446437 38
1.8634079 2.9215877 -0.74294865 14
1.2068646 1.8922111 -0.52099037 14
1.2020224 1.884619 -0.55836338 17
1.1024129 1.7284441 -0.70525926 5
1.101503 1.7270173 -0.9548313 17
2.2832506 3.5253198 1.1087034 17
2.2950821 3.5435872 0.81583697 29
2.3085349 3.5643582 0.59410614 28
2.3157818 3.5755477 0.36985272 26
2.308394 3.5641408 0.21845634 28
2.3188241 3.5802448 0.14396311 31
13.591053 17.970594 0.62660104 33
1.9593614 3.5684898 0.089256532 35
2.3176727 3.5784669 0.068315402 21
11.655794 15.411722 0.19561175 0
1.9559646 3.5623033 0.017165054 39
2.3244903 3.5889933 -0.0070898728 26
11.554724 15.278083 -0.14443147 0
1.9654303 3.5795426 -0.054883368 32
2.3066664 3.5614734 -0.082066409 38
11.510367 15.219434 -0.48168153 0
1.9608077 3.5711238 -0.12682147 35
2.320725 3.5831797 -0.15825564 41
11.491371 15.194316 -0.81843495 0
1.9536551 3.5580971 -0.19817124 36
2.31233 3.5702178 -0.23297417 37
11.895129 15.72818 -1.1957499 3
1.9574286 3.5649695 -0.27062926 41
2.3184133 3.5796103 -0.30907276 40
9.9417658 13.145371 -1.2913328 1
1.9605895 3.5707264 -0.34314147 36
2.3064399 3.5611236 -0.38254046 46
8.5287218 11.276991 -1.3579384 5
1.9612181 3.571871 -0.41542017 39
2.3218989 3.5849922 -0.46068531 50
2.3236372 3.587676 -0.53680241 36
2.3139086 3.5726552 -0.60988724 33
2.3184972 3.57974 -0.68733722 56
2.3202932 3.5825133 -0.76337016 45
2.3149343 3.574239 -0.83755213 35
1.2263997 1.8935506 -0.52370387 10
1.2193693 1.8826959 -0.5603022 20
1.1185652 1.7270553 -0.70786172 30
1.125358 1.7375432 -0.96497113 16
2.3163066 3.5222192 1.112787 16
2.3413441 3.5602918 0.82342613 28
2.3442459 3.5647042 0.59687716 28
2.3516357 3.5759413 0.37158263 28
2.3441951 3.5646269 0.2194839 28
2.3481557 3.5706496 0.14423296 31
13.640722 17.776936 0.62315387 53
1.9881245 3.5617077 0.089431889 29
2.3491912 3.5722241 0.068507664 21
11.8605 15.456904 0.19723138 0
1.986635 3.5590394 0.017215738 36
2.3604789 3.5893881 -0.0071230344 27
8.617382 11.230391 -0.10673272 0
2.0001194 3.5831966 -0.055152141 27
2.3424611 3.5619903 -0.082453154 36
8.6124487 11.223961 -0.35712266 9
1.9973828 3.578294 -0.12756822 35
2.3522725 3.5769098 -0.15870018 38
11.655553 15.189812 -0.82255542 0
1.988184 3.5618143 -0.19914649 36
2.3569493 3.5840213 -0.23494297 34
8.6455784 11.267137 -0.86116266 1
1.9939408 3.5721276 -0.27222276 40
2.3586919 3.5866711 -0.31109664 37
8.6398487 11.25967 -1.1119897 3
1.999069 3.5813148 -0.34549177 35
2.3400009 3.5582492 -0.38397726 44
8.6120892 11.223493 -1.3587033 9
1.997744 3.5789411 -0.41785428 40
2.3556111 3.5819862 -0.46240106 43
2.3551693 3.5813146 -0.53829765 32
2.3518479 3.5762639 -0.61329126 34
2.3521113 3.5766647 -0.68988293 38
2.3474109 3.5695169 -0.76407439 38
2.3549266 3.5809455 -0.84295565 36
2.0780876 3.1599786 -0.81087065 14
1.2438711 1.8914536 -0.52551287 4
1.236748 1.8806221 -0.56224096 22
1.1243602 1.7097231 -0.70395803 55
1.1474211 1.7447901 -0.97342092 16
2.3451347 3.5123956 1.1148288 15
2.3705037 3.5503917 0.82494396 30
2.386672 3.5746078 0.60131079 30
2.3876066 3.5760071 0.37331253 29
2.3756778 3.558141 0.22010042 27
2.3841252 3.5707932 0.14490756 32
8.6580734 11.121786 0.39197314 74
2.0208352 3.5616541 0.089782603 34
2.391839 3.5823464 0.069020346 24
8.6585197 11.122359 0.14269009 24
2.0232766 3.5659571 0.017317105 38
2.4054694 3.6027613 -0.0071827243 30
8.6439753 11.103676 -0.10609938 20
2.0250859 3.5691459 -0.055152141 31
2.3761537 3.5588541 -0.082762547 37
8.6291857 11.084678 -0.35459918 27
2.0321801 3.5816491 -0.1281905 39
2.3882847 3.5770228 -0.15944108 43
8.6779881 11.147367 -0.60691577 20
2.0189161 3.5582721 -0.19973165 34
2.3863482 3.5741227 -0.23538049 38
8.6676149 11.134043 -0.85559428 29
2.0306478 3.5789485 -0.27381626 42
2.4013963 3.5966604 -0.31340963 41
8.6496553 11.110972 -1.1032412 33
2.0338571 3.584605 -0.34717053 37
2.3802698 3.5650187 -0.3864916 47
8.6315317 11.087691 -1.3495253 21
2.0305357 3.5787511 -0.41947702 41
2.3893936 3.5786836 -0.46411684 47
2.3889291 3.5779881 -0.54029137 38
2.3921478 3.5828087 -0.6172626 35
2.3814092 3.5667253 -0.69115573 44
2.3875785 3.5759652 -0.76900387 39
2.3842275 3.5709462 -0.84449953 37
2.1717656 3.2527342 -0.83854252 15
1.3327712 1.996141 -0.55717027 1
1.2541567 1.8783971 -0.56417972 19
1.1404694 1.7081234 -0.70656049 106
1.1636003 1.7427675 -0.97680086 15
2.3925295 3.5271175 1.1250379 21
2.4163074 3.5621717 0.83177423 30
2.4172585 3.5635736 0.6024192 32
2.4227037 3.5716009 0.37469646 28
2.4039388 3.5439372 0.22030592 32
2.4304338 3.5829968 0.14612187 27
8.667469 10.967047 0.38874841 32
2.0528858 3.5571356 0.090045638 38
2.4202795 3.5680273 0.069084436 25
8.6530151 10.948758 0.1412729 33
2.0613585 3.5718169 0.017418474 41
2.4385505 3.5949626 -0.0072026211 30
8.6482525 10.942731 -0.10516445 32
2.0651891 3.5784545 -0.055528421 34
2.4201376 3.5678182 -0.083381332 43
8.6358261 10.927008 -0.35157099 31
2.0723693 3.5908959 -0.1290617 39
2.4279044 3.579268 -0.16033016 45
8.6876087 10.992529 -0.60193682 35
2.0529337 3.5572188 -0.20051184 40
2.4326625 3.5862823 -0.23734929 42
8.6673012 10.966834 -0.84760487 50
2.0687978 3.5847077 -0.27540976 44
2.4344149 3.5888658 -0.31427699 43
8.6616364 10.959666 -1.0944928 35
2.0740254 3.5937655 -0.34952083 37
2.421993 3.5705533 -0.38900596 47
8.6459169 10.939776 -1.3392003 23
2.0706382 3.5878963 -0.42231679 44
2.4334221 3.5874023 -0.4675484 50
2.4284604 3.5800877 -0.54328191 41
2.4339058 3.5881152 -0.621234 37
2.4207914 3.5687819 -0.6949743 44
2.4159374 3.561626 -0.7697081 46
2.4367783 3.59235 -0.85376281 42
2.4129102 3.5571632 -0.9215582 6
1.4020497 2.0669312 -0.57978272 1
1.2744277 1.8787881 -0.56708783 19
1.1465899 1.6903269 -0.70265687 27
1.1865199 1.7491927 -0.98525071 15
2.412708 3.5039575 1.1229961 22
2.447799 3.5549195 0.83405101 31
2.4555576 3.5661876 0.60574442 32
2.4701791 3.5874221 0.37815624 31
2.4580729 3.5698404 0.22297755 32
2.4599226 3.5725269 0.14639172 30
8.6662884 10.809561 0.38530126 32
2.0938532 3.5703139 0.090747058 39
2.4610076 3.5741024 0.069533035 29
8.6566849 10.797582 0.14009866 34
2.0923142 3.5676897 0.017469158 42
2.4613199 3.5745561 -0.0071959891 28
8.6493759 10.788466 -0.10425968 36
2.0941672 3.5708494 -0.055635933 35
2.456327 3.5673051 -0.08376807 44
8.6368618 10.772858 -0.34854281 29
2.1054778 3.5901353 -0.12955952 38
2.4641678 3.578692 -0.16107105 45
8.6816473 10.828718 -0.59627116 38
2.089844 3.5634773 -0.20168215 42
2.4689655 3.5856595 -0.23844306 41
8.6837139 10.831296 -0.84179437 36
2.0998304 3.5805056 -0.27620652 46
2.4752486 3.5947845 -0.31630084 41
8.6730824 10.818036 -1.0863693 36
2.1071293 3.5929513 -0.35086384 37
2.4581575 3.5699635 -0.39080191 47
8.6448717 10.782847 -1.3273456 22
2.1057012 3.5905163 -0.4243452 48
2.4674292 3.5834284 -0.46926418 51
2.4668996 3.5826595 -0.54627246 42
2.4723697 3.5906034 -0.62463802 37
2.4702828 3.5875726 -0.70197493 43
2.465307 3.5803466 -0.7774545 46
2.4729271 3.5914133 -0.8576225 41
2.4687383 3.5853298 -0.93329781 34
1.8252478 2.6507933 -0.74711472 0
1.2919148 1.876238 -0.56902659 15
1.1647979 1.691627 -0.70656049 22
1.1925343 1.7319084 -0.9801808 15
2.4548359 3.5123887 1.1311632 19
2.4860561 3.5570588 0.83860451 29
2.4917409 3.5651925 0.60851544 27
2.4951637 3.5700898 0.37815624 27
2.4920888 3.56569 0.22379959 34
2.5031247 3.5814805 0.14747111 25
8.6658573 10.655732 0.38196531 36
2.1187277 3.5556092 0.090747058 39
2.4996462 3.5765035 0.069917545 26
8.6788578 10.671719 0.13924836 50
2.1274083 3.5701768 0.017553631 43
2.5068381 3.5867934 -0.0072556795 27
8.6790562 10.671962 -0.10371682 45
2.1313298 3.5767579 -0.055958457 32
2.4903355 3.5631816 -0.084077463 43
8.6462631 10.631639 -0.34591842 4
2.1407232 3.5925221 -0.1301818 35
2.500541 3.5777836 -0.16181195 44
8.6864328 10.681033 -0.59146392 7
2.1248965 3.5659618 -0.2026574 40
2.5008018 3.5781567 -0.23909932 41
8.6759853 10.668187 -0.83380497 25
2.1288621 3.5726166 -0.27673769 43
2.5025697 3.5806863 -0.31658998 39
8.6754293 10.667502 -1.0773083 30
2.1362422 3.5850017 -0.35153535 36
2.4875851 3.5592463 -0.39152029 44
8.6973286 10.69443 -1.3239039 25
2.1368275 3.585984 -0.42556226 45
2.503777 3.5824137 -0.4714089 49
2.5032189 3.5816152 -0.54876453 40
2.4996443 3.5765007 -0.62520534 34
2.4997931 3.5767133 -0.70324779 43
2.497009 3.5727303 -0.77956712 48
2.5046847 3.5837126 -0.85993832 40
2.5004299 3.5776248 -0.93581343 38
1.8102278 2.590081 -0.73354721 0
1.307205 1.8703539 -0.569996 11
1.1787461 1.6865544 -0.70786172 17
1.2191346 1.7443423 -0.99201059 15
2.4770594 3.4920108 1.1301423 20
2.5131004 3.5428195 0.8393634 28
2.5234456 3.5574033 0.61017805 25
2.5476937 3.5915871 0.38230801 28
2.5238543 3.5579798 0.22441611 31
2.5326929 3.5704398 0.14774096 24
8.7578468 10.616565 0.38274369 35
2.1579955 3.564678 0.091360807 34
2.5430655 3.5850625 0.070430234 23
8.7760553 10.638638 0.13961278 37
2.1564236 3.5620813 0.017587421 39
2.5410743 3.5822551 -0.0072822082 25
8.7915277 10.657393 -0.1041692 33
2.1686759 3.5823202 -0.056280985 28
2.519778 3.552233 -0.084232159 40
8.804245 10.672811 -0.34924939 32
2.1657512 3.5774894 -0.1301818 33
2.5370207 3.5765407 -0.16255285 42
8.7684174 10.629378 -0.59197897 29
2.1518083 3.5544579 -0.20285246 36
2.5372746 3.5768991 -0.2401931 38
8.7883625 10.653557 -0.83743656 38
2.162019 3.5713241 -0.27780002 41
2.5505886 3.5956681 -0.31948122 35
8.8004427 10.6682 -1.0835572 37
2.1736028 3.5904589 -0.35354987 37
2.5308115 3.5677876 -0.39439383 46
8.8047161 10.673381 -1.3288752 25
2.1679924 3.5811911 -0.4267793 38
2.5379293 3.577822 -0.47312465 46
2.539643 3.5802379 -0.55125666 37
2.5382972 3.5783403 -0.62860936 35
2.5315561 3.5688374 -0.70515704 38
2.5287249 3.5648458 -0.78167975 40
2.5387256 3.5789444 -0.86302602 37
2.543448 3.5856016 -0.94252181 31
1.871098 2.6377628 -0.75073266 1
1.3426833 1.8928351 -0.5796898 5
1.1992451 1.6906244 -0.71306658 16
1.23338 1.7387458 -0.99370056 16
2.5149355 3.4934657 1.1362678 19
2.5492454 3.5411251 0.84315801 17
2.5551629 3.5493453 0.61184067 14
2.5796902 3.5834157 0.38334596 8
2.5579679 3.5532415 0.22523814 28
2.5692358 3.5688934 0.14841558 24
8.8856335 10.619563 0.38507885 41
2.1933033 3.5665581 0.0917992 32
2.5773787 3.5802047 0.070686579 22
8.9091473 10.647666 0.14054407 37
2.1959064 3.570791 0.017705685 37
2.5753689 3.5774131 -0.0073087374 26
8.9298849 10.67245 -0.10492318 37
2.2041082 3.5841281 -0.056549758 29
2.5702178 3.5702577 -0.085082993 36
8.9375591 10.681622 -0.35157099 33
2.2011456 3.5793104 -0.13080409 33
2.5736048 3.5749626 -0.16329375 40
8.8911352 10.626139 -0.59524101 42
2.1870348 3.556365 -0.20382771 35
2.5738521 3.5753059 -0.24128687 34
8.9112043 10.650124 -0.84203649 36
2.1952617 3.5697424 -0.27886236 39
2.5849526 3.5907254 -0.3206377 35
8.9361219 10.679904 -1.0910559 37
2.2027919 3.5819876 -0.3542214 34
2.560313 3.556499 -0.39511225 43
8.9326725 10.675781 -1.3369058 22
2.1991944 3.5761378 -0.42799637 41
2.5721395 3.572927 -0.47484043 44
2.5738511 3.5753047 -0.55325037 33
2.5724702 3.5733864 -0.63087875 22
2.5725601 3.5735114 -0.70961201 31
2.569654 3.5694745 -0.78660929 10
2.5797007 3.5834303 -0.8684296 8
2.5821288 3.586803 -0.94755304 3
1.8849144 2.6183114 -0.74892366 13
1.4329544 1.9904993 -0.61264873 1
1.2132286 1.6852807 -0.71436781 15
1.2539613 1.7418622 -1.0004604 15
2.5334885 3.4704616 1.134226 17
5.0990367 6.9848399 1.6711377 19
5.3044438 7.2662134 1.2585962 17
10.495835 14.377563 1.5454931 15
2.6403615 3.6168599 0.23037589 1
13.605385 18.637133 0.778777 21
9.0050068 10.618339 0.38719162 36
2.2274961 3.5688956 0.092237592 30
13.585444 18.609818 0.36919796 19
9.0261354 10.643253 0.1412729 40
2.2322474 3.576508 0.017807053 36
9.0444517 10.66485 -0.10543589 37
2.2363009 3.583003 -0.056764778 29
2.5985563 3.5595934 -0.085237689 24
9.05476 10.677006 -0.35338789 34
2.2375371 3.5849836 -0.13155083 35
2.6113992 3.5771863 -0.16418283 6
9.0260344 10.643134 -0.5995332 38
2.2211502 3.5587282 -0.20480296 36
9.0410376 10.660826 -0.84760487 37
2.2294548 3.5720339 -0.28019026 40
9.0480242 10.669064 -1.096055 34
2.2349415 3.5808246 -0.35556442 34
2.6026356 3.5651817 -0.39798579 34
9.0599365 10.68311 -1.3453189 17
2.2397196 3.58848 -0.43124184 40
2.6121936 3.5782743 -0.47784305 20
2.6255879 3.5966225 -0.55923146 6
2.5797708 3.5338604 -0.62690735 1
2.5985322 3.5595608 -0.71024847 3
2.5932708 3.5523534 -0.78660929 1
2.5987816 3.5599024 -0.86688572 1
2.6127782 3.5790753 -0.95006865 1
1.8539931 2.5396647 -0.72992927 6
1.750451 2.3978291 -0.74157637 4
1.2355299 1.6924722 -0.72087389 14
1.2633485 1.7305791 -0.99877048 16
2.5691655 3.4682286 1.1393305 18
5.1523509 6.9553833 1.6726555 19
5.3644743 7.2417378 1.260813 15
10.629162 14.348769 1.5503368 20
13.565518 18.312687 1.1724303 30
13.547173 18.28792 0.76811808 30
9.1388865 10.624935 0.38974917 32
2.2630625 3.5701461 0.092675984 33
13.52934 18.263847 0.36419928 28
9.1549921 10.64366 0.14212321 38
2.267869 3.577729 0.017891526 38
9.1838932 10.67726 -0.10618986 36
2.2698262 3.5808163 -0.056979794 28
9.1812296 10.674163 -0.35540667 32
2.2753534 3.589536 -0.13229758 36
9.1496305 10.637426 -0.6027953 40
2.2544966 3.556633 -0.20558316 36
11.271306 15.215628 -1.037118 0
9.1725235 10.664042 -0.85293114 40
2.2628849 3.5698662 -0.28125259 41
10.332521 13.948322 -1.2579753 1
9.1820974 10.675173 -1.1032412 38
2.2705557 3.5819674 -0.35724318 35
8.8570118 11.956467 -1.3415856 2
9.1914196 10.68601 -1.3537319 12
2.2732394 3.586201 -0.43286458 41
7.6840763 10.37307 -1.3923506 2
2.6364584 3.5590703 -0.55624092 0
2.6444457 3.5698528 -0.6365521 0
2.637423 3.5603726 -0.71406698 13
2.6531641 3.5816224 -0.79717249 15
2.6539416 3.5826719 -0.87692094 3
4.3627996 5.8895335 -1.5714287 5
1.8531233 2.5016122 -0.72269326 2
1.7394282 2.34813 -0.72994381 0
1.2630756 1.705081 -0.72998238 12
1.2797153 1.7275435 -1.0021504 16
2.6328194 3.5027649 1.1566859 17
5.2267389 6.9537768 1.6810036 23
5.4244204 7.2167768 1.2630298 17
10.776962 14.337925 1.5572565 23
13.573025 18.057873 1.1621549 33
13.552015 18.029921 0.76123697 29
9.2680378 10.62415 0.39208433 36
2.294425 3.564348 0.092939019 35
13.543572 18.018688 0.36118725 27
9.2816629 10.63977 0.14293303 39
2.2992861 3.5718994 0.017942211 38
11.596174 15.427824 -0.032000598 0
9.3055401 10.66714 -0.10673272 27
2.3034289 3.578335 -0.057194814 30
11.384968 15.146831 -0.36647564 0
9.3054695 10.66706 -0.35732454 6
2.3111777 3.5903726 -0.13291985 35
11.386487 15.14885 -0.70251876 0
9.2867203 10.645567 -0.60691577 41
2.2965715 3.5676823 -0.20714356 35
12.490744 16.617979 -1.1386203 3
9.299242 10.659921 -0.85777324 37
2.300714 3.5741174 -0.28284609 42
10.432044 13.879038 -1.2582644 1
9.3140726 10.676921 -1.1101151 31
2.3019793 3.5760832 -0.35825044 35
8.9139366 11.859312 -1.3376344 2
9.2317696 10.582577 -1.3487606 5
2.3089895 3.5869734 -0.43489298 37
7.7371902 10.29374 -1.388919 3
6.886795 9.1623545 -1.4394478 3
6.1688986 8.2072477 -1.4711047 3
5.5688219 7.4088917 -1.4936856 3
5.0959682 6.7797961 -1.5168812 4
4.7257862 6.2872972 -1.5469626 5
4.3991098 5.8526793 -1.5697516 5
1.877566 2.4979579 -0.72540677 1
1.7347933 2.3080099 -0.72121942 0
1.284039 1.7083158 -0.73518723 11
1.300458 1.7301599 -1.0089103 15
2.6689355 3.4996755 1.1617905 19
5.2823033 6.9264874 1.6832803 22
5.4938889 7.2039313 1.2674634 18
10.917878 14.316206 1.5631381 17
13.599443 17.832443 1.153729 48
13.609678 17.845863 0.7574591 31
13.652647 15.43151 0.57300359 33
2.3301926 3.56498 0.093377411 34
13.591427 17.821932 0.35913652 24
13.641322 15.41871 0.2084069 36
2.3307319 3.5658052 0.017992895 35
8.5745525 11.243491 -0.023444997 0
13.638983 15.416066 -0.15519825 28
2.3349187 3.5722106 -0.057356078 28
11.524388 15.111501 -0.36755851 0
13.608531 15.381645 -0.51842338 27
2.3383739 3.5774968 -0.13304432 32
11.574382 15.177055 -0.70755684 0
13.698299 15.48311 -0.88814014 32
2.32798 3.561595 -0.20772871 37
12.507154 16.400164 -1.1296513 2
12.545534 14.180146 -1.1480556 33
2.3387115 3.5780132 -0.28443959 40
8.6077795 11.287061 -1.0287006 0
10.820556 12.230412 -1.27946 2
2.3443351 3.5866165 -0.36093649 33
8.9965134 11.796792 -1.3376344 2
9.2632113 10.470156 -1.3426419 3
2.344861 3.5874212 -0.43692142 39
7.8136883 10.245798 -1.3897769 2
6.9433722 9.1045856 -1.4379525 3
6.2164407 8.1513872 -1.4688355 2
5.6204095 7.3698335 -1.4936856 3
5.1503386 6.7534471 -1.518994 4
4.7671843 6.2510314 -1.5461906 5
4.4327469 5.8124957 -1.5672359 4
1.9185872 2.5157719 -0.73445171 1
1.8002834 2.3606446 -0.74157637 1
1.3028151 1.7083329 -0.73909092 9
1.3059095 1.7123904 -1.0038403 16
2.7027693 3.4931931 1.1658741 18
5.3305297 6.8894415 1.6832803 22
5.5610161 7.1873336 1.2713429 18
8.5716486 11.078424 1.2161201 26
8.6365328 11.162283 0.72606421 24
8.6405859 11.167522 0.47654891 23
13.653233 15.216777 0.56855565 30
2.3616579 3.5586216 0.093640447 31
8.6395016 11.166121 0.22622268 21
13.63377 15.195086 0.20666578 38
2.3666279 3.5661106 0.01807737 36
8.6161203 11.135902 -0.023345513 19
13.639424 15.201387 -0.15399188 28
2.3730702 3.5758183 -0.057678603 27
8.6634674 11.197096 -0.27381253 11
13.619445 15.17912 -0.51478958 29
2.3854001 3.5943971 -0.13428888 34
8.6493559 11.178857 -0.5239625 9
13.696633 15.265147 -0.88110095 39
2.3616245 3.5585713 -0.20850891 35
8.6594524 11.191906 -0.77504933 20
12.572229 14.01198 -1.1415187 32
2.3746684 3.5782263 -0.2857675 41
8.6375399 11.163585 -1.0229181 22
8.5754023 9.5574427 -1.006071 0
2.380337 3.5867682 -0.36261526 32
8.7885427 11.358748 -1.2948905 2
9.3307619 10.399304 -1.3418772 3
2.3808508 3.5875421 -0.43894982 42
7.8777256 10.181563 -1.3884901 2
7.0043359 9.0527515 -1.4374541 3
6.263504 8.0952635 -1.4665661 2
5.6620564 7.3179231 -1.4911399 3
5.2045894 6.7266698 -1.5211066 4
4.8059044 6.2113895 -1.5446467 5
4.46843 5.7752209 -1.5655589 4
1.9551784 2.5269697 -0.74168772 1
1.8167198 2.3480189 -0.74157637 1
1.3355412 1.7261198 -0.75080186 2
1.3377994 1.7290384 -1.01905 15
2.7485824 3.5016198 1.1750622 21
5.3663716 6.8366132 1.6794858 27
5.6404085 7.1857285 1.2779933 18
8.5946493 10.949351 1.2085085 27
8.6402531 11.007449 0.71989894 39
8.6467552 11.015733 0.47263613 24
13.662256 15.014624 0.56455249 35
2.3976164 3.5586305 0.094078839 33
8.6357517 11.001715 0.22410785 21
13.647994 14.998951 0.20528908 38
2.4071112 3.5727229 0.018195633 39
8.6220293 10.984233 -0.023153178 26
13.645613 14.996334 -0.152876 35
2.4091501 3.5757492 -0.057947375 32
8.6945086 11.07657 -0.27234292 28
13.625508 14.974238 -0.51105481 30
2.4216046 3.5942347 -0.13491116 36
8.6802931 11.05846 -0.52114707 29
2.3998044 3.561878 -0.20967922 37
8.6559935 11.027503 -0.76783037 36
2.4085112 3.574801 -0.28682983 43
8.6462917 11.015142 -1.0148227 34
8.4889383 9.3292217 -0.9882617 1
2.4209092 3.5932024 -0.36496556 36
8.6978989 11.08089 -1.2701062 24
9.3843765 10.313296 -1.3392003 2
2.4191792 3.5906346 -0.44138393 46
7.9559798 10.135704 -1.3897769 2
7.0526614 8.9849005 -1.4344636 3
6.3223114 8.0544548 -1.4671334 2
5.7203221 7.2875361 -1.4930491 3
5.2587166 6.6994629 -1.5232192 5
4.8539972 6.1838617 -1.5461906 5
4.5134692 5.7500386 -1.5672359 4
1.9968305 2.5439081 -0.75073266 1
1.8690102 2.3810687 -0.75611711 5
1.4643321 1.8655196 -0.81586266 0
1.3632687 1.7367676 -1.0291898 15
2.782598 3.4944479 1.1791458 22
5.4164162 6.8020549 1.6802447 25
5.712646 7.174067 1.2829812 19
8.5765505 10.770621 1.1953613 28
8.6497011 10.862486 0.71435016 34
8.6512308 10.864407 0.46872336 28
13.663704 14.807214 0.56032699 34
2.4336896 3.5583093 0.094517231 36
8.6376057 10.847297 0.22218527 25
13.65201 14.794542 0.20379092 46
2.4432852 3.5723391 0.018280106 40
8.6287365 10.836157 -0.022967475 25
13.644185 14.786062 -0.1516998 34
2.4430864 3.5720482 -0.058162395 31
8.684433 10.906102 -0.26963574 36
13.632092 14.772957 -0.50742102 29
2.4511521 3.5838413 -0.13516007 38
8.6800947 10.900655 -0.51655352 43
8.531517 9.2455168 -0.54047269 0
2.4381452 3.5648236 -0.21084952 38
8.6606178 10.876195 -0.76148647 36
8.3693933 9.0698252 -0.74834239 5
2.4469283 3.5776656 -0.28842333 42
8.6434555 10.854642 -1.0055708 36
8.499774 9.2111168 -0.98201281 2
2.4549358 3.5893736 -0.36630857 41
8.6981163 10.923285 -1.2589712 33
9.4480476 10.238751 -1.3380531 2
2.4576664 3.5933657 -0.44381803 45
8.0067282 10.055025 -1.3863454 2
7.1251044 8.9478636 -1.4364573 3
6.3586555 7.9853396 -1.4625947 3
5.768599 7.2443337 -1.4924128 3
5.2980013 6.6533465 -1.5211066 5
4.8921609 6.1436834 -1.5446467 5
4.5486293 5.7122693 -1.5655589 4
2.0436676 2.5664828 -0.76158667 1
1.854161 2.3284962 -0.74351513 6
1.3731021 1.7243719 -1.0274999 16
2.821507 3.4929881 1.1852713 21
5.446496 6.7426896 1.6749322 27
5.7750373 7.1494193 1.2857522 17
8.6189823 10.670185 1.1908635 36
8.6525297 10.711717 0.70839041 31
8.6489935 10.707339 0.46454075 27
13.673855 14.612199 0.55654627 35
2.4744358 3.5642273 0.09513098 35
8.6377287 10.693394 0.22026271 22
13.653843 14.590815 0.20229276 45
2.4750082 3.565052 0.01833079 43
8.6388254 10.694751 -0.022795036 35
13.645956 14.582386 -0.15058392 31
2.4862118 3.5811894 -0.058592431 30
8.6799431 10.745654 -0.26716059 37
2.4897923 3.5863473 -0.13590682 36
8.6806307 10.746506 -0.51210815 39
8.4811707 9.0631762 -0.53326178 0
2.4766431 3.5674069 -0.21201982 41
8.6560249 10.716044 -0.75448632 10
8.3806753 8.9557848 -0.74374241 2
2.4832256 3.5768883 -0.28975126 46
8.6438169 10.70093 -0.99689704 11
8.5965691 9.1864939 -0.98576212 3
2.4844806 3.578696 -0.36698008 36
8.7015657 10.772423 -1.2485547 35
9.0459166 9.6666765 -1.2715137 2
2.4940395 3.5924649 -0.44584644 45
8.0892248 10.014353 -1.3884901 2
7.177423 8.8855543 -1.4344636 3
6.4242005 7.9530749 -1.464864 3
5.8190331 7.2038856 -1.4924128 3
5.3467946 6.6192608 -1.5218108 5
4.9250674 6.097168 -1.5415591 5
4.5883975 5.6803751 -1.5655589 4
2.1080542 2.6097429 -0.77877212 1
1.8386705 2.2762496 -0.73091322 3
1.4033321 1.7373065 -1.0410197 14
2.8580797 3.4881628 1.1903758 20
5.4809904 6.6893125 1.6711377 24
5.849915 7.1395688 1.2912942 19
8.7361994 10.662154 1.1967452 30
8.7043142 10.62324 0.70654082 26
8.7260666 10.649789 0.46467566 28
13.668191 14.403269 0.55220956 34
2.5130792 3.5664797 0.095657051 35
8.7324495 10.657578 0.2207754 27
13.647995 14.381987 0.2007136 41
2.5159647 3.5705748 0.018449053 37
8.7487688 10.677496 -0.022887887 29
13.653812 14.388118 -0.14955851 32
2.5203674 3.576823 -0.058807448 28
8.7040567 10.622925 -0.26561362 36
8.8659363 9.3427477 -0.32512495 0
2.5262837 3.5852191 -0.1365291 35
8.7199755 10.642354 -0.51003367 5
8.4534569 8.9080849 -0.52759612 1
2.5106928 3.5630932 -0.21280003 37
8.7382193 10.66462 -0.75514257 23
8.3962708 8.8478241 -0.73962665 1
2.5173321 3.5725155 -0.2908136 42
8.7461252 10.674269 -1.0000774 39
8.5946121 9.0568323 -0.9782635 4
2.5231791 3.5808134 -0.36899459 39
8.705862 10.625129 -1.2384973 30
9.0528831 9.5397491 -1.2631007 2
2.5259352 3.5847244 -0.44706351 39
8.1438169 9.9391775 -1.3859164 2
7.2241879 8.8168097 -1.431473 3
6.4695282 7.8957801 -1.4625947 3
5.8641777 7.1569757 -1.4911399 3
5.3679194 6.5513144 -1.5147686 5
4.9675131 6.0626354 -1.5415591 4
4.6180263 5.6361022 -1.5622047 5
2.145978 2.6190734 -0.78600806 0
1.8643551 2.2753651 -0.73479074 2
1.4039376 1.7134452 -1.0325698 15
2.8885183 3.4730656 1.1924176 19
5.5072765 6.6217799 1.6643074 27
5.9223576 7.1208611 1.2957278 17
8.8727283 10.668297 1.2047027 29
8.8355932 10.623646 0.71085656 26
8.8550243 10.64701 0.46737415 29
13.665237 14.190365 0.54787278 45
2.5507915 3.5642226 0.096095443 31
8.8614864 10.654779 0.2220571 23
13.653172 14.177836 0.19925593 41
2.5560377 3.5715528 0.018550422 37
8.8779583 10.674584 -0.023020532 25
13.653484 14.178161 -0.14841247 29
2.5604854 3.5777676 -0.059129976 29
8.8302803 10.617258 -0.26708323 40
8.8731613 9.214139 -0.32290429 0
2.5641301 3.5828605 -0.13715139 33
8.8590965 10.651906 -0.51358992 39
8.446456 8.7710361 -0.52313221 1
2.55302 3.5673363 -0.21416537 35
8.867239 10.661695 -0.75951767 47
8.4249001 8.7486515 -0.73647928 0
2.5573885 3.5734406 -0.2924071 40
8.8751574 10.671217 -1.0058599 43
8.5777874 8.9074144 -0.96889013 3
2.5609581 3.5784283 -0.37067339 37
8.8395567 10.628411 -1.2463995 43
9.175046 9.5276241 -1.2703664 3
2.5729873 3.5952368 -0.45071465 39
8.2011976 9.8608685 -1.3833427 2
7.2810102 8.7544632 -1.4299778 3
6.5247016 7.8451009 -1.4620274 3
5.9063826 7.1016526 -1.4885942 3
5.4183164 6.5148172 -1.5154729 4
5.0193496 6.0351119 -1.5438749 5
4.6542149 5.5960851 -1.5605277 6
4.3476782 5.2275147 -1.5783477 5
12.635846 15.192953 -4.9360876 2
1.5068115 1.811744 -0.8106578 1
1.4210964 1.7086828 -1.0359497 18
2.9201753 3.461684 1.1954803 18
5.5609674 6.5921764 1.6665841 26
6.0025773 7.1156774 1.3023783 17
8.9855337 10.651784 1.2098924 28
8.9584846 10.619719 0.7147612 26
8.9806929 10.646046 0.4700726 26
13.663401 13.991632 0.54386967 51
2.5873625 3.5625064 0.096533827 31
8.9975471 10.666025 0.22359516 27
13.65401 13.982015 0.19783875 38
2.5926623 3.5698037 0.018634895 23
9.0115852 10.682667 -0.023173075 27
13.651527 13.979473 -0.14732674 30
2.5971522 3.5759857 -0.059398748 4
8.9609175 10.622603 -0.26878491 41
8.8674269 9.0804462 -0.32038081 0
8.9744835 10.638684 -0.51596081 43
8.4795618 8.6832628 -0.52141535 0
2.5896013 3.565589 -0.21514063 33
8.9981108 10.666694 -0.76433033 39
8.4746122 8.678195 -0.73551089 1
2.6010368 3.5813344 -0.29453176 32
9.0008879 10.669986 -1.0116423 39
8.5923996 8.798811 -0.96357858 4
2.595247 3.5733626 -0.3720164 15
8.9751902 10.639524 -1.2550201 37
9.3081026 9.5317078 -1.2795444 2
2.6120548 3.5965049 -0.45314875 3
8.2647104 9.7972937 -1.3824848 2
7.336832 8.6973524 -1.4289809 3
6.5793114 7.7993593 -1.4620274 3
5.9532704 7.0572271 -1.4879578 3
5.4611268 6.4738221 -1.5147686 4
5.0537677 5.9909234 -1.5415591 5
4.6931691 5.5634565 -1.5605277 4
4.3815546 5.194057 -1.5774431 7
12.651522 14.997582 -4.9011898 1
1.521862 1.8040715 -0.81195903 16
1.4563673 1.7264317 -1.0528494 17
2.9719288 3.4735391 1.2067103 21
5.5787683 6.5203681 1.658236 26
6.0752859 7.1006894 1.3073661 17
9.124445 10.664493 1.218542 30
9.0895395 10.623696 0.71928239 27
9.1145725 10.652955 0.47317582 30
13.670715 13.804988 0.54031134 45
13.668223 18.545902 0.50511479 31
9.1185913 10.657653 0.2247487 25
13.647156 13.781197 0.19634059 37
9.1379528 10.680282 -0.02330572 27
13.650282 13.784353 -0.14627118 32
9.0842581 10.617523 -0.27025452 42
8.8546343 8.9416037 -0.31765544 0
9.1109037 10.648667 -0.51951712 44
8.5174799 8.6011372 -0.52004182 0
9.1242905 10.664312 -0.76870543 41
8.5293722 8.6131458 -0.73502666 1
9.1399994 10.682673 -1.0188704 40
8.597497 8.681941 -0.95732969 6
9.1010485 10.637148 -1.2622039 29
9.4388571 9.5315647 -1.2883397 2
8.0151777 10.875495 -1.3772963 2
8.3173943 9.7212267 -1.3799112 2
7.3973718 8.6459198 -1.4289809 3
6.6438966 7.7652717 -1.4642967 3
6.0023937 7.0154943 -1.4879578 3
5.5061893 6.4355388 -1.5147686 4
5.0929174 5.9525137 -1.5407871 5
4.7293525 5.527585 -1.559689 4
4.4075766 5.1514993 -1.5738251 5
1.9476992 2.276437 -0.74836206 1
1.5393376 1.7991512 -0.81456143 14
1.4778123 1.7272414 -1.0596093 16
3.018919 3.478996 1.2158984 20
5.6344485 6.4931269 1.6612717 23
6.1506729 7.0880232 1.3129082 17
9.2404623 10.64869 1.2240776 16
9.2053747 10.608255 0.72257054 26
9.2411242 10.649452 0.4758743 30
13.664762 13.607642 0.53630823 49
13.605767 18.193823 0.49810055 33
9.2583055 10.669252 0.22635084 27
13.658008 13.600916 0.19512586 42
11.426602 15.279813 0.080587894 0
9.2752104 10.688733 -0.023464894 26
13.655485 13.598405 -0.1453061 30
11.368185 15.201696 -0.25511897 0
9.2184458 10.623318 -0.27203351 42
8.8686743 8.8316031 -0.31593949 0
11.361312 15.192506 -0.5905475 0
9.2426586 10.65122 -0.52277708 45
8.557497 8.5217257 -0.51884001 0
11.405933 15.252173 -0.9298054 0
9.2561064 10.666718 -0.77351803 40
8.5298824 8.4942274 -0.7299425 1
10.968854 14.667706 -1.2187612 1
9.2718801 10.684896 -1.0252311 40
8.440321 8.4050398 -0.93327147 1
9.2761984 12.404263 -1.3047434 2
9.2325287 10.639547 -1.2701062 33
9.8380909 9.7969666 -1.3334641 2
8.0909071 10.819274 -1.3772963 2
8.3876638 9.6659269 -1.3803401 2
7.4601521 8.597064 -1.4294794 3
6.6875658 7.7067375 -1.4620274 3
6.0486364 6.9704361 -1.4873214 4
5.5509834 6.3969417 -1.5147686 4
5.1266327 5.9079208 -1.5384713 5
4.772953 5.5003414 -1.5613662 4
4.4536481 5.1323748 -1.5774431 5
1.9889786 2.2920949 -0.75805587 1
1.5543394 1.7912176 -0.81586266 15
1.4898345 1.7168823 -1.0596093 18
3.0610192 3.478159 1.2230448 20
5.6822357 6.4565811 1.6620307 24
6.2366467 7.086544 1.3206669 17
11.160118 12.680961 1.4666097 0
9.3319912 10.603707 0.72668076 2
13.633483 15.491383 0.69647384 28
13.665282 13.419462 0.53263867 49
13.609171 17.935919 0.49362895 44
13.623641 15.4802 0.3304261 22
13.658449 13.412752 0.19378966 39
11.649052 15.35262 0.081398845 0
13.620087 15.476161 -0.034182604 24
13.644492 13.399046 -0.14419021 18
11.548981 15.220734 -0.25678536 0
9.3478699 10.621749 -0.27365783 27
8.8844643 8.7246447 -0.31432447 0
11.491265 15.14467 -0.59179205 0
9.3643265 10.640449 -0.52544433 4
8.5626049 8.4085751 -0.51557797 0
11.538699 15.207183 -0.93195099 0
13.678882 15.542969 -1.1340264 19
8.4864197 8.3337603 -0.72122675 1
11.058925 14.574875 -1.2174333 1
8.4902573 8.3375282 -0.93233413 1
9.3818445 12.364603 -1.3074294 1
9.3723803 10.649599 -1.279086 24
9.9005632 9.7224655 -1.3326993 2
8.1397829 10.727654 -1.3728338 2
8.4365482 9.586237 -1.3773376 2
7.5016346 8.5239182 -1.4259903 3
6.7412057 7.659862 -1.4620274 3
6.1023693 6.9339685 -1.4885942 3
5.5694938 6.3284755 -1.5077264 4
5.1703448 5.8749328 -1.5392432 5
4.8086519 5.4639502 -1.5605277 4
4.4970922 5.1099324 -1.5801566 5
2.0126233 2.2868931 -0.76096404 1
1.5718044 1.7860017 -0.81846511 14
1.5161554 1.7227691 -1.0697491 16
3.094317 3.4693263 1.2271284 21
5.7458453 6.4422011 1.668102 22
6.3230605 7.0893707 1.32898 15
12.808954 14.361308 1.670738 19
13.645826 15.299604 1.0546736 26
13.634809 15.287251 0.6913467 47
13.664968 13.242275 0.52919155 46
13.657114 17.753345 0.49108627 62
13.611538 15.26116 0.32767043 25
13.663807 13.24115 0.19261542 42
8.6337032 11.223244 0.059807371 0
13.605279 15.254143 -0.033890788 22
8.6378775 11.22867 -0.19039853 5
13.690599 15.349803 -0.39780164 34
8.9048023 8.6293535 -0.31301224 0
8.6174116 11.202065 -0.43995476 12
13.683761 15.342134 -0.76208687 29
8.6325331 8.3655062 -0.5164364 0
8.6576138 11.254326 -0.69320923 0
13.680642 15.338639 -1.1257137 21
8.5156994 8.252286 -0.71904784 5
8.648798 11.242867 -0.94388264 2
9.3580542 10.492185 -1.0188704 0
8.5281839 8.2643852 -0.9304595 1
8.6349049 11.224807 -1.192937 6
9.7318439 10.911274 -1.3182381 3
8.935462 8.6590643 -1.1950316 0
8.2131777 10.676588 -1.3732395 2
8.5052347 9.5360088 -1.3781954 2
7.5580025 8.473979 -1.4259903 3
6.7734103 7.5942993 -1.458056 2
6.1455941 6.8903966 -1.4879578 3
5.6244473 6.3060904 -1.5112475 4
5.2039709 5.8346548 -1.5376993 4
4.8395777 5.4261003 -1.5588505 4
4.5179162 5.0654554 -1.5756341 6
2.0561607 2.3053527 -0.77162719 1
1.5861326 1.7783606 -0.81976628 15
1.5203084 1.704559 -1.0646791 16
3.1392169 3.4705853 1.2352957 20
5.8091221 6.4223194 1.6734145 25
6.4175754 7.0949993 1.3384014 19
11.548243 12.767248 1.494634 2
13.639757 15.079537 1.0460421 25
13.633932 15.073098 0.6859498 30
13.670362 13.063681 0.5258556 51
8.6704626 11.109672 0.30897841 44
13.631896 15.070847 0.32561967 25
13.672053 13.065297 0.19144118 43
8.6601639 11.096477 0.059452582 20
13.609477 15.046061 -0.03363876 27
9.8407488 9.4040241 -0.1026311 0
8.6422338 11.073502 -0.18878588 26
13.679386 15.12335 -0.39439833 35
8.9330282 8.5365868 -0.31190193 0
8.6265306 11.053381 -0.43646997 26
13.683278 15.127653 -0.75615966 35
8.6993923 8.3133192 -0.51695144 14
8.6818943 11.12432 -0.68891811 22
8.5039225 9.401577 -0.69432867 1
8.5557842 8.1760845 -0.71759522 17
8.6656866 11.103553 -0.93724304 32
8.4890385 9.3851213 -0.917099 1
8.5597248 8.1798506 -0.92764747 15
8.6566544 11.091979 -1.1852146 32
9.7944193 10.828295 -1.3164421 4
9.9773064 9.5345201 -1.3254335 0
8.3854446 10.744473 -1.3894669 2
8.5662661 9.4705009 -1.3773376 2
7.6169772 8.4210072 -1.4259903 3
6.8475118 7.5703192 -1.4625947 3
6.1961975 6.8502536 -1.4885942 3
5.6498456 6.2462301 -1.506318 4
5.2445774 5.7981825 -1.5376993 5
4.9009538 5.4182868 -1.5663974 4
4.5610104 5.04246 -1.5783477 5
2.1164606 2.339869 -0.78810668 1
1.6111958 1.7812699 -0.82627237 15
1.5564914 1.720791 -1.0815789 14
3.1685982 3.4542854 1.2373375 22
5.853816 6.381608 1.6734145 27
6.5097957 7.0967317 1.3472687 17
11.690967 12.745048 1.5015537 3
13.644786 14.875027 1.0384383 27
13.638841 14.868546 0.68095762 37
13.67102 12.882916 0.52240843 50
8.6783056 10.961082 0.30652341 31
13.628634 14.85742 0.32305625 24
13.663961 12.876265 0.19006449 46
8.6604509 10.93853 0.058928844 29
13.622252 14.850462 -0.033413265 25
9.7256784 9.1650152 -0.10076124 0
8.6498156 10.925097 -0.18728076 29
13.687309 14.921384 -0.39161381 36
8.9691257 8.452076 -0.3110944 0
8.6339989 10.90512 -0.43298519 32
8.7746687 8.2688284 -0.51798159 23
8.6775055 10.960071 -0.68248147 31
8.4802542 9.2448511 -0.68710977 1
8.5981264 8.1024637 -0.71638471 35
8.6711473 10.95204 -0.92954117 32
8.5085058 9.2756491 -0.91218388 1
8.628231 8.1308327 -0.92889726 10
8.6522312 10.928148 -1.1741347 27
9.8940115 10.786076 -1.3196748 3
8.8381586 8.3286591 -1.166351 0
8.4824829 10.713748 -1.393118 2
8.6187305 9.395813 -1.3751928 3
7.6755805 8.3676262 -1.4259903 3
6.8894892 7.5106592 -1.4603254 6
6.2598863 6.8242898 -1.4924128 4
5.7146072 6.2298479 -1.5119518 5
5.2796216 5.7556429 -1.5361555 5
4.933373 5.3781757 -1.5647204 4
4.5961018 5.0104957 -1.5783477 7
2.18521 2.3822329 -0.80749428 1
1.6338192 1.7811277 -0.83147728 16
1.5807204 1.7232413 -1.0900286 12
3.2295151 3.4717247 1.2516302 21
5.8714762 6.31183 1.6658252 27
6.5942569 7.0888186 1.3544734 18
11.858371 12.747735 1.5115871 3
13.64491 14.668262 1.0306289 28
