# .PCD v0.7 - Point Cloud Data file format
VERSION 0.7
FIELDS x y z intensity
SIZE 4 4 4 4
TYPE F F F F
COUNT 1 1 1 1
WIDTH 1373
HEIGHT 1
VIEWPOINT 0 0 0 1 0 0 0
POINTS 1373
DATA ascii
-13.648871 1.1437318 0.30029824 14
-14.013454 2.2069809 0.22731213 17
-15.242651 3.5526857 0.15844107 23
-15.617125 1.308665 0.066193581 4
-18.393265 2.8967578 -0.030873114 33
-18.390545 4.2863822 -0.14238067 41
-18.36198 1.5386752 -0.24764709 31
-18.350348 2.8899987 -0.35928226 41
-18.393 4.2869544 -0.47673553 37
-18.350763 1.5377352 -0.57324797 38
-18.353025 2.8904207 -0.68873805 47
-18.35466 4.2780185 -0.80967885 55
-18.341793 1.5369836 -0.89859736 45
-18.365765 2.892427 -1.0183049 44
-8.1851768 1.9077628 -0.50962818 4
-18.311184 1.5344187 -1.2227449 50
-9.5213652 1.4995211 -0.69852179 0
-7.8761134 1.8357276 -0.63363731 0
-18.31472 1.5347149 -1.5481657 35
-9.377902 1.476927 -0.85595679 0
-7.7167101 1.7985747 -0.76099616 0
-18.32843 1.5358638 -1.8750703 38
-8.8980818 1.4013602 -0.97155702 9
-8.6211853 1.3577516 -1.0960338 8
-8.3702927 1.3182386 -1.2141011 5
-8.5665178 1.3491421 -1.3975856 4
-8.5687456 1.349493 -1.5513879 1
-8.5449533 1.3457459 -1.7013501 1
-8.3799276 1.3197559 -1.8187988 1
-8.6139565 1.3566132 -2.0242648 2
-7.7705245 1.223781 -1.9649351 4
-5.5821581 0.87913489 -1.9440173 7
-1.5793643 0.2487343 -0.74527544 13
-2.064533 0.33993089 0.55230987 16
-5.30898 0.8741377 1.0397178 41
-8.7166033 1.435212 1.2358738 20
-6.401403 1.054008 0.56325561 4
-9.5072479 1.5653937 0.49568835 1
-15.967788 2.6291387 0.54616934 25
-13.497922 3.2455492 0.38607964 9
-13.660468 1.2407932 0.30073664 18
-14.001653 2.3054094 0.22737622 14
-15.233033 3.6627533 0.15860303 19
-16.041819 1.4570935 0.068035103 4
-18.39233 3.0283461 -0.030906275 32
-18.391285 4.4221487 -0.14262193 42
-18.362741 1.6679052 -0.24780835 33
-18.337616 3.0193374 -0.35943696 80
-18.397614 4.4236708 -0.47764397 39
-18.343563 1.6661631 -0.57337242 40
-18.352121 3.0217257 -0.68947893 55
-18.351543 4.4125934 -0.81088066 58
-18.334597 1.6653488 -0.89879239 43
-18.356947 3.0225203 -1.0189612 32
-8.1406021 1.9573921 -0.50769138 5
-18.327852 1.664736 -1.2246041 51
-9.2036152 1.5153998 -0.6759702 0
-7.8669825 1.8916006 -0.6339497 0
-18.315468 1.6636113 -1.549173 36
-9.1118536 1.500291 -0.83260924 0
-7.6962228 1.8505419 -0.76023138 0
-18.329151 1.664854 -1.8762873 40
-8.6487122 1.4240335 -0.94539142 7
-8.3452024 1.3740598 -1.0621411 8
-8.1069336 1.3348283 -1.1772243 7
-8.4672689 1.3941584 -1.3829479 3
-8.3065767 1.3677001 -1.5056138 1
-8.2449007 1.3575449 -1.6434548 0
-8.154397 1.3426433 -1.7718403 3
-8.4812479 1.3964602 -1.9953208 2
-7.7771087 1.2805216 -1.9688126 4
-5.5796175 0.91869891 -1.9453185 6
-1.5597029 0.25680923 -0.73682559 13
-2.0354283 0.34975001 0.54516351 16
-5.2950072 0.90984732 1.0382 42
-8.6712351 1.4899886 1.230886 9
-6.3821063 1.0966449 0.56221765 3
-11.72444 2.0146244 0.6120066 20
-15.771744 2.7100773 0.54009777 24
-13.513745 3.3493223 0.38719162 7
-13.663413 1.3372997 0.30099967 17
-14.004927 2.4064829 0.22769664 13
-15.23815 3.7767084 0.15892695 22
-15.903864 1.5565827 0.067494474 5
-18.390453 3.160053 -0.030939437 36
-18.394905 4.5590963 -0.14289337 38
-18.354631 1.7964503 -0.2478621 36
-18.3358 3.1506619 -0.3598237 101
-18.401213 4.5606599 -0.47855243 40
-18.367296 1.7976899 -0.57449257 37
-18.362097 3.1551805 -0.69066435 48
-18.343565 4.5463719 -0.81191081 57
-18.338428 1.7948644 -0.89957261 42
-9.4314346 1.6206144 -0.5241372 1
-8.1112375 2.0103347 -0.50672293 6
-18.3277 1.7938143 -1.2254008 49
-8.9490337 1.5377229 -0.65804458 0
-7.8458433 1.9445578 -0.63332486 0
-18.307375 1.7918252 -1.5495087 32
-8.8302441 1.5173111 -0.80782491 0
-7.6676569 1.9003952 -0.75870174 0
-18.332924 1.7943257 -1.8779101 41
-8.4151487 1.445985 -0.92094165 11
-8.1007175 1.3919557 -1.0322356 9
-7.9257135 1.3618847 -1.1522614 14
-8.0798054 1.3883624 -1.3212149 0
-8.0018978 1.3749756 -1.4520934 2
-7.9373775 1.363889 -1.5840156 2
-7.8711476 1.3525085 -1.7123039 3
-8.0181599 1.3777698 -1.8885902 1
-7.7794538 1.3367527 -1.9717208 5
-5.5730681 0.95762688 -1.9453185 6
-1.5578722 0.26769099 -0.73682559 13
-2.0481646 0.36667767 0.54924715 16
-5.2962575 0.94817543 1.0397178 45
-5.4396968 0.97385496 0.77311391 4
-6.393908 1.1446849 0.56394756 3
-11.745479 2.1027629 0.61385614 20
-15.626514 2.7975748 0.53578025 27
-13.501656 3.4465513 0.3875252 8
-13.661699 1.4334904 0.30117503 18
-14.003531 2.5070164 0.22795299 10
-15.257917 3.8948703 0.15941285 23
-15.992064 1.6780101 0.06791684 6
-18.411253 3.2961192 -0.031012392 35
-18.389757 4.6943312 -0.14310448 38
-18.357553 1.9262156 -0.24807712 30
-18.352724 3.285641 -0.36059719 54
-18.396048 4.6959372 -0.47925901 38
-18.3543 1.925874 -0.57449257 35
-18.35536 3.286113 -0.69125712 46
-18.342356 4.6822309 -0.81328434 60
-18.329424 1.923264 -0.89976764 43
-9.1053696 1.630111 -0.5066368 2
-8.1047421 2.0688877 -0.50720716 8
-18.334578 1.9238046 -1.2267288 48
-8.6788912 1.5537597 -0.63896245 0
-7.8398042 2.0012574 -0.6339497 0
-18.318205 1.9220867 -1.5515232 38
-8.5763025 1.5353935 -0.78555495 0
-7.6850667 1.9617578 -0.76176101 0
-18.323908 1.9226851 -1.8783158 35
-8.2208586 1.4717592 -0.90078133 10
-7.9110923 1.4163026 -1.0093081 11
-7.795187 1.3955524 -1.134674 15
-7.8133583 1.3988055 -1.2792109 15
-7.7440462 1.3863966 -1.4070235 17
-7.6958594 1.3777699 -1.5376993 4
-7.8114643 1.3984663 -1.7014028 3
-7.8741055 1.409681 -1.8569328 1
-7.7737517 1.3917148 -1.9726901 5
-5.5662465 0.99651086 -1.9453185 6
-1.5523967 0.27792159 -0.73513561 14
-2.0493572 0.38167575 0.55026805 17
-5.3281193 0.99231797 1.047307 40
-5.2068868 0.9697395 0.74097008 5
-6.3857608 1.1892949 0.56394756 3
-11.730513 2.1847105 0.61385614 18
-15.461187 2.8795178 0.53078806 22
-13.508205 3.5488482 0.3884148 9
-13.679177 1.5319476 0.30178878 17
-14.021075 2.6113091 0.22852977 12
-15.257437 4.0084028 0.15969628 22
-15.975984 1.7891697 0.06789995 5
-18.399591 3.4267712 -0.031032288 39
-18.391356 4.8317394 -0.14337592 39
-18.363531 2.0565541 -0.2483459 41
-18.3372 3.4151514 -0.36075187 85
-18.409225 4.8364344 -0.48047027 36
-18.364244 2.0566339 -0.5752393 35
-18.359478 3.4193006 -0.69229436 50
-18.340143 4.8182855 -0.81465781 59
-18.319521 2.0516253 -0.89996272 42
-8.8895893 1.6556122 -0.49526155 1
-8.0862398 2.1244006 -0.50696504 10
-18.324665 2.0522015 -1.2269943 49
-8.4325066 1.5704844 -0.62161505 0
-7.8333569 2.0579636 -0.63457459 0
-18.312262 2.0508122 -1.5521947 38
-8.3343019 1.5521946 -0.76436257 0
-7.6673336 2.0143464 -0.76137859 0
-18.321901 2.051892 -1.8795328 42
-8.0266275 1.4948927 -0.88062096 13
-7.7215323 1.4380714 -0.98638064 3
-7.6957245 1.4332649 -1.1216252 29
-7.7024627 1.4345198 -1.262664 23
-7.6412754 1.4231242 -1.3901224 22
-7.6320348 1.4214032 -1.5268922 22
-7.6592455 1.4264709 -1.6703767 0
-7.8564115 1.4631915 -1.8551238 3
-7.7524009 1.4438204 -1.969782 5
-5.559154 1.0353463 -1.9453185 6
-1.5539826 0.28941637 -0.73682559 13
-2.0504398 0.39670834 0.55128896 16
-5.2863593 1.022777 1.0404767 32
-4.9355178 0.95489806 0.70328426 23
-6.3929524 1.2368749 0.56533152 3
-11.78557 2.2802103 0.61755532 19
-15.35436 2.970681 0.52781975 13
-13.51398 3.6514103 0.38930437 10
-13.973915 1.6638153 0.30854002 25
-14.05355 2.7190073 0.22936288 10
-15.236803 4.1169086 0.15977727 14
-16.014736 1.9068073 0.068119578 6
-18.394855 3.5589402 -0.031065449 31
-18.39193 4.969408 -0.14364734 39
-18.35667 2.1856513 -0.24845341 30
-18.344322 3.5491633 -0.36137065 94
-18.390453 4.9690094 -0.48087403 37
-18.361349 2.1862085 -0.57561266 38
-18.362631 3.5527055 -0.6933316 53
-18.34078 4.9555879 -0.816203 62
-18.324587 2.1818314 -0.90093797 45
-8.6425371 1.6721127 -0.48213622 1
-8.1059027 2.1901746 -0.50914401 13
-18.321781 2.1814973 -1.2277911 48
-8.1941576 1.5853626 -0.60484588 8
-7.8187985 2.1126006 -0.63457459 0
-18.329161 2.1823761 -1.5548809 36
-8.0651159 1.5603963 -0.74065584 1
-7.6684594 2.0719795 -0.76290822 0
-10.870477 1.2943019 -1.1160361 1
-7.8676238 1.5221865 -0.86432111 14
-7.6528563 1.4806345 -0.97890425 28
-7.6349936 1.4771785 -1.1142498 36
-7.6224713 1.4747558 -1.2512083 31
-7.5499716 1.4607289 -1.3753339 23
-7.5410056 1.4589942 -1.5106815 34
-7.5838223 1.4672781 -1.6561215 1
-7.8651323 1.5217044 -1.8596462 3
-7.776423 1.5045415 -1.9785064 4
-5.5480766 1.0734128 -1.9440173 7
-1.5554838 0.30094683 -0.73851556 13
-2.0665796 0.41481909 0.5563935 17
-5.317595 1.0673869 1.0480659 34
-4.9481511 0.99322933 0.70605528 25
-6.3841615 1.281476 0.56533152 3
-11.773281 2.36322 0.61776084 17
-13.93397 2.7969294 0.47965217 1
-13.507423 3.7510166 0.38986036 9
-13.969893 1.762332 0.30871537 28
-13.983249 2.8068209 0.22852977 10
-15.253938 4.2360244 0.16026315 16
-16.028814 2.0220692 0.068237841 6
-18.404856 3.6943586 -0.031125139 32
-18.410744 5.1126709 -0.14406957 39
-18.364773 2.3167553 -0.24877593 29
-18.350466 3.6834409 -0.36198944 72
-18.393845 5.1079779 -0.48188341 38
-18.361506 2.3163431 -0.57611048 37
-18.349138 3.6831744 -0.69377613 52
-18.348093 5.0952725 -0.81809157 42
-18.328728 2.3122082 -0.90191323 47
-8.4701004 1.700181 -0.47316727 1
-8.0865669 2.2456429 -0.50890189 13
-18.325905 2.311852 -1.2291189 48
-8.0381632 1.6134794 -0.59414834 17
-7.8307562 2.1746039 -0.63676172 0
-18.325342 2.3117809 -1.5558881 35
-7.9173188 1.5892227 -0.72808409 11
-7.6422982 2.1222692 -0.76176101 0
-10.265016 1.2949536 -1.0547777 6
-7.7242336 1.5504651 -0.84973705 0
-7.7162657 1.5488658 -0.98837429 5
-7.6167307 1.5288863 -1.1131152 43
-7.584887 1.5224944 -1.2467533 47
-7.5627527 1.5180515 -1.3795592 1
-7.538332 1.5131496 -1.5122254 152
-7.4967012 1.5047932 -1.6393507 2
-7.861958 1.5781102 -1.8614552 2
-7.7733397 1.560322 -1.9804453 6
-5.5404477 1.1121196 -1.9440173 7
-1.5640086 0.31393933 -0.74358547 13
-2.0598469 0.42844886 0.5553726 17
-5.3330841 1.1092833 1.0526195 40
-4.9372177 1.026943 0.70550108 24
-6.3672562 1.3243915 0.56463951 4
-11.73694 2.4412875 0.61673331 12
-15.072634 3.135113 0.51958942 6
-13.519358 3.8561919 0.39097235 12
-13.973105 1.8619301 0.30906609 29
-14.025963 2.9174051 0.22955513 11
-15.250918 4.3500934 0.16054659 19
-16.069817 2.1413188 0.068474367 6
-18.386448 3.8243876 -0.031138403 31
-12.016382 3.4274909 -0.094216734 1
-18.383833 2.4496639 -0.24925973 34
-18.351713 3.8171625 -0.36253089 49
-12.016743 3.4275937 -0.31543478 7
-18.356777 2.4460585 -0.57648385 38
-18.362112 3.8193257 -0.69525796 48
-18.354349 5.2353001 -0.81998014 42
-18.316099 2.4406383 -0.90210825 65
-8.680913 1.8056328 -0.48563632 3
-8.070693 2.3020427 -0.50890189 11
-18.321186 2.4413161 -1.2299157 52
-7.8192186 2.2303135 -0.63707417 0
-18.328512 2.4422922 -1.5575669 36
-7.64644 2.1810312 -0.76367307 0
-10.097944 1.345561 -1.0385504 1
-7.6937528 1.6003032 -0.84759235 2
-7.7091498 1.6035058 -0.98887271 7
-7.6058712 1.5820239 -1.1131152 44
-7.5702066 1.5746056 -1.2461169 45
-7.5211301 1.5643976 -1.3739254 70
-7.4699459 1.5537513 -1.5006464 255
-7.4515505 1.5499251 -1.6318038 3
-8.4649229 1.7607069 -2.0070794 2
-7.7660565 1.6153424 -1.9814146 6
-5.5325484 1.150772 -1.9440173 6
-1.5475807 0.3218973 -0.73682559 14
-2.0568056 0.44281885 0.5553726 18
-5.3252101 1.1464883 1.0526195 40
-4.9492917 1.0655551 0.7082721 25
-6.3500638 1.3671336 0.56394756 4
-11.696179 2.5181227 0.61550021 4
-12.924333 2.7825372 0.44619119 6
-11.91112 3.4875689 0.34515876 17
-13.975607 1.9616588 0.3094168 29
-14.048263 3.0245132 0.23026007 7
-11.842181 3.4673836 0.12491456 20
-16.066359 2.2551229 0.068525054 6
-18.410137 3.9636004 -0.031224623 32
-11.792548 3.4528511 -0.092648469 13
-18.366283 2.5779476 -0.24925973 29
-18.363712 3.9536057 -0.36330438 44
-11.727725 3.433871 -0.30846998 16
-18.35113 2.5758204 -0.57685721 38
-18.370171 3.9549959 -0.69659156 46
-11.920086 3.4901941 -0.53360516 18
-18.330265 2.572892 -0.90366864 47
-8.6173372 1.8552649 -0.4827925 2
-8.0659199 2.3616967 -0.50962818 12
-18.323458 2.5719364 -1.2312436 51
-7.835444 1.6869278 -0.58084863 1
-7.8187656 2.28933 -0.63832396 0
-10.175856 1.4283141 -0.86557603 6
-7.8086767 1.6811649 -0.72018182 0
-7.63867 2.236598 -0.76443785 0
-9.7139339 1.3634773 -1.0000105 1
-7.6707296 1.6514657 -0.84630549 3
-7.5697308 1.629721 -0.97242475 22
-7.5830288 1.6325841 -1.1114131 38
-7.5590296 1.6274172 -1.2461169 48
-7.4984775 1.6143807 -1.3718128 13
-7.485775 1.6116459 -1.5060499 37
-7.4826069 1.6109638 -1.6410277 4
-8.4067154 1.8099194 -1.9962254 2
-7.7697654 1.6727875 -1.9852921 6
-5.5206823 1.1885724 -1.942716 7
-1.5559285 0.33498281 -0.7418955 13
-2.0612142 0.45884803 0.55741441 16
-5.3170762 1.1836374 1.0526195 32
-4.9455986 1.1009425 0.7088263 27
-6.3520341 1.41403 0.56498551 4
-11.401466 2.5380869 0.60090905 3
-12.861668 2.8631432 0.44470704 7
-11.622253 3.4912663 0.33748609 18
-13.490781 1.989736 0.29898307 25
-14.085364 3.135551 0.23122136 9
-11.553367 3.4705732 0.12212069 19
-16.070011 2.3701429 0.068609528 6
-18.39373 4.0946388 -0.03124452 36
-11.507662 3.4568436 -0.090597652 17
-18.37158 2.7095981 -0.24958225 31
-18.351278 4.0851884 -0.36361375 74
-11.443049 3.4374344 -0.30160612 16
-18.380165 2.7108643 -0.57835072 39
-18.373325 4.0900965 -0.69777697 50
-11.638996 3.4962957 -0.52210212 18
-18.339527 2.7048705 -0.90503401 49
-8.5651884 1.9067013 -0.48060495 2
-8.0645313 2.4225445 -0.51059657 13
-18.3248 2.7026987 -1.2325716 48
-7.807899 1.7381208 -0.57969213 0
-7.8369651 2.3541849 -0.64113593 0
-7.7889719 1.7339075 -0.71946347 0
-7.6571894 2.3001812 -0.76787955 0
-9.3538046 1.3795793 -0.96390462 1
-7.6512494 1.703249 -0.8454476 3
-7.60853 1.6937393 -0.97890425 31
-7.5675812 1.6846235 -1.1108458 45
-7.5551934 1.6818658 -1.2473898 41
-7.4793377 1.6649796 -1.3704044 45
-7.47051 1.6630144 -1.505278 40
-7.5208077 1.6742113 -1.6519288 2
-7.7616858 1.7278334 -1.9862615 7
-5.5011735 1.2246194 -1.9388124 6
-1.5429354 0.34347373 -0.73682559 14
-2.0391147 0.46889323 0.55230987 8
-5.2933736 1.2172081 1.0495838 23
-4.9570956 1.1398813 0.71159732 26
-6.357542 1.4619131 0.56636941 4
-10.974693 2.5236242 0.57933062 6
-12.79851 2.9430099 0.44322288 6
-11.345391 3.4946351 0.33014703 18
-13.476561 2.0838709 0.29898307 16
-14.125496 3.2481494 0.23224674 6
-11.276567 3.4734359 0.11944828 18
-16.07679 2.4859426 0.068710893 5
-18.419273 4.2355008 -0.031337373 30
-11.230953 3.4593856 -0.088607162 25
-18.360121 2.8390124 -0.24968976 32
-18.349594 4.2194781 -0.3641552 56
-11.193301 3.447788 -0.29565072 34
-18.360792 2.8391161 -0.57835072 38
-18.367697 4.2236409 -0.6986661 48
-11.343138 3.4939408 -0.50991225 25
-18.339937 2.8358912 -0.90600926 44
-8.5360985 1.9628708 -0.47972992 2
-8.0817642 2.4893646 -0.51277554 12
-9.8646879 1.5253698 -0.66422355 6
-7.7761345 1.7881175 -0.57824653 0
-7.8508272 2.418231 -0.64363551 0
-9.4419498 1.4600021 -0.80480444 0
-7.761147 1.7846712 -0.7180267 0
-7.6523604 2.3570988 -0.76902682 0
-9.0765257 1.4034967 -0.9363181 1
-7.6159177 1.7512758 -0.84287393 2
-7.5655775 1.7397001 -0.97491688 80
-7.5479188 1.7356395 -1.1097112 41
-7.5317221 1.7319151 -1.2454805 46
-7.4560194 1.7145073 -1.3682917 38
-7.4548931 1.7142483 -1.504506 40
-7.5508642 1.7363168 -1.6611527 2
-7.7721267 1.787196 -1.9920778 7
-5.5035491 1.2655379 -1.942716 7
-1.5404999 0.35423705 -0.73682559 13
-2.073422 0.49204665 0.56251895 13
-4.1765938 0.99115318 0.82949752 7
-4.941309 1.1726289 0.71048892 24
-6.3433046 1.5053383 0.56602347 4
-10.649754 2.5273075 0.56309539 3
-12.723197 3.0193596 0.44133395 3
-11.175824 3.5280156 0.32592151 43
-13.497214 2.1836524 0.29977217 18
-14.106368 3.3476017 0.23231082 9
-11.183387 3.5304029 0.11871945 45
-16.102478 2.6051459 0.068896741 5
-18.408714 4.3685975 -0.031370532 36
-11.183642 3.5304835 -0.088426203 46
-18.355648 2.969676 -0.24990478 35
-18.354712 4.355782 -0.36485133 54
-11.172771 3.5270519 -0.29575166 45
-18.376045 2.972976 -0.57947081 39
-18.368879 4.3591442 -0.69985151 48
-11.150788 3.520112 -0.50235802 79
-18.331524 2.9657731 -0.9065944 48
-8.4794416 2.0122681 -0.47732362 2
-8.1022625 2.5577447 -0.51519656 13
-9.5661831 1.5476688 -0.64483601 0
-7.798398 1.8506486 -0.58084863 0
-7.8337531 2.4729812 -0.64363551 0
-9.167902 1.4832329 -0.78230888 0
-7.7407475 1.8369675 -0.71730828 0
-7.6584997 2.4176567 -0.77132124 0
-8.8111677 1.4255184 -0.90994865 1
-7.6151147 1.8071533 -0.8441608 1
-7.5378022 1.7888062 -0.97292316 4
-7.5471759 1.7910308 -1.1114131 41
-7.5194483 1.7844507 -1.2454805 43
-7.4362068 1.7646965 -1.3668833 50
-7.4465632 1.7671542 -1.505278 36
-7.5423646 1.789889 -1.6619912 1
-7.9120355 1.877616 -1.8876857 7
-7.7405815 1.8369281 -1.9872309 7
-5.4945803 1.3039265 -1.942716 6
-1.5520996 0.3683309 -0.74358547 13
-2.062423 0.50467134 0.56047714 14
-4.0322394 0.986682 0.80217642 4
-4.9406972 1.2089802 0.71159732 27
-6.3132863 1.5448503 0.56429356 6
-10.534843 2.5778582 0.55795765 6
-12.678509 3.1024094 0.4405244 2
-11.173749 3.6133332 0.32658869 42
-13.501355 2.2811587 0.30021057 16
-14.109847 3.4526553 0.23275942 5
-11.177496 3.6145446 0.11892191 45
-16.11545 2.7228303 0.069031894 4
-18.420506 4.5074663 -0.031443488 31
-11.181558 3.6158581 -0.088607162 45
-18.381794 3.1057465 -0.25054982 42
-18.351049 4.4904699 -0.36539277 72
-11.170705 3.6123488 -0.2963573 45
-18.378494 3.1051891 -0.58021754 39
-18.345764 4.4891772 -0.70014787 47
-11.144954 3.6040213 -0.50321645 72
-18.322191 3.0956759 -0.90717959 49
-8.4496679 2.0676193 -0.4764486 2
-8.1070023 2.621618 -0.51664919 10
-9.2009592 1.5545734 -0.62093347 0
-7.83179 1.9164256 -0.5843181 0
-7.8618298 2.5423348 -0.64738482 0
-8.8861408 1.5013824 -0.75914174 0
-7.7354732 1.892857 -0.7180267 0
-7.6641665 2.4784148 -0.77361572 0
-8.5694981 1.4478832 -0.88601333 0
-7.5984497 1.8593276 -0.84373182 0
-7.5521159 1.8479898 -0.97641212 3
-7.5460267 1.8464997 -1.1131152 41
-7.5221505 1.8406572 -1.2480261 44
-7.4428291 1.8212475 -1.3704044 51
-7.430232 1.8181651 -1.504506 11
-7.5486798 1.847149 -1.6661839 1
-8.4096727 2.0578325 -2.0097928 7
-7.7388773 1.89369 -1.990139 7
-5.4816694 1.3413551 -1.9414148 6
-1.5318824 0.37484899 -0.73513561 15
-2.0550992 0.518112 0.55945623 16
-3.9033911 0.98408574 0.77789104 6
-4.932137 1.2434433 0.71159732 22
-6.3255324 1.5947328 0.56636941 4
-10.501096 2.6474361 0.55713558 10
-13.296152 3.3520989 0.46278673 2
-11.174824 3.7000451 0.32736707 40
-13.496917 2.3774414 0.3004736 15
-14.108668 3.5569429 0.23314394 4
-11.182368 3.702543 0.11924583 46
-16.139381 2.8429039 0.069217741 5
-18.400225 4.6388888 -0.031463385 31
-11.182623 3.7026274 -0.088818274 49
-18.367542 3.2353876 -0.25065735 35
-18.354153 4.6272736 -0.3660889 78
-11.171788 3.6990399 -0.29706386 43
-18.360306 3.234113 -0.58034205 36
-18.360489 4.628871 -0.70192599 45
-11.146079 3.6905274 -0.50441825 75
-18.33161 3.229058 -0.90873998 47
-8.4156637 2.1216769 -0.47535482 2
-8.1301975 2.6919527 -0.51931232 7
-8.9501123 1.5765355 -0.60473293 0
-7.8491688 1.9788575 -0.58663112 0
-7.8817477 2.6096895 -0.6505093 0
-8.6242142 1.5191294 -0.73765343 0
-7.7297964 1.9487625 -0.71874505 0
-7.6693573 2.5393658 -0.7759102 0
-8.339716 1.4690161 -0.86329502 0
-7.6007094 1.9162183 -0.8454476 0
-7.5313334 1.8987279 -0.97541529 56
-7.5367908 1.9001038 -1.1136825 41
-7.5091171 1.893127 -1.2480261 41
-7.4299331 1.8731638 -1.3704044 44
-7.4554152 1.8795881 -1.5122254 4
-7.6417894 1.9265751 -1.6896632 5
-8.3535414 2.1060152 -1.9998434 7
-7.7141795 1.9448253 -1.9872309 7
-5.4648361 1.3777423 -1.9388124 6
-1.5186818 0.38287556 -0.7300657 15
-2.0439451 0.53050345 0.55741441 18
-3.8660142 1.0034193 0.77181971 7
-4.9425077 1.2828219 0.71436834 23
-6.3181014 1.6398555 0.56671542 3
-10.528756 2.7327259 0.55960172 6
-12.84291 3.3333614 0.44781026 6
-11.179015 3.7882359 0.32825667 42
-13.542925 2.4831493 0.30187646 13
-14.122204 3.6654007 0.23378479 4
-11.182765 3.7895064 0.11952927 48
-16.146681 2.9605584 0.069336005 4
-18.390621 4.773263 -0.031503178 34
-11.190597 3.7921603 -0.089089707 45
-18.387779 3.3714726 -0.25124863 44
-18.360111 4.7653441 -0.36686239 77
-11.164627 3.78336 -0.29756856 45
-18.360874 3.3665395 -0.58108878 37
-18.354809 4.763968 -0.70296329 48
-11.146537 3.77723 -0.50562006 72
-18.316477 3.3583992 -0.9091301 47
-8.3929148 2.1783707 -0.47491732 2
-8.2322121 2.7896519 -0.52705967 6
-8.7151203 1.597952 -0.58959466 0
-7.7695146 2.0165679 -0.581716 2
-7.9162121 2.6825688 -0.6548835 0
-8.3703251 1.5347325 -0.71683663 0
-7.7121468 2.0016782 -0.71838588 0
-7.7042365 2.6107366 -0.78126389 0
-8.1413784 1.4927542 -0.84382224 0
-7.5948453 1.9712328 -0.84630549 0
-7.5294189 1.9542514 -0.97691053 52
-7.5310073 1.9546636 -1.1148171 40
-7.5110068 1.9494727 -1.2505718 48
-7.4242973 1.9269673 -1.3718128 41
-7.4497094 1.9335629 -1.5137693 3
-7.6281528 1.9798777 -1.6896632 4
-8.3763494 2.1740713 -2.0088882 3
-7.6966577 1.9976581 -1.9862615 6
-5.4624066 1.417761 -1.9414148 5
-1.5300086 0.39711183 -0.73682559 16
-2.0626113 0.55074632 0.56353986 19
-3.851326 1.0283583 0.77030188 6
-4.9410858 1.3193396 0.71547675 25
-6.3334503 1.6911206 0.56913728 3
-10.459249 2.7927668 0.55693012 10
-13.352338 3.5652626 0.46642968 5
-11.171185 3.8727362 0.32881263 40
-13.595969 2.5911119 0.30345467 11
-14.158096 3.7804115 0.23481017 3
-11.190048 3.8792756 0.11989368 46
-16.204206 3.0881882 0.069673896 7
-18.403225 4.9139204 -0.031582765 37
-11.197862 3.8819842 -0.089361131 45
-18.379511 3.5027564 -0.25146365 33
-18.357306 4.9016595 -0.36748117 78
-11.175723 3.8743093 -0.29857796 41
-18.372271 3.5013766 -0.58220887 40
-18.367447 4.9043674 -0.70474142 48
-11.150103 3.8654273 -0.50699359 74
-18.331833 3.49367 -0.9110806 41
-8.2617369 2.2060003 -0.46835467 4
-11.158788 3.8684382 -0.71614259 49
-8.4253893 1.6057059 -0.57073826 3
-7.7899375 2.0800233 -0.5843181 7
-7.9123621 2.7429938 -0.65613329 0
-8.1127357 1.5461204 -0.69568408 4
-7.7018332 2.0564983 -0.71874505 0
-7.7234421 2.6775005 -0.785088 0
-7.9313998 1.5115615 -0.82313234 10
-7.5655289 2.020103 -0.84458971 0
-7.5270953 2.0098407 -0.97840583 50
-7.5248289 2.0092354 -1.1159518 40
-7.5086598 2.0049181 -1.2524811 41
-7.4220757 1.9817989 -1.3739254 41
-7.4511967 1.9895747 -1.516857 3
-7.6292601 2.0371201 -1.6930174 3
-8.3496742 2.2294807 -2.0061748 4
-7.675025 2.04934 -1.9843228 5
-5.4450669 1.4539096 -1.9388124 6
-1.5377071 0.41058949 -0.7418955 16
-2.0400684 0.56001371 0.55843532 16
-3.8440528 1.0552206 0.77030188 6
-4.9546752 1.3600947 0.71880198 26
-6.3176465 1.7342403 0.56879127 3
-10.528097 2.8900397 0.56165683 7
-13.350252 3.664742 0.4672392 7
-11.170257 3.9599836 0.32959104 44
-13.667778 2.7038162 0.30547127 11
-14.301059 3.9257452 0.23762994 12
-11.181542 3.9639847 0.12009614 46
-16.158707 3.1965821 0.069572531 4
-18.410902 5.0539269 -0.031655718 37
-11.189338 3.966748 -0.089511931 44
-18.370304 3.6340892 -0.25167868 34
-18.361204 5.0402851 -0.36825466 50
-11.174786 3.9615893 -0.29928452 47
-18.370913 3.6342094 -0.5829556 39
-18.37516 5.044116 -0.70637143 49
-11.141678 3.9498522 -0.50785202 65
-18.326591 3.6254418 -0.91205585 63
-8.1768074 2.2445934 -0.46441707 38
-11.146562 3.9515834 -0.71711099 45
-8.2299547 1.6280836 -0.55825585 8
-7.7790732 2.1354125 -0.58460724 2
-7.9343638 2.8128226 -0.65957016 0
-7.9609804 1.5748739 -0.68359691 12
-7.6911302 2.1112716 -0.71910429 0
-7.7495956 2.7473202 -0.78967696 0
-7.7840233 1.5398675 -0.80893344 2
-7.5780869 2.0802402 -0.84759235 0
-7.5243626 2.0654926 -0.97990108 54
-7.5182548 2.0638158 -1.1170865 41
-7.5020967 2.0593805 -1.253754 42
-7.4156537 2.0356512 -1.3753339 39
-7.4182014 2.0363505 -1.5129974 255
-7.6299386 2.0944741 -1.6963716 3
-8.3188763 2.2835925 -2.0025568 4
-7.6792421 2.1080081 -1.9891696 5
-5.4420791 1.4938905 -1.9414148 6
-1.531307 0.42035499 -0.74020553 21
-2.0435536 0.57634199 0.56047714 17
-3.8328128 1.0809655 0.76954293 8
-4.9336214 1.3914258 0.71713936 35
-6.3092213 1.7793853 0.56913728 3
-10.549956 2.9753969 0.5639174 7
-12.281635 3.4637811 0.430675 0
-11.176172 4.0501313 0.3305918 41
-13.742588 2.8184519 0.30757555 9
-14.192468 4.0026917 0.23628414 8
-11.17992 4.0514894 0.12037957 47
-15.947912 3.2707391 0.06876158 10
-18.409819 5.1921082 -0.031715408 32
-11.183935 4.0529442 -0.089692883 44
-18.367992 3.7670708 -0.2520012 33
-18.356363 5.177032 -0.36887345 44
-11.180693 4.0517693 -0.30019298 43
-18.380341 3.769603 -0.58407575 37
-18.370275 5.1809559 -0.70755684 46
-11.143888 4.0384321 -0.50922555 64
-18.347799 3.7629292 -0.91439641 43
-8.3915815 2.3666718 -0.47754237 2
-11.156241 4.0429082 -0.71953207 48
-8.089365 1.6590387 -0.54949164 9
-7.8100529 2.2026637 -0.58807671 2
-7.9595237 2.8844504 -0.66331953 1
-7.8951268 1.6192025 -0.67889637 1
-7.7030435 2.1724839 -0.72161859 0
-7.7377148 2.804069 -0.79044175 0
-7.7535915 1.5901753 -0.80690497 0
-7.5672073 2.1341741 -0.84802127 0
-7.540318 2.1265905 -0.98388851 46
-7.5265288 2.1227016 -1.1204906 40
-7.5027394 2.1159923 -1.2562997 43
-7.4164205 2.0916479 -1.3781507 37
-7.4302468 2.0955472 -1.5184009 255
-7.6339521 2.1529982 -1.7005643 3
-8.3214827 2.3469017 -2.0070794 4
-7.6531339 2.1584079 -1.9862615 5
-5.4278765 1.5308201 -1.9401135 5
-1.5143777 0.4270989 -0.73344564 19
-2.0506251 0.59382194 0.56353986 17
-3.8063107 1.1022352 0.76574838 7
-4.9542279 1.4346502 0.721573 22
-6.2889891 1.8211716 0.56844532 4
-10.559625 3.0578663 0.56556147 7
-11.919237 3.4515843 0.41880175 12
-11.173871 4.1377764 0.3313702 40
-13.902522 2.9525332 0.31160876 13
-11.882235 3.4408691 0.19821721 17
-11.177618 4.139164 0.12066301 47
-16.132065 3.4260299 0.069657005 3
-11.856849 3.4335177 -0.020467117 16
-11.185376 4.1420364 -0.089934155 45
-18.372547 3.90185 -0.25243124 35
-12.015988 3.4796016 -0.24194509 2
-11.178381 4.1394463 -0.30089957 43
-18.365311 3.9003134 -0.58444911 37
-11.990788 3.4723041 -0.46276438 14
-11.156648 4.1313982 -0.51111406 64
-18.328901 3.892581 -0.91478652 47
-8.3940363 2.4307532 -0.47863615 3
-11.150209 4.129014 -0.7209847 45
-8.0697784 1.7138107 -0.54896045 1
-7.8404703 2.2704508 -0.59154618 1
-11.140299 4.1253443 -0.93077195 45
-7.8641372 1.6701378 -0.6772176 0
-7.7029958 2.2306409 -0.72305536 0
-7.7739577 2.8787603 -0.79617792 0
-7.7072692 1.6368231 -0.80325383 0
-7.5635834 2.1902697 -0.84930807 0
-7.5367246 2.182492 -0.98538375 49
-7.5381494 2.1829045 -1.1244619 38
-7.4915776 2.1694183 -1.2569361 41
-7.420548 2.1488495 -1.3816718 32
-7.438055 2.1539192 -1.5230325 255
-7.6337624 2.2105923 -1.7039185 2
-8.2899237 2.4006042 -2.0034614 5
-7.6416059 2.2128637 -1.9872309 5
-5.4206905 1.5697287 -1.9414148 6
-1.5148416 0.43866926 -0.73513561 16
-2.042722 0.60702181 0.56251895 16
-3.8211107 1.1354936 0.77030188 6
-4.9478884 1.4703305 0.7221272 24
-6.2952213 1.8707083 0.57017523 3
-10.591628 3.1474421 0.56843859 6
-11.65726 3.4641089 0.41043651 13
-11.182111 4.2298303 0.33248219 41
-13.92063 3.0580995 0.31248555 14
-11.61256 3.4508259 0.19411571 11
-11.189601 4.2326641 0.12110841 45
-15.998363 3.5145388 0.069183946 2
-11.560355 3.4353125 -0.019996228 14
-11.186115 4.2313452 -0.090175427 44
-18.383924 4.0386014 -0.25296879 30
-11.765223 3.4961915 -0.23738155 14
-11.175391 4.2272887 -0.30160612 43
-18.372778 4.0361528 -0.5855692 38
-11.713366 3.4807816 -0.45298454 28
-11.153698 4.2190828 -0.51231587 60
-18.320789 4.0247321 -0.91576177 47
-8.4381189 2.5074987 -0.48213622 3
-11.147253 4.2166452 -0.72267938 46
-8.0225325 1.7623991 -0.54657018 5
-7.8664956 2.3376331 -0.59472656 0
-11.163445 4.2227702 -0.93514615 49
-7.8600717 1.7267095 -0.67788911 0
-7.6986914 2.2877679 -0.72413296 0
-11.146367 4.21631 -1.1445535 42
-7.6801076 1.6871747 -0.80163109 0
-7.5519204 2.244153 -0.84973705 0
-7.5098906 2.2316632 -0.98388851 23
-7.5417037 2.241117 -1.1272986 37
-7.4989624 2.2284157 -1.2607547 50
-7.4129138 2.2028453 -1.3830802 22
-7.4341235 2.2091482 -1.5253483 255
-7.6481357 2.2727447 -1.7106267 1
-8.2617579 2.4550905 -2.0007479 7
-7.6296911 2.2672637 -1.9882003 5
-5.402348 1.6053791 -1.9388124 5
-1.5291184 0.45439777 -0.74358547 13
-2.0532327 0.62577713 0.56660253 16
-3.801821 1.1587057 0.7680251 6
-4.9412937 1.5059901 0.7226814 32
-6.2667613 1.9099617 0.56879127 4
-10.546472 3.2143168 0.56720555 8
-11.391877 3.4719768 0.40193635 17
-11.170959 4.3149967 0.33303818 39
-13.937939 3.1640625 0.31336233 16
-11.33569 3.4548519 0.18988606 12
-11.19709 4.3250909 0.12151332 46
-15.973437 3.6261427 0.069183946 5
-11.29504 3.4424629 -0.019578395 13
-11.189884 4.3223071 -0.09044686 42
-18.378685 4.1721597 -0.25329131 40
-11.468918 3.4954567 -0.23188983 22
-11.186639 4.3210535 -0.30271646 25
-18.371445 4.1705165 -0.58644038 37
-11.417306 3.4797266 -0.44246382 21
-11.150066 4.3069272 -0.51351774 74
-9.0117064 2.0457547 -0.45115164 1
-8.4777164 2.5838089 -0.48541754 2
-11.147339 4.3058734 -0.72461623 45
-7.9866805 1.8130627 -0.54497671 2
-7.8805156 2.4017961 -0.59703952 0
-11.152292 4.3077869 -0.93670839 46
-7.8167295 1.7744819 -0.67520303 0
-7.7015877 2.3472631 -0.7259289 0
-11.153803 4.3083701 -1.1483777 38
-7.6720219 1.7416317 -0.80203676 0
-7.5550914 2.3026145 -0.85188174 1
-7.5169072 2.2909768 -0.98687905 28
-7.5448132 2.2994819 -1.1301353 36
-7.4832234 2.2807107 -1.2607547 43
-7.4161882 2.2602799 -1.3866013 18
-7.433538 2.2655678 -1.5284361 255
-7.71065 2.3500249 -1.7282361 0
-8.2593269 2.5172489 -2.0043659 6
-7.5839801 2.311419 -1.9804453 5
-5.3837733 1.6408476 -1.9362099 6
-1.5224411 0.46400431 -0.7418955 13
-2.041431 0.63778943 0.56456071 15
-3.7973876 1.1863903 0.76878405 8
-4.9495654 1.5463568 0.72545242 23
-6.279901 1.9619839 0.57121319 5
-10.630537 3.3212216 0.57295984 7
-11.195649 3.4977753 0.39586481 34
-11.824991 4.6627536 0.35349861 12
-13.938871 3.2667656 0.3138884 20
-11.189133 3.4957397 0.18783532 26
-15.259689 6.0171008 0.16605335 19
-18.385653 4.3089294 0.079760052 24
-11.186736 3.4949908 -0.019432487 36
-18.415491 7.261476 -0.14925691 36
-18.372475 4.3058414 -0.25361383 30
-11.18466 3.4943421 -0.22663015 37
-18.410151 7.2593703 -0.49954778 38
-18.369129 4.3050575 -0.58731163 35
-11.186704 3.4949806 -0.43446213 49
-11.175495 4.4066482 -0.51609302 2
-8.9816456 2.1049716 -0.45037144 1
-8.596714 2.6858091 -0.49329275 3
-18.359964 7.2395816 -1.1967183 50
-7.9155402 1.8551153 -0.54099298 0
-7.8787875 2.4615126 -0.59819603 0
-18.370878 7.2438846 -1.5472248 41
-7.8157926 1.8317381 -0.67621028 0
-7.7040253 2.4069128 -0.72772491 0
-18.368702 7.2430267 -1.8963718 40
-7.6480527 1.792426 -0.80081975 0
-7.5502195 2.3588603 -0.85316861 1
-7.5348244 2.3540506 -0.99136484 48
-7.5436931 2.3568213 -1.1324046 35
-7.4935045 2.3411412 -1.2652097 48
-7.4227777 2.3190446 -1.3908266 8
-7.4475102 2.3267715 -1.5346116 178
-9.0230627 2.81901 -2.0267572 2
-8.2229557 2.5690384 -1.9998434 8
-7.5861797 2.3700953 -1.9852921 5
-5.3721867 1.6783934 -1.9362099 6
-1.5191647 0.47462162 -0.7418955 14
-2.0590291 0.65910023 0.57068616 18
-3.7852721 1.2116748 0.7680251 9
-4.9424214 1.5820812 0.72600663 22
-6.2774363 2.0094225 0.57225108 5
-10.641332 3.4063165 0.57480937 9
-11.193802 3.5831633 0.39667436 37
-11.150427 4.4869623 0.33426136 6
-13.981806 3.3799717 0.31537893 27
-11.191119 3.5823047 0.18828392 27
-15.265549 6.142899 0.16657974 17
-16.228401 3.9230654 0.070518635 2
-11.184921 3.5803206 -0.019472281 34
-18.423719 7.4137554 -0.14973946 34
-18.384729 4.4443378 -0.25420514 37
-11.156182 3.5711215 -0.2265528 66
-18.403536 7.4056344 -0.50075901 35
-18.381374 4.4435267 -0.58868062 36
-11.165838 3.5742123 -0.43461031 53
-18.35536 7.3862476 -0.85002548 36
-8.9744978 2.1695018 -0.45076156 1
-8.509284 2.7238426 -0.48935515 2
-18.36083 7.3884492 -1.2001078 58
-7.8829989 1.9056419 -0.53966504 0
-7.9260044 2.5371335 -0.60311115 0
-10.784002 4.3395123 -0.91077548 5
-7.7950654 1.8843848 -0.67553878 0
-7.6984162 2.4642818 -0.72880244 0
-18.380484 7.396358 -1.9028728 37
-7.6546931 1.8504511 -0.80284816 0
-7.567656 2.4224253 -0.85702908 2
-7.5333257 2.4114361 -0.99335855 38
-7.5459108 2.4154646 -1.1352413 35
-7.4995437 2.4006224 -1.2690282 41
-7.4551578 2.3864143 -1.3999814 4
-7.4460363 2.3834944 -1.5376993 70
-8.9845381 2.8759725 -2.0225646 2
-8.2048197 2.6263828 -1.9998434 7
-7.5583601 2.4194496 -1.982384 6
-5.3495312 1.7123979 -1.9323063 6
-1.5192671 0.48632112 -0.74358547 13
-2.0360019 0.66743511 0.56558162 17
-3.7879164 1.2417417 0.77030188 8
-5.5975409 1.8349663 0.82410061 17
-6.2594681 2.0519571 0.57190514 5
-11.099379 3.6385598 0.60090905 19
-11.183708 3.6662045 0.39721406 40
-10.82292 4.4432154 0.32536551 8
-13.985031 3.4842684 0.31599265 32
-11.192441 3.6690669 0.18873252 23
-15.266693 6.2675514 0.16706564 19
-16.161804 4.0265956 0.070349686 2
-11.193862 3.6695328 -0.019531971 34
-18.408514 7.5573874 -0.15004106 33
-18.37266 4.577414 -0.25447392 52
-11.149981 3.655148 -0.22693954 59
-18.414272 7.5597506 -0.50247502 38
-18.380939 4.5794768 -0.58967626 36
-11.167202 3.6607933 -0.43564755 58
-18.366194 7.5400133 -0.85294414 45
-8.924243 2.2234099 -0.44900611 1
-8.3648167 2.742125 -0.48213622 1
-18.367899 7.5407128 -1.2039814 49
-7.8617578 1.9586996 -0.53913385 0
-7.9422183 2.6035905 -0.60571325 0
-10.524727 4.3207955 -0.89140391 9
-7.777853 1.9377953 -0.67520303 0
-7.6923814 2.5216897 -0.72988003 0
-18.365232 7.5396185 -1.9066969 35
-7.6300039 1.9009597 -0.80163109 0
-7.5618973 2.4789147 -0.85831589 3
-7.542707 2.4726241 -0.99684751 38
-7.5476766 2.4742532 -1.138078 35
-7.5088696 2.4615314 -1.2734832 38
-7.4794731 2.451895 -1.4077278 3
-7.4441328 2.4403098 -1.5407871 17
-8.971674 2.9410629 -2.0242417 2
-8.1751766 2.6799579 -1.9971298 9
-7.5302224 2.4685314 -1.9794759 6
-5.3518233 1.7544161 -1.9375112 5
-1.5089446 0.49465698 -0.74020553 13
-2.0239596 0.67917204 0.56353986 16
-3.7828786 1.2694055 0.77106082 7
-5.6033716 1.880301 0.82687163 19
-6.2638803 2.1019452 0.57363504 5
-11.12294 3.7324805 0.60358071 20
-11.188162 3.7543666 0.39829344 36
-10.577722 4.4290953 0.31891602 4
-13.971986 3.5847991 0.31625569 27
-11.204471 3.7598393 0.18937337 26
-15.24839 6.3847938 0.16734907 17
-16.23016 4.1641798 0.070772052 2
-11.198309 3.7577717 -0.019585028 34
-18.425406 7.7150707 -0.15061408 38
-18.386745 4.7174959 -0.25511897 39
-11.146941 3.7405343 -0.22740363 78
-18.416372 7.7112889 -0.5039891 35
-18.387249 4.7176247 -0.59092087 37
-11.171689 3.7488391 -0.43683299 57
-18.364714 7.6896586 -0.85534781 44
-8.8968925 2.28268 -0.44842094 1
-11.162633 3.7458 -0.64489001 47
-18.366367 7.690351 -1.2073709 49
-7.8478913 2.0135372 -0.53913385 0
-7.9578886 2.6703968 -0.60831535 0
-10.306709 4.3156171 -0.87546927 8
-7.7718563 1.9940288 -0.67587453 0
-7.7274666 2.593075 -0.73490876 0
-18.378258 7.6953297 -1.9135803 36
-7.6242552 1.9561588 -0.80244249 0
-7.5745692 2.5417681 -0.86174744 6
-7.5628872 2.5378478 -1.0018318 40
-7.5564961 2.5357032 -1.1420493 36
-7.5102215 2.520175 -1.2766652 35
-7.4733729 2.5078099 -1.4098405 2
-7.4380779 2.495966 -1.543103 3
-8.9472151 3.0023811 -2.0234032 2
-7.8127294 2.6216862 -1.9130116 4
-7.5091262 2.5198073 -1.9785064 6
-5.3322725 1.7893294 -1.9349087 6
-1.4985803 0.50287259 -0.73682559 14
-2.0447741 0.70207709 0.57068616 17
-3.7776387 1.2970594 0.77181971 7
-5.5826149 1.9168013 0.82576323 18
-6.249053 2.1456242 0.57363504 5
-11.14195 3.8256094 0.6060468 25
-11.20327 3.846664 0.39977759 37
-10.509769 4.4871335 0.31780404 3
-14.004617 3.6975672 0.31757087 32
-11.189297 3.841866 0.18956563 26
-15.262301 6.5162215 0.16799693 18
-16.227766 4.284534 0.070890315 1
-11.194501 3.843653 -0.019624822 33
-18.411558 7.8607931 -0.15094583 35
-18.380432 4.8528914 -0.25549525 36
-11.139468 3.8247573 -0.22779037 80
-18.413574 7.8616533 -0.50540221 36
-18.396387 4.8571038 -0.59228987 36
-11.164148 3.8332314 -0.43757388 55
-18.373064 7.8443575 -0.85826647 42
-8.9039173 2.3508558 -0.44959125 1
-11.16643 3.8340149 -0.64664006 53
-18.378326 7.8466043 -1.2117288 46
-7.8259258 2.0662391 -0.53860271 0
-7.9503717 2.7297752 -0.60918272 0
-10.059947 4.2950821 -0.85703504 8
-7.7615995 2.0492554 -0.67621028 0
-7.7430859 2.6586032 -0.73814148 0
-18.375351 7.8453341 -1.9189341 37
-7.5988708 2.0062909 -0.80122542 0
-7.5792084 2.6023355 -0.86432111 8
-7.5675077 2.5983181 -1.0048223 34
-7.5760584 2.601254 -1.1477227 35
-7.5223241 2.5828042 -1.2817566 43
-7.4891996 2.5714309 -1.4161783 2
-7.4427438 2.5554802 -1.5477345 1
-8.3600674 2.8704448 -1.8951061 2
-7.7979212 2.6774311 -1.9139161 4
-7.4876809 2.5709095 -1.977537 5
-5.3160734 1.8252839 -1.9336075 6
-1.501891 0.51567709 -0.74020553 15
-2.058068 0.72274238 0.5757907 18
-3.7684915 1.3234006 0.77181971 6
-5.602736 1.9675416 0.83075106 21
-6.2677608 2.2010818 0.57674885 5
-11.141355 3.9125669 0.60748535 24
-11.195002 3.9314065 0.4004522 37
-10.60284 4.6146483 0.32158476 25
-13.993899 3.7994392 0.31792158 29
-11.192391 3.9304898 0.19007832 26
-15.260447 6.6417675 0.16848283 17
-18.397781 4.9951234 0.080520317 42
-11.201361 3.9336395 -0.019684512 36
-18.418581 8.0162745 -0.15145853 36
-18.400145 4.9957647 -0.25624782 32
-11.157775 3.9183333 -0.22871855 51
-18.44257 8.0267153 -0.50772381 39
-18.38518 4.9917016 -0.59303659 38
-11.174829 3.9243226 -0.43905568 54
-18.380144 7.9995456 -0.86118519 38
-8.8564434 2.4045846 -0.44803086 1
-11.158234 3.9184945 -0.64773387 50
-18.374352 7.997025 -1.2151182 49
-7.8113098 2.1208239 -0.53860271 0
-7.9311209 2.7852125 -0.60918272 0
-9.8395796 4.2824569 -0.84078795 7
-7.7817245 2.1127913 -0.67923212 0
-7.7581663 2.7244751 -0.74137419 0
-18.367596 7.9940844 -1.9239054 39
-7.59236 2.0613775 -0.80203676 0
-7.5908747 2.6657267 -0.86775267 3
-7.5716524 2.6589761 -1.0078129 35
-7.5876012 2.664577 -1.1522614 35
-7.5264654 2.6431077 -1.2855752 37
-7.4896412 2.6301758 -1.4196994 5
-7.4654565 2.6216829 -1.5562259 1
-8.321373 2.9222593 -1.8909134 2
-7.8010974 2.7395515 -1.9193431 5
-7.465889 2.6218348 -1.9765677 5
-5.2996321 1.8610991 -1.9323063 6
-1.481151 0.52014345 -0.73175567 16
-2.0529721 0.73709279 0.5757907 18
-3.762857 1.3510046 0.77257866 6
-5.5888629 2.0066082 0.83075106 22
-6.2409897 2.2407458 0.57571089 6
-11.155125 4.0051017 0.60974598 22
-11.197383 4.0202742 0.40153158 36
-10.95049 4.8571644 0.33314937 23
-13.990146 3.9034841 0.31844765 27
-11.187263 4.0166407 0.19046283 26
-15.264895 6.7708483 0.1690497 17
-18.397137 5.1331081 0.080672368 45
-11.19245 4.0185027 -0.019717673 34
-18.42067 8.1706133 -0.15194108 40
-18.395641 5.1326909 -0.25667784 34
-11.152732 4.0042424 -0.22918263 52
-18.422638 8.1714869 -0.50873321 39
-18.372992 5.1263709 -0.59378338 35
-11.165971 4.0089955 -0.4397966 54
-18.367687 8.1471128 -0.86324543 44
-8.8355932 2.4652779 -0.4478358 0
-11.160678 4.0070953 -0.64948386 52
-18.365522 8.1461525 -1.2182655 52
-7.7963142 2.1753018 -0.53860271 0
-7.8814435 2.8297293 -0.60686976 0
-9.6125984 4.2637334 -0.82391596 4
-7.7821422 2.1713476 -0.68057513 0
-7.7839499 2.7947254 -0.74568456 0
-18.358656 8.1431065 -1.9288768 36
-7.608448 2.122884 -0.80528224 0
-7.6282234 2.7388139 -0.87418681 4
-7.5865221 2.7238414 -1.0122987 37
-7.5986276 2.7281878 -1.1568002 32
-7.5412798 2.707598 -1.2913029 37
-7.471096 2.6823993 -1.4196994 37
-7.4691348 2.6816952 -1.5608575 2
-8.2786827 2.9723527 -1.8858821 3
-7.785449 2.7952635 -1.9202476 4
-7.4327931 2.6686471 -1.9726901 6
-5.28651 1.8980522 -1.9323063 6
-1.4774836 0.53047115 -0.73175567 16
-2.0477767 0.75140631 0.5757907 18
-3.7570212 1.3785924 0.77333754 7
-5.5635624 2.0414803 0.82908845 19
-6.2513833 2.2938678 0.57813275 6
-11.156896 4.0938849 0.61139005 25
-11.184057 4.1038513 0.4020713 35
-10.960037 4.9532552 0.33448374 26
-13.997153 4.0109735 0.31923676 30
-11.192744 4.107039 0.19103961 25
-15.260992 6.8970189 0.16953558 15
-18.403152 5.27354 0.080858216 38
-11.190411 4.1061826 -0.019764099 34
-18.410564 8.3204298 -0.15233314 37
-12.003754 3.4397519 -0.16782162 6
-11.158298 4.0943995 -0.22987877 54
-18.416157 8.322957 -0.51014638 37
-11.983651 3.4339917 -0.38805628 13
-11.156476 4.0937309 -0.44053748 51
-18.361345 8.2981863 -0.86564904 43
-9.4249926 2.7007916 -0.47865376 1
-11.162429 4.0959153 -0.65123391 50
-18.366417 8.300478 -1.2221392 53
-7.7962847 2.2340751 -0.53966504 0
-11.161155 4.0954475 -0.86158735 44
-9.3936348 4.2453389 -0.80766881 1
-7.7706251 2.226722 -0.68091089 0
-7.8053908 2.8640916 -0.74963564 0
-18.363041 8.2989521 -1.9353777 39
-7.604919 2.1792378 -0.8064993 0
-7.6723881 2.8152881 -0.88147885 18
-7.6083078 2.7917745 -1.0177813 35
-7.6128526 2.793442 -1.1619061 31
-7.5555611 2.7724197 -1.2970308 30
-7.4595819 2.7372012 -1.4211079 34
-7.4723401 2.7418828 -1.5654891 3
-7.9419622 2.9142048 -1.8137674 2
-7.7876935 2.8575978 -1.9256746 4
-7.4139824 2.7204692 -1.9726901 5
-5.2695804 1.9336073 -1.9310051 6
-1.4805517 0.54327011 -0.73513561 16
-2.035238 0.76296902 0.57374889 16
-3.7473052 1.4047878 0.77333754 8
-5.5528841 2.0816624 0.82964265 26
-6.2352166 2.3374548 0.57813275 7
-11.154226 4.1814904 0.61282861 20
-11.185081 4.1930575 0.40315068 36
-13.493045 6.2118177 0.41310078 3
-11.862555 3.489089 0.27110136 18
-11.197504 4.1977143 0.19161637 25
-15.259702 7.0251374 0.17006196 13
-11.811575 3.4740946 0.052002002 20
-11.20267 4.1996512 -0.019837053 33
-18.417427 8.4788647 -0.152876 48
-11.726198 3.4489832 -0.16427383 13
-11.15191 4.1806221 -0.23034286 55
-18.426615 8.4830952 -0.51206422 40
-11.679387 3.4352148 -0.37897092 15
-11.16131 4.1841464 -0.44187111 54
-18.364677 8.4545803 -0.86856771 44
-9.2564249 2.722558 -0.47104681 1
-11.170961 4.1877642 -0.65342146 49
-18.366049 8.4552126 -1.2260129 51
-7.784327 2.2895753 -0.53993064 0
-11.158441 4.1830707 -0.86361122 46
-18.376167 8.4598703 -1.5850306 40
-7.7701859 2.2854159 -0.6822539 0
-7.8150482 2.9297013 -0.75250918 0
-18.384224 8.4635792 -1.9437908 38
-7.5704312 2.2266629 -0.8044709 1
-7.6972337 2.885535 -0.88662618 13
-7.6295114 2.8601472 -1.0232639 35
-7.6376562 2.8632007 -1.1687142 30
-7.5656037 2.8361895 -1.3021221 23
-7.47716 2.8030341 -1.4281501 33
-7.5007915 2.8118927 -1.5755243 3
-7.9177608 2.9682062 -1.8129289 2
-7.7930923 2.9214704 -1.932006 3
-7.3911753 2.7708001 -1.9717208 5
-5.2559528 1.970349 -1.9310051 5
-1.4563543 0.54595733 -0.72499579 16
-2.0443096 0.78269047 0.57783252 16
-3.7410741 1.4323188 0.77409649 10
-5.5308166 2.1175449 0.82853425 20
-6.2150245 2.3795028 0.5777868 8
-11.16953 4.2763996 0.61529475 22
-11.19287 4.2853355 0.40449989 34
-13.232136 6.2040148 0.40642887 3
-11.581392 3.4944232 0.26522693 18
-11.194071 4.2857952 0.19206497 27
-15.250125 7.1501689 0.17050737 17
-11.518972 3.475589 0.050819371 20
-11.199227 4.2877698 -0.01988348 35
-18.433842 8.6428862 -0.15350933 38
-11.460597 3.4579759 -0.16088729 13
-11.15233 4.2698145 -0.23096165 52
-18.410395 8.6318913 -0.5132755 32
-11.398669 3.4392903 -0.37063232 15
-11.176623 4.2791152 -0.44364926 52
-18.373959 8.614809 -0.87182981 41
-9.061245 2.7340257 -0.46207449 1
-11.160103 4.2727904 -0.65451527 49
-18.371651 8.6137257 -1.2303708 47
-7.7872577 2.3496287 -0.54125851 0
-11.166224 4.2751336 -0.8665024 53
-18.385265 8.6201096 -1.5909669 38
-7.7654896 2.3430607 -0.68326116 0
-11.135395 4.2633305 -1.0750644 31
-18.385981 8.6204453 -1.9502918 37
-7.5623207 2.281759 -0.80528224 0
-7.7586102 2.9704847 -0.89606291 59
-7.6538348 2.9303701 -1.029245 32
-7.6544595 2.9306092 -1.1743876 31
-7.5603714 2.8945863 -1.3046678 28
-7.4941816 2.8692448 -1.4351922 29
-7.4956393 2.869803 -1.5786121 1
-7.9333725 3.0373948 -1.8213143 2
-7.7979789 2.9855576 -1.9383376 4
-7.3680277 2.820945 -1.9707514 6
-5.2420692 2.0069942 -1.9310051 6
-1.4626646 0.56000018 -0.7300657 13
-2.0315912 0.79412729 0.5757907 16
-3.7382994 1.4612613 0.77561432 8
-5.526967 2.1604323 0.83019686 21
-6.1982613 2.4228339 0.5777868 8
-11.180329 4.3702712 0.61755532 22
-11.851505 4.6326265 0.4294607 1
-12.192597 5.8207941 0.37573823 5
-11.300748 3.4960051 0.25935248 18
-14.538744 5.6830392 0.25012666 2
-15.25398 7.2823095 0.17111473 14
-11.242223 3.4778996 0.049704317 18
-18.4151 7.1982656 -0.032783203 31
-18.4272 8.7972174 -0.15396172 39
-11.195457 3.4634318 -0.15750076 26
-11.159497 4.3621283 -0.23173513 44
-18.425463 8.7963886 -0.51539522 39
-11.183407 3.4597044 -0.36440948 42
-11.168815 4.3657703 -0.44453833 25
-18.371069 8.7704201 -0.87457681 44
-8.851099 2.7381802 -0.45232195 1
-11.193239 4.3753176 -0.65823406 4
-18.375921 8.7727365 -1.2347286 51
-7.8011684 2.4133732 -0.54338318 0
-11.1584 4.3616991 -0.8682372 10
-18.37142 8.7705879 -1.5950288 42
-7.764174 2.4019287 -0.68460417 0
-11.127624 4.349669 -1.0772196 55
-18.382841 8.7760401 -1.9564103 37
-7.5690165 2.3415546 -0.80771637 0
-7.722867 3.0187862 -0.89434719 2
-7.6960301 3.0082958 -1.0377183 25
-7.6854424 3.0041573 -1.1823303 25
-7.5804372 2.9631119 -1.3116685 25
-7.5546484 2.9530313 -1.450685 255
-7.4900436 2.927778 -1.5816998 1
-8.7133713 3.4059637 -2.0057938 3
-7.7660589 3.0356693 -1.935624 5
-7.3336964 2.8666635 -1.9668739 6
-5.2314525 2.044919 -1.9323063 6
-1.4553428 0.56887794 -0.72837573 6
-2.0403664 0.81402373 0.57987434 14
-3.7316544 1.4887792 0.77637321 8
-5.5191088 2.2019014 0.83130527 22
-6.2108054 2.4778605 0.5805546 8
-11.824826 4.7176275 0.65495801 26
-11.061396 4.4130497 0.40193635 18
-12.061758 5.8620777 0.37295827 3
-11.17314 3.5421839 0.25698516 41
-12.667336 5.0537548 0.21853238 3
-15.263925 7.4183474 0.17180307 14
-11.171912 3.5417948 0.049501579 48
-18.423841 7.350368 -0.032889318 42
-18.426491 8.9553719 -0.15447442 33
-11.174816 3.5427153 -0.15755451 37
-18.349844 7.3208466 -0.38209999 45
-18.435534 8.9597664 -0.51741397 37
-11.174225 3.5425282 -0.36490732 46
-18.370378 7.3290386 -0.73319185 50
-18.37409 8.9299049 -0.87766719 43
-8.652771 2.7431595 -0.44315457 0
-18.370325 7.3290176 -1.0832752 42
-18.378868 8.9322262 -1.2390865 46
-7.7993474 2.4726017 -0.54444551 0
-10.853468 4.3300953 -0.84684205 7
-18.37789 8.9317503 -1.6009651 39
-7.7662129 2.4620972 -0.68628293 0
-18.349434 7.3206825 -1.7812377 44
-18.378424 8.9320107 -1.9625288 41
-7.5866246 2.4051628 -0.81136751 0
-18.332401 7.3138876 -2.1288464 42
-18.320826 7.3092685 -2.4771662 4
-7.603581 3.0335214 -1.3193057 20
-7.6033349 3.0334232 -1.4640651 1
-7.5496202 3.0119932 -1.5986824 0
-8.718441 3.4783056 -2.012502 5
-7.7736282 3.1013634 -1.94286 4
-7.320713 2.9206686 -1.9688126 5
-5.2065091 2.0771868 -1.9284027 6
-1.4243968 0.56827676 -0.71485603 6
-2.0346339 0.82824832 0.57987434 15
-3.7175324 1.513314 0.77561432 5
-5.5146093 2.244859 0.83296788 23
-6.2007375 2.5241647 0.58124655 8
-11.817503 4.8106089 0.65639657 26
-11.407992 4.6439071 0.41569853 13
-12.246327 6.0578313 0.37996376 3
-11.178567 3.6299818 0.25768659 38
-14.150518 5.7603207 0.24480754 9
-15.276296 7.5566506 0.17253192 13
-11.181153 3.6308217 0.049653634 46
-18.449877 7.5104818 -0.033028595 30
-18.435226 9.1192636 -0.15507761 36
-11.172635 3.6280556 -0.15787703 36
-18.364962 7.4759145 -0.38349223 44
-18.426296 9.1148462 -0.51892805 38
-11.168235 3.6266267 -0.3655296 43
-18.3743 7.4797158 -0.73541456 46
-18.36145 9.0827694 -0.88007081 41
-11.133753 3.6154294 -0.5714978 59
-18.385298 7.4841933 -1.0872128 35
-18.369741 9.0868702 -1.2427181 45
-7.8046713 2.5343871 -0.54603904 0
-10.586488 4.3094931 -0.82833815 5
-18.393721 9.098732 -1.607839 41
-7.7791634 2.526104 -0.68896902 0
-18.342157 7.4666314 -1.7855481 46
-18.386997 9.0954065 -1.9701771 32
-7.5885725 2.4642138 -0.81339592 0
-18.33983 7.4656844 -2.1357095 51
-16.622538 6.7666173 -2.2538722 2
-13.939581 5.6744533 -2.1564479 1
-12.154225 4.94768 -2.1148348 2
-10.674571 4.3453498 -2.0612402 4
-9.5713663 3.8962629 -2.0325112 4
-8.6867008 3.5361378 -2.0108249 5
-7.7914848 3.1717179 -1.9528095 3
-7.3037391 2.9731686 -1.969782 5
-5.1918812 2.1134844 -1.9284027 6
-1.339805 0.54540098 -0.6742968 2
-2.0466611 0.84984839 0.58497882 13
-3.7250123 1.5467609 0.77940887 5
-5.5134373 2.2893803 0.83518469 19
-6.1940055 2.5719769 0.58228451 9
-11.816833 4.9067802 0.65824616 16
-11.175922 4.6406503 0.40841267 11
-12.093021 6.0874467 0.37651661 17
-11.171926 3.7142425 0.25812498 38
-13.906806 5.7746129 0.24128282 4
-15.266039 7.6846962 0.1730178 14
-11.182103 3.7176259 0.049771897 45
-18.43763 7.6559763 -0.033101551 29
-18.421131 9.2729225 -0.15549983 35
-11.177399 3.7160616 -0.15830708 35
-18.349258 7.6192813 -0.38426572 44
-18.422932 9.2738285 -0.52064407 31
-11.169201 3.7133362 -0.36640081 42
-18.377008 7.6308045 -0.73763728 45
-18.365414 9.244875 -0.88333285 42
-11.130989 3.7006321 -0.57266808 59
-18.38793 7.6353393 -1.0904942 43
-18.377184 9.2507992 -1.2475601 45
-7.8246622 2.6014037 -0.54869485 0
-10.327703 4.2884393 -0.81041253 1
-18.383181 9.2538185 -1.6125257 39
-7.7878151 2.5891535 -0.69131929 0
