# .PCD v0.7 - Point Cloud Data file format
VERSION 0.7
FIELDS x y z intensity
SIZE 4 4 4 4
TYPE F F F F
COUNT 1 1 1 1
WIDTH 1360
HEIGHT 1
VIEWPOINT 0 0 0 1 0 0 0
POINTS 1360
DATA ascii
-5.5616398 10.697483 -1.7275411 33
-5.2626953 10.122481 -1.8386271 4
-4.731504 9.1007662 -1.8344827 4
-4.305253 8.2808981 -1.8356673 5
-3.9528637 7.6030979 -1.8372467 5
-3.6593933 7.0386252 -1.8415563 5
-3.3940921 6.5283341 -1.8379462 7
-2.4426899 4.6983685 -1.821703 7
-1.7961258 3.454741 -1.8150245 10
-1.5277046 2.9892557 0.88614595 3
-3.5119488 6.8718209 1.4912741 22
-2.0839887 4.0777349 0.64065927 8
-4.8855495 9.5595417 0.93207043 10
-5.4719114 10.706874 0.61858284 33
-5.4723911 10.707812 0.40584913 31
-4.5292082 10.722136 0.32369754 39
-5.6541634 9.3251133 0.23909879 18
-5.4638839 10.691167 0.19238541 27
-4.5229454 10.707311 0.11766668 43
-5.6533976 9.3238506 0.046055052 18
-5.4645772 10.692524 -0.019910008 34
-4.5230484 10.707555 -0.087642074 42
-5.6695275 9.3504534 -0.14696486 14
-5.4781227 10.719028 -0.23281799 50
-4.5170689 10.693398 -0.2930263 41
-5.6693668 9.3501883 -0.34038934 18
-5.4753866 10.713674 -0.44602013 52
-4.5267839 10.716397 -0.49978271 48
-5.6156516 9.2615986 -0.52878171 19
-5.4654946 10.694319 -0.65779656 46
-4.5257597 10.713973 -0.70524794 44
-5.6285572 9.2828827 -0.72238624 19
-5.4666314 10.696543 -0.87055016 44
-4.5217714 10.704531 -0.91046304 45
-5.6396966 9.3012543 -0.91627502 16
-5.4733286 10.709647 -1.0844035 50
-4.5195022 10.699159 -1.1154903 40
-5.6552448 9.3268967 -1.1119791 19
-5.4692707 10.701707 -1.2962673 52
-5.468955 10.70109 -1.5092272 48
-5.465199 10.693741 -1.720733 32
-5.1829138 10.141394 -1.8354449 4
-4.6678538 9.1335764 -1.8344827 4
-4.2419786 8.3002682 -1.8333514 5
-3.8907883 7.6130953 -1.8330539 5
-3.6030729 7.0501232 -1.8379383 6
-3.3431351 6.5415034 -1.8350381 7
-2.4063869 4.708571 -1.8191005 7
-1.7752632 3.4736526 -1.8184044 6
-1.5050625 2.996392 0.88512504 0
-3.4533119 6.875114 1.4867206 28
-2.0803633 4.1417441 0.64841813 8
-4.80796 9.5720501 0.92999452 11
-5.3773065 10.705547 0.61632228 32
-5.379559 10.710032 0.40449989 33
-4.4374123 10.712861 0.32247436 39
-5.6545067 9.4742451 0.24190448 18
-5.3711605 10.693312 0.19174455 23
-4.4358387 10.709063 0.11734276 42
-5.6558151 9.4764376 0.046612579 17
-5.3718424 10.694669 -0.019843686 31
-4.4359398 10.709307 -0.087400801 43
-5.6635537 9.4894037 -0.14852375 13
-5.3852057 10.721274 -0.23204452 53
-4.4315929 10.698812 -0.29231972 40
-5.6715679 9.5028315 -0.3444964 18
-5.3789272 10.708775 -0.44424197 52
-4.4396248 10.718204 -0.49840921 49
-5.6143293 9.4069271 -0.53482831 16
-5.3727741 10.696524 -0.65560901 49
-4.4371009 10.71211 -0.70306903 43
-5.6311126 9.4350481 -0.73115051 18
-5.3703337 10.691666 -0.86708069 48
-4.4316688 10.698996 -0.90733862 46
-5.6399913 9.4499245 -0.92701918 16
-5.3823342 10.715557 -1.0811708 50
-4.432508 10.701021 -1.112431 44
-5.6552534 9.4754963 -1.124961 20
-5.3819299 10.714752 -1.2932646 54
-5.3780813 10.70709 -1.5047413 46
-5.3744144 10.69979 -1.7156271 34
-5.104897 10.163214 -1.8328992 4
-4.6022081 9.1624231 -1.8337785 4
-4.1821666 8.3261728 -1.8325795 5
-3.8410552 7.6470623 -1.834731 5
-3.552017 7.0716233 -1.8370339 5
-3.2939017 6.5577478 -1.8330994 7
-2.3717587 4.7218761 -1.8177992 7
-1.4789718 2.9964221 0.88206238 0
-3.3791568 6.8462296 1.4753368 37
-2.0882177 4.2307649 0.66005635 9
-4.719852 9.562501 0.92584276 13
-5.28122 10.699841 0.61385614 30
-5.2834253 10.704309 0.40288082 32
-4.3519835 10.717646 0.32169595 43
-5.6489949 9.6169329 0.24453484 18
-5.2839851 10.705443 0.19129595 24
-4.3504333 10.713828 0.11705932 44
-5.6685352 9.6501989 0.047271475 25
-5.2846556 10.706802 -0.01979726 30
-4.350533 10.714072 -0.087189689 42
-5.6822543 9.6735544 -0.15078144 17
-5.2836747 10.704815 -0.2308843 47
-4.346262 10.703555 -0.29161316 41
-5.6901412 9.6869802 -0.34972358 23
-5.2898817 10.71739 -0.44305652 53
-4.3526611 10.719314 -0.49703568 50
-5.6193485 9.5664625 -0.54165506 21
-5.2820578 10.701539 -0.65364021 48
-4.3516927 10.716929 -0.70137429 43
-5.6318197 9.5876942 -0.73991477 21
-5.2743716 10.685967 -0.86361122 46
-4.3463659 10.70381 -0.90515149 42
-5.6586752 9.6334124 -0.94112092 21
-5.2862353 10.710003 -1.0768604 52
-4.3472066 10.705881 -1.1097542 42
-5.669589 9.6519928 -1.1411884 28
-5.2858729 10.709269 -1.2881173 51
-5.285635 10.708787 -1.4997571 44
-5.2803073 10.697992 -1.7093863 35
-5.030324 10.191523 -1.8316264 4
-4.524188 9.1660814 -1.8281448 4
-4.1187258 8.3446083 -1.8302636 4
-3.7858438 7.6701841 -1.8338925 5
-3.492214 7.075285 -1.8316069 5
-3.2377336 6.5597038 -1.827283 6
-2.34041 4.7417107 -1.8191005 2
-0.92266655 1.8693383 -0.97173101 7
-1.4546417 2.9997141 0.88002056 0
-3.3244243 6.8555183 1.4723011 34
-2.0897431 4.3093996 0.67003202 11
-4.633852 9.5557766 0.92203701 15
-5.1924481 10.707696 0.61221206 29
-5.191123 10.704964 0.40153158 37
-4.2667055 10.721762 0.32091758 41
-5.6617713 9.7946253 0.24804197 22
-5.1899219 10.702486 0.19059101 26
-4.2666574 10.721642 0.11681637 44
-5.6670847 9.8038168 0.047829002 25
-5.1888356 10.700246 -0.019717673 34
-4.2667546 10.721886 -0.08700873 43
-5.6826372 9.8307219 -0.15260909 18
-5.1931076 10.709056 -0.23018816 49
-4.2551675 10.692769 -0.29050282 41
-5.6924038 9.8476171 -0.35407957 22
-5.1957455 10.714496 -0.44142655 52
-4.2629442 10.71231 -0.49531883 49
-5.6384006 9.7541943 -0.55004221 24
-5.1915336 10.70581 -0.65167141 50
-4.2634821 10.713662 -0.69919533 42
-5.6506357 9.7753611 -0.75133485 27
-5.1874552 10.6974 -0.86158735 46
-4.2612114 10.707956 -0.90296435 45
-5.6670833 9.8038149 -0.95387959 23
-5.1922154 10.707216 -1.0729094 46
-4.2576375 10.698975 -1.1059301 39
-5.6677861 9.8050299 -1.1545759 28
-5.1884212 10.699391 -1.282541 49
-5.1882324 10.699002 -1.4932775 44
-5.1864882 10.695406 -1.7031456 39
-4.9538822 10.215733 -1.8297172 4
-4.466959 9.2116156 -1.8309616 4
-4.0586562 8.369628 -1.8294917 4
-3.7168448 7.6647549 -1.8263456 6
-3.4376335 7.088975 -1.8288933 7
-3.1969392 6.5926232 -1.8301911 7
-0.95392716 1.9671572 -0.75210303 6
-0.90326607 1.8626856 -0.96497113 8
-1.435329 3.0132875 0.88104147 0
-3.274797 6.8750129 1.4715422 23
-2.1056054 4.4204459 0.68499553 9
-4.5516081 9.5555134 0.91892314 17
-5.0952401 10.696798 0.60954046 31
-5.1025133 10.712067 0.4004522 33
-4.1815825 10.72521 0.3201392 42
-5.6624527 9.9555759 0.2511107 22
-5.0996037 10.705958 0.19001423 28
-4.1786261 10.717628 0.11645196 42
-5.6756287 9.9787416 0.048487894 26
-5.0950904 10.696484 -0.019644719 32
-4.1743627 10.706692 -0.086646825 46
-5.6810989 9.9883595 -0.15443675 17
-5.1027441 10.712552 -0.22949202 51
-4.171699 10.699861 -0.28989717 43
-5.6907215 10.005277 -0.35831112 22
-5.1019139 10.710809 -0.4397966 50
-4.1749892 10.7083 -0.49377364 50
-5.6313982 9.9009771 -0.55608881 25
-5.0960603 10.69852 -0.64904636 49
-4.1755295 10.709685 -0.69701642 45
-5.6513162 9.9359961 -0.76063025 27
-5.09378 10.693733 -0.85840696 47
-4.1704183 10.696575 -0.89952749 44
-5.6674733 9.9644032 -0.96563101 22
-5.1019249 10.710832 -1.0696765 47
-4.1756091 10.709889 -1.1040181 39
-5.670022 9.9688845 -1.1691806 26
-5.0982118 10.703037 -1.2786806 50
-5.0980568 10.702711 -1.4887917 48
-5.0980768 10.702753 -1.6986068 37
-4.8739557 10.23224 -1.826535 4
-4.378839 9.1928072 -1.8211026 4
-3.9883158 8.3729534 -1.8240881 5
-3.6615658 7.6869841 -1.825507 5
-3.3796849 7.0952115 -1.8243709 7
-3.1441638 6.6007657 -1.8263136 6
-0.91902584 1.9293759 -0.73518723 3
-0.88088638 1.8493071 -0.9548313 10
-1.422451 3.0407505 0.88614595 1
-3.2150719 6.8728065 1.4662298 34
-2.106586 4.5032148 0.69552541 2
-4.4645247 9.5437412 0.91477138 16
-5.006897 10.703162 0.60789639 31
-5.0157471 10.722081 0.39950773 34
-4.0937667 10.720524 0.31913841 39
-5.6670184 10.127479 0.25444248 22
-5.0060959 10.70145 0.18930928 25
-4.0908589 10.712909 0.11608753 46
-5.6741891 10.140294 0.049079213 25
-5.0067315 10.702808 -0.019591661 33
-4.0895252 10.709416 -0.086435713 46
-5.6913052 10.170882 -0.15664068 18
-5.0159698 10.722557 -0.22895059 48
-4.0869126 10.702575 -0.28919062 43
-5.6949205 10.177342 -0.36304048 22
-5.0151577 10.720821 -0.43875933 53
-4.0944266 10.722252 -0.49308687 50
-5.6284709 10.058591 -0.56272048 22
-5.0110922 10.712131 -0.64773387 49
-4.0921144 10.716196 -0.69556379 44
-5.6441784 10.086661 -0.76912892 25
-5.0020947 10.692896 -0.85551572 47
-4.0885272 10.706802 -0.89796525 47
-5.6658931 10.125468 -0.97738242 21
-5.0135202 10.71732 -1.066803 47
-4.0851135 10.697863 -1.0998116 45
-5.6663566 10.126296 -1.1829739 25
-5.0115705 10.713152 -1.2756779 52
-5.0063968 10.702092 -1.4838076 46
-5.0081329 10.705805 -1.6935009 39
-4.802402 10.266017 -1.826535 4
-4.3178911 9.2302856 -1.822511 4
-3.9297643 8.4005928 -1.8240881 5
-3.6078112 7.7123594 -1.825507 5
-3.3300686 7.1186333 -1.8243709 6
-3.0996494 6.62607 -1.827283 7
-0.90072566 1.9254667 -0.73128361 7
-0.86334568 1.84556 -0.94976139 11
-1.407645 3.0646648 0.89022958 0
-3.1637335 6.8879466 1.4647119 41
-1.7758193 3.8662384 0.59521455 5
-4.3878078 9.552949 0.91269553 21
-4.915379 10.701554 0.60584128 29
-4.915741 10.702343 0.39748389 36
-4.0062265 10.715134 0.31813762 41
-5.6598134 10.282406 0.25733587 20
-4.9229169 10.717966 0.18898886 25
-4.0075703 10.718727 0.11584459 45
-5.6746249 10.309315 0.049704317 24
-4.9218726 10.715692 -0.019551868 31
-4.0076618 10.718971 -0.086284913 46
-5.6895924 10.336507 -0.15857585 18
-4.920959 10.713703 -0.22802241 51
-4.0036983 10.708371 -0.28858498 42
-5.6912074 10.339441 -0.36739644 23
-4.9218378 10.715616 -0.43712935 55
-4.0054817 10.713141 -0.49136999 47
-5.6313205 10.230641 -0.57013243 22
-4.9195147 10.710559 -0.64554632 52
-4.0046225 10.710843 -0.69338489 46
-5.6486816 10.262182 -0.77948666 27
-4.9123354 10.694928 -0.85291362 45
-4.0039096 10.708937 -0.89577812 44
-5.6661816 10.293976 -0.98980534 22
-4.9236116 10.719478 -1.0635703 52
-4.0019679 10.703743 -1.0975171 40
-5.6761174 10.312026 -1.2000126 26
-4.9183969 10.708125 -1.2709595 52
-4.9133377 10.69711 -1.4783249 48
-4.918396 10.708123 -1.6883948 43
-4.7223735 10.281351 -1.8233529 5
-4.2500596 9.2530489 -1.8211026 4
-3.8579156 8.3992901 -1.8179127 5
-3.5473511 7.7231421 -1.8221529 5
-3.2786634 7.1381669 -1.8234664 6
-3.0468359 6.6334419 -1.8234055 6
-0.88726139 1.9317079 -0.73128361 9
-0.84438723 1.8383641 -0.94300157 11
-1.3766772 3.0532632 0.88410413 1
-3.1058841 6.8883843 1.4601585 40
-1.761811 3.9074323 0.59964818 5
-4.3029909 9.5433884 0.90888977 20
-4.8306966 10.713759 0.60460824 31
-4.8294029 10.71089 0.39653942 37
-3.9230783 10.720311 0.31747043 40
-5.6602387 10.455305 0.26066765 20
-4.8249564 10.701029 0.18809167 26
-3.9257684 10.727662 0.11564214 46
-5.6748786 10.482347 0.050346319 23
-4.8272133 10.706035 -0.019472281 36
-3.9244833 10.724151 -0.086103961 45
-5.687746 10.506116 -0.16056477 17
-4.8312492 10.714985 -0.22732627 51
-3.9137261 10.694755 -0.28747466 46
-5.6893125 10.509009 -0.37200135 21
-4.8321214 10.71692 -0.43579572 55
-3.9223518 10.718326 -0.49033988 48
-5.6320391 10.403216 -0.57754433 23
-4.8265624 10.70459 -0.64313996 52
-3.9228883 10.719791 -0.69217432 44
-5.649106 10.434741 -0.7895788 24
-4.8277121 10.70714 -0.85117888 48
-3.9221973 10.717903 -0.89421594 45
-5.6719804 10.476995 -1.0035713 24
-4.8273678 10.706377 -1.0589008 47
-3.9148288 10.697768 -1.0940754 46
-5.6740851 10.480882 -1.2150228 25
-4.8271732 10.705946 -1.2666701 54
-4.8254876 10.702207 -1.4743375 48
-4.8223615 10.695274 -1.6810194 39
-4.6618433 10.339269 -1.8278079 4
-4.1675544 9.2430096 -1.8133562 5
-3.80725 8.4439087 -1.8217723 6
-3.4965622 7.7548499 -1.82383 5
-3.2223437 7.1466742 -1.8198484 6
-2.9940712 6.6403999 -1.819528 6
-0.86908978 1.9275106 -0.72737992 10
-0.83004224 1.840909 -0.9413116 14
-1.3678482 3.0910935 0.8922714 0
-3.0497723 6.8919425 1.4563638 38
-1.7489164 3.95224 0.60463601 5
-4.2217479 9.5403986 0.9057759 23
-4.7380013 10.70704 0.60234761 31
-4.7383318 10.707787 0.39519021 33
-3.8387058 10.721087 0.31669205 44
-5.6641598 10.639295 0.26426247 22
-4.737184 10.705194 0.18757898 26
-3.8386445 10.720916 0.11527772 44
-5.6786284 10.666471 0.051039003 29
-4.7377858 10.706553 -0.01941259 34
-3.8400807 10.724927 -0.085892849 44
-5.6875644 10.683257 -0.16266119 32
-4.744998 10.722852 -0.22678484 50
-3.8281834 10.691699 -0.28666714 40
-5.6909604 10.689636 -0.37697962 46
-4.7426281 10.717495 -0.43446213 52
-3.8366511 10.715348 -0.48896638 52
-5.6381288 10.590399 -0.58573645 21
-4.7355504 10.701502 -0.64095241 52
-3.8291118 10.694292 -0.6887849 42
-5.6548948 10.621892 -0.80073333 24
-4.7383151 10.707748 -0.84857678 47
-3.8365226 10.71499 -0.89171636 46
-5.6736236 10.657071 -1.0170015 25
-4.7428331 10.717959 -1.0567456 52
-3.8333375 10.706095 -1.0921633 44
-5.6793184 10.667768 -1.2320616 36
-4.7394404 10.710292 -1.2632385 55
-4.7410183 10.713858 -1.471347 51
-4.7395658 10.710576 -1.6781827 42
-4.5879502 10.367951 -1.8271714 4
-4.1045179 9.2754803 -1.8140604 5
-3.7418549 8.4559259 -1.8186846 5
-3.436007 7.7647648 -1.8204758 5
-3.1692185 7.16187 -1.8180394 7
-2.9444988 6.6540432 -1.8175892 6
-0.85255086 1.9266133 -0.72477752 14
-0.80836755 1.8267668 -0.93117177 17
-1.3385333 3.0828297 0.88716686 0
-2.9968903 6.9022584 1.4540871 33
-1.7433698 4.0152249 0.61239487 6
-4.142343 9.5403967 0.9030081 24
-4.6472268 10.703215 0.60029256 29
-4.6539087 10.718603 0.39438066 34
-3.7558355 10.724982 0.31602487 42
-5.6045818 10.706923 0.2649639 37
-4.6495891 10.708655 0.18706629 26
-3.7544513 10.721029 0.11499428 45
-5.602169 10.702312 0.051022105 45
-4.6485863 10.706346 -0.0193529 31
-3.7532151 10.717499 -0.085621417 43
-5.5980029 10.694354 -0.16223115 35
-4.6572804 10.72637 -0.22616605 50
-3.7468398 10.699294 -0.28616244 45
-5.5920897 10.683058 -0.37536168 41
-4.6581383 10.728345 -0.43357304 53
-3.755146 10.723013 -0.48810795 52
-5.6085243 10.714454 -0.59041768 38
-4.6495895 10.708656 -0.63942116 48
-3.7503994 10.709458 -0.68805856 46
-5.6009626 10.700008 -0.80365473 45
-4.6443782 10.696653 -0.84510732 46
-3.7484441 10.703876 -0.88859195 45
-5.5972362 10.692889 -1.0166657 42
-4.6536121 10.717921 -1.0535129 52
-3.7519217 10.713806 -1.0902513 43
-5.5991683 10.696581 -1.2308445 47
-4.6518812 10.713935 -1.259807 52
-4.6518798 10.713931 -1.4668611 46
-4.6489067 10.707084 -1.6725094 42
-4.5138836 10.396106 -1.826535 4
-4.042799 9.3111324 -1.8154689 4
-3.6780403 8.4710426 -1.8163688 6
-3.3723691 7.7670383 -1.8154446 5
-3.1175902 7.1802468 -1.8171349 5
-2.8948817 6.6673183 -1.8156505 6
-0.83004111 1.9117011 -0.71697021 14
-0.79559457 1.8323658 -0.93117177 18
-1.3169785 3.0920992 0.88716686 0
-2.9347801 6.8904934 1.4472568 37
-1.7354758 4.0746779 0.61959952 6
-4.0662684 9.5470848 0.90093219 23
-4.5614333 10.70967 0.59885401 30
-4.5617337 10.710375 0.3928965 37
-3.6743941 10.732028 0.31546888 42
-5.5132289 10.713787 0.26417479 39
-4.563745 10.715097 0.18661769 25
-3.6730349 10.728058 0.11479183 45
-5.5053535 10.698483 0.050819371 43
-4.5596223 10.705418 -0.01929321 31
-3.67571 10.735871 -0.085561097 40
-5.5030751 10.694056 -0.16163985 35
-4.5666118 10.721828 -0.22539258 49
-3.674644 10.732758 -0.28636432 30
-5.5009079 10.689843 -0.37424159 42
-4.565897 10.72015 -0.43194306 48
-3.6737216 10.730063 -0.48724949 52
-5.5098219 10.707166 -0.58788198 41
-4.5621953 10.711459 -0.63767111 47
-3.6690755 10.716494 -0.68684804 48
-5.5060377 10.699812 -0.80073333 48
-4.5570822 10.699453 -0.8427943 46
-3.6632919 10.699602 -0.88609236 43
-5.502388 10.692719 -1.0129725 42
-4.5630627 10.713495 -1.0499209 50
-3.6705854 10.720904 -1.0883392 43
-5.509789 10.707103 -1.227599 46
-4.5629454 10.71322 -1.2559465 55
-4.5629725 10.713283 -1.4623753 46
-4.5616317 10.710135 -1.6679707 42
-4.4319105 10.405566 -1.8227165 5
-3.9622672 9.3029032 -1.8084267 5
-3.6141982 8.4856806 -1.8140529 6
-3.3165305 7.7867947 -1.8146061 4
-3.064333 7.1946669 -1.8153259 5
-2.8452232 6.6802249 -1.8137116 7
-0.81519264 1.9139694 -0.71566898 17
-0.77283823 1.8145267 -0.91934198 17
-1.3162283 3.1511803 0.90145957 0
-2.876008 6.8854465 1.4419444 37
-1.7329428 4.1488361 0.62902099 6
-3.9887667 9.5495005 0.89851034 25
-4.4757771 10.715451 0.59741545 30
-4.4714417 10.705072 0.39154726 32
-3.638711 10.874965 0.31891602 17
-5.4184484 10.712758 0.26321033 41
-4.4672475 10.69503 0.18572049 26
-3.6450078 10.893785 0.11628999 18
-5.4142861 10.704529 0.050667316 44
-4.475523 10.714844 -0.019253416 33
-3.6565137 10.928171 -0.086888097 17
-5.4066248 10.689382 -0.1609948 33
-4.4746923 10.712854 -0.22454174 49
-3.6732166 10.97809 -0.29221877 15
-5.4081039 10.692307 -0.37299702 41
-4.4801602 10.725945 -0.43090582 53
-3.6164744 10.808506 -0.48965314 23
-5.4133034 10.702586 -0.58554143 42
-4.4765282 10.71725 -0.63613981 45
-3.6258428 10.836506 -0.69290066 19
-5.4095926 10.69525 -0.79754633 45
-4.4715109 10.705237 -0.84077048 46
-3.6353228 10.864839 -0.8976528 17
-5.4078202 10.691746 -1.0092791 39
-4.4774089 10.719358 -1.0474066 52
-3.6423955 10.885977 -1.1024884 10
-5.407969 10.692039 -1.2215137 46
-4.4727135 10.708117 -1.2516571 50
-4.471242 10.704595 -1.4568926 48
-4.4714885 10.705184 -1.6622974 40
-4.3485036 10.410746 -1.8182615 4
-3.8972239 9.3303385 -1.8084267 5
-3.5473053 8.4925985 -1.8101933 6
-3.2605801 7.80615 -1.8137674 5
-3.0050194 7.1943126 -1.8098989 5
-2.8045001 6.7142496 -1.8175892 4
-0.79597938 1.9056531 -0.71046412 19
-0.76574099 1.8332593 -0.92610186 18
-1.3205807 3.2247148 0.91983587 3
-2.8234065 6.8944521 1.4396677 35
-1.7294598 4.2231531 0.63844246 7
-3.387393 8.2716455 0.7760334 4
-4.385726 10.709467 0.59536034 30
-4.3890271 10.717527 0.39087266 35
-3.6186011 11.07113 0.32391992 3
-5.3239474 10.710934 0.26224586 38
-4.3818684 10.700047 0.18527189 26
-4.325635 13.234303 0.14094898 46
-5.321619 10.706249 0.05049837 42
-4.3839407 10.705108 -0.019180462 34
-4.3257337 13.234606 -0.1049835 43
-5.314065 10.691051 -0.16045725 33
-4.3907051 10.721625 -0.22407766 50
-4.3157825 13.204162 -0.35066256 44
-5.3101916 10.683259 -0.37137908 41
-4.3915415 10.723667 -0.42957219 52
-3.6129394 11.053808 -0.49961102 15
-5.3206706 10.704341 -0.58359092 42
-4.3864675 10.711277 -0.63395226 48
-3.6431334 11.146187 -0.71105844 8
-5.3223586 10.707738 -0.79568726 46
-4.3845749 10.706656 -0.83845747 46
-3.8195541 11.685947 -0.96326613 2
-5.3241754 10.711392 -1.0076004 41
-4.3903918 10.72086 -1.044533 49
-5.3172517 10.697463 -1.2178626 48
-4.3857956 10.709637 -1.2482256 52
-4.3843732 10.706164 -1.4529053 44
-4.3891454 10.717816 -1.6594607 39
-4.2757215 10.440848 -1.8182615 5
-3.8185656 9.324523 -1.8020887 6
-3.4790089 8.4953623 -1.8055617 5
-3.200078 7.8142433 -1.8104134 5
-2.947341 7.1970863 -1.8053764 5
-0.7840904 1.9146636 -0.71176535 20
-0.74880278 1.8284951 -0.92103195 17
-1.2721039 3.1692502 0.90145957 6
-2.7722797 6.9067063 1.4381498 24
-1.723545 4.2939458 0.64730972 7
-3.3726118 8.4023409 0.78606683 4
-4.2959733 10.702753 0.59330523 30
-4.3006954 10.714518 0.38965833 33
-4.2207766 13.225451 0.38607964 39
-5.2332468 10.7155 0.26145676 38
-4.2966323 10.704396 0.18482329 25
-4.2234082 13.233696 0.14062504 47
-5.2327023 10.714385 0.050363213 43
-4.2986679 10.709467 -0.019134035 31
-4.2210722 13.226377 -0.10468191 43
-5.2252555 10.699138 -0.16002722 33
-4.3038292 10.722326 -0.22345887 49
-4.2162008 13.211113 -0.35005692 44
-5.2161794 10.680553 -0.37001005 40
-4.3046575 10.724389 -0.42838678 50
-4.2221622 13.229793 -0.59661454 50
-5.230031 10.708915 -0.58183545 40
-4.2996798 10.711987 -0.63220221 52
-4.0665712 12.742261 -0.81104726 36
-5.219451 10.687252 -0.79143792 45
-4.2948604 10.699982 -0.83556622 46
-4.0506811 12.692471 -1.0438768 23
-5.2317739 10.712484 -1.0042428 41
-4.3065352 10.729067 -1.0423779 48
-1.626994 5.0980501 -0.51395923 0
-5.2249765 10.698565 -1.2138058 42
-4.304996 10.725232 -1.2465098 51
-4.2962179 10.703363 -1.4484195 43
-4.3038893 10.722475 -1.6554893 38
-4.2012558 10.46678 -1.817625 5
-3.7563088 9.358263 -1.8034972 6
-3.4166915 8.5121584 -1.8040178 5
-3.1323342 7.8037267 -1.8028665 4
-2.9028296 7.2319512 -1.8089944 4
-0.76225054 1.8990295 -0.70395803 22
-0.73601925 1.8336782 -0.92103195 18
-1.2372072 3.1456614 0.8922714 7
-2.7139318 6.9003081 1.4328374 26
-1.7210742 4.3759174 0.6578396 6
-3.3692958 8.5666037 0.79921407 5
-4.2138386 10.713896 0.59227771 31
-4.2155466 10.718239 0.3887139 35
-4.1200256 13.22787 0.38530126 42
-5.1410127 10.715718 0.26057997 38
-4.2130141 10.7118 0.18443877 26
-4.1154604 13.213211 0.14009866 45
-5.1318212 10.696559 0.050109793 44
-4.215013 10.716882 -0.019094242 34
-4.1203122 13.228788 -0.1044708 47
-5.1331334 10.699295 -0.15948968 32
-4.2200856 10.729779 -0.22299477 48
-4.1155496 13.213498 -0.34935033 42
-5.1276531 10.687871 -0.36901438 41
-4.2209039 10.731859 -0.42749768 50
-4.1201973 13.22842 -0.59524101 73
-5.1361313 10.705544 -0.57968986 44
-4.2116346 10.708292 -0.63023341 49
-3.9703965 12.747466 -0.80959463 38
-5.132628 10.698241 -0.7895788 46
-4.2112947 10.707428 -0.83383149 49
-3.9667218 12.735668 -1.0451266 31
-5.1309977 10.694843 -0.99920648 40
-4.2169456 10.721796 -1.0387859 49
-1.5605804 5.0104427 -0.50401658 4
-5.132946 10.698904 -1.209749 44
-4.2154589 10.718016 -1.2422203 51
-4.2141266 10.714628 -1.4459273 43
-4.2144351 10.715412 -1.6498159 42
-4.1136274 10.459104 -1.8112608 5
-3.6836782 9.3659372 -1.7999761 6
-3.3586187 8.5394573 -1.8047897 4
-3.083504 7.8399634 -1.8062205 5
-2.8508441 7.2484145 -1.80809 0
-0.78974968 2.0079782 -0.53897578 1
-0.74482095 1.8937447 -0.70005441 24
-0.71789193 1.8252764 -0.91427213 17
-1.2221682 3.172267 0.89737594 2
-2.6628687 6.9117575 1.4313196 24
-1.7203901 4.4654546 0.66947782 8
-3.3667135 8.7386608 0.81305325 5
-4.1274495 10.713232 0.59063363 30
-4.1262441 10.710103 0.38736466 35
-4.0147915 13.214227 0.38407809 41
-5.0456223 10.707938 0.25952783 41
-4.126626 10.711095 0.18392609 27
-4.0196261 13.23014 0.13997719 43
-5.0433798 10.703178 0.049974632 44
-4.1242738 10.704988 -0.019021288 34
-4.0162292 13.21896 -0.1041692 20
-5.0395598 10.695072 -0.15889837 35
-4.1306973 10.721662 -0.2222213 50
-4.0139022 13.211299 -0.34854281 28
-5.0409832 10.698092 -0.3681432 41
-4.1315079 10.723766 -0.42601588 54
-4.0161276 13.218625 -0.59352416 91
-5.0459404 10.708612 -0.57793444 46
-4.1281586 10.715073 -0.62892091 48
-3.8743415 12.751951 -0.80814201 31
-5.0391011 10.694098 -0.78665739 44
-4.1264 10.710508 -0.83180761 48
-5.0426164 10.701559 -0.99652046 40
-4.1276689 10.7138 -1.035194 51
-1.5209329 5.0059767 -0.50248694 26
-5.0377736 10.691281 -1.2048807 45
-4.1305218 10.721207 -1.2392178 55
-4.1278071 10.714159 -1.4419399 46
-4.1238661 10.703931 -1.6435752 42
-4.029151 10.458088 -1.8061695 5
-3.613955 9.3804026 -1.7978635 5
-3.2975092 8.5590334 -1.8040178 4
-3.0244772 7.8503504 -1.803705 2
-0.76455075 1.9844723 -0.53122073 8
-0.73158199 1.8988985 -0.70005441 21
-0.69991809 1.8167114 -0.90751225 18
-1.2900935 3.4195473 0.96475571 4
-2.5993013 6.8897591 1.4229715 36
-1.7227329 4.5663099 0.68277872 8
-3.373143 8.9409189 0.8296603 6
-4.045506 10.723098 0.58960605 31
-4.0400839 10.708725 0.38628528 37
-3.9167628 13.222764 0.38352209 44
-4.9556303 10.710238 0.25873873 38
-4.039042 10.705964 0.18334931 25
-3.9192123 13.231033 0.13969375 48
-4.9550972 10.709086 0.049839474 44
-4.040967 10.711066 -0.018981494 33
-3.9204378 13.235171 -0.10407873 43
-4.9496555 10.697326 -0.15841459 35
-4.0402169 10.709078 -0.22137047 49
-3.9136224 13.212162 -0.34783626 42
-4.9460273 10.689483 -0.36664972 42
-4.0438423 10.718688 -0.42468229 52
-3.9226112 13.242508 -0.59335244 49
-4.9609914 10.721824 -0.57676411 44
-4.037744 10.702524 -0.62651461 49
-3.7908916 12.79783 -0.80935252 4
-4.9525876 10.703662 -0.78479832 46
-4.0402598 10.709192 -0.82949466 48
-1.5063457 5.0853357 -0.41555107 0
-4.9527187 10.703945 -0.99349868 37
-4.0443339 10.719991 -1.0330389 53
-1.4780315 4.989749 -0.49981004 47
-4.9513144 10.700911 -1.2020409 45
-4.0415349 10.712572 -1.2349283 53
-4.0431008 10.716722 -1.4384509 48
-4.0406523 10.710232 -1.6401712 40
-3.9518597 10.474877 -1.8042603 5
-3.5442097 9.394352 -1.7957509 5
-3.2307484 8.5634851 -1.8001581 2
-2.9488893 7.8163834 -1.7911268 0
-0.74519849 1.9752377 -0.52734321 15
-0.7129668 1.8898039 -0.69484955 22
-0.68593818 1.8181612 -0.90582228 19
-2.5470567 6.8966856 1.4206947 30
-1.7292398 4.6822762 0.69829643 10
-3.4348941 9.3006897 0.86079854 7
-3.9567068 10.713606 0.587551 31
-3.9596846 10.721669 0.38574558 35
-3.8177021 13.226737 0.38285491 42
-4.8724685 10.726369 0.25830033 41
-3.957274 10.715142 0.18302889 26
-3.8189821 13.231172 0.13941032 46
-4.8686328 10.717924 0.049721211 45
-3.953619 10.705246 -0.018921804 32
-3.8201785 13.235316 -0.10386761 40
-4.8599658 10.698845 -0.15793079 33
-3.9598126 10.722016 -0.22106108 50
-3.8124173 13.208426 -0.34702873 44
-4.859705 10.698271 -0.36577851 43
-3.9606047 10.72416 -0.4237932 54
-3.8234162 13.246533 -0.59232235 38
-4.869494 10.719821 -0.5748136 43
-3.9560099 10.71172 -0.62542081 50
-1.4748237 5.1096458 -0.32248205 2
-4.8645358 10.708905 -0.78267366 47
-3.9571044 10.714683 -0.82775992 47
-1.4509009 5.0267634 -0.40992707 14
-4.8597369 10.698341 -0.98980534 41
-3.9611149 10.725542 -1.0308838 52
-1.4332228 4.9655161 -0.49636835 60
-4.8649669 10.709855 -1.1992012 49
-3.9556265 10.710681 -1.2314967 53
-3.9585607 10.718626 -1.434962 48
-3.9575515 10.715894 -1.6367671 42
-3.866322 10.468871 -1.7985324 5
-3.483995 9.4336405 -1.7985677 2
-0.76280731 2.0654593 -0.43305689 4
-0.7520169 2.0362422 -0.4653911 8
-0.74918568 2.0285759 -0.50199592 1
-0.73273504 1.9840325 -0.52831262 21
-0.70630813 1.9124762 -0.70135564 22
-0.67071635 1.8161038 -0.90244234 19
-0.72955966 2.0186887 0.56660253 4
-2.4881678 6.8847508 1.4146234 33
-1.735556 4.8022771 0.71436834 12
-3.4511468 9.5493097 0.88155729 26
-3.8709533 10.710913 0.58590692 31
-3.877943 10.730254 0.38507095 33
-3.7187769 13.22997 0.38218769 39
-4.7860665 10.734557 0.25768659 41
-3.8701375 10.708655 0.18245211 25
-3.7211065 13.238258 0.13920787 42
-4.7757716 10.711467 0.049535371 42
-3.8760669 10.725062 -0.01890854 34
-3.7222736 13.242411 -0.10371682 42
-4.7737546 10.706943 -0.15755451 35
-3.8739882 10.719311 -0.2204423 46
-3.7147019 13.215473 -0.34652403 43
-4.7669897 10.691771 -0.36440948 40
-3.8788462 10.732753 -0.42305231 54
-1.4663842 5.2168279 -0.23280843 1
-4.7766404 10.713416 -0.57266808 42
-3.8743441 10.720296 -0.62432706 51
-1.4347941 5.1044426 -0.32151365 2
-4.7685266 10.695217 -0.77922106 49
-3.8700016 10.70828 -0.82515782 48
-1.4114558 5.0214138 -0.40867731 31
-4.7703218 10.699244 -0.98678356 43
-3.8753073 10.722961 -1.0280101 49
-1.3974447 4.9715676 -0.49598595 40
-4.7722545 10.703578 -1.1947386 49
-3.8712935 10.711855 -1.2284942 52
-3.8741913 10.719873 -1.431473 49
-3.8745694 10.720919 -1.6333631 42
-3.7944837 10.499322 -1.7991688 6
-0.74036515 2.0485876 -0.42842528 16
-0.73246557 2.0267296 -0.46203694 16
-0.72970802 2.0190992 -0.49837795 8
-0.71358997 1.9745009 -0.5244351 24
-0.68522573 1.8960171 -0.69354832 22
-0.65678895 1.8173326 -0.90075237 18
-0.72318339 2.0456111 0.57272798 4
-2.4334974 6.88344 1.4108287 22
-1.7455604 4.9375277 0.73265702 3
-3.3817391 9.5656557 0.88086534 22
-3.7880938 10.715079 0.58467382 30
-3.7896123 10.719374 0.38372171 32
-3.6537559 13.355886 0.38507885 20
-4.6885724 10.716413 0.25645909 41
-3.7899501 10.72033 0.18219577 24
-3.6676464 13.40666 0.14070603 23
-4.6864505 10.711564 0.049383316 45
-3.7890983 10.71792 -0.018848849 31
-3.685673 13.472555 -0.10531525 20
-4.6828632 10.703364 -0.15701696 30
-3.7910609 10.723472 -0.2199782 46
-3.6993763 13.522646 -0.35389259 18
-4.6810184 10.699147 -0.3635383 38
-3.7958291 10.736959 -0.42216322 53
-1.4183284 5.1845365 -0.23091987 2
-4.6857219 10.709898 -0.57071757 45
-3.7914205 10.724488 -0.62301451 51
-1.3970163 5.1066327 -0.32102945 4
-4.6841502 10.706306 -0.77762759 49
-3.785841 10.708707 -0.82313395 47
-1.3679471 5.0003738 -0.40617776 40
-4.6859298 10.710374 -0.98476905 39
-3.7923853 10.727219 -1.0258551 52
-1.3585 4.9658408 -0.49445632 33
-4.6830626 10.70382 -1.1910875 48
-3.7924397 10.727372 -1.2272073 53
-3.7899983 10.720466 -1.427984 46
-3.7917099 10.725307 -1.6299591 41
-3.710562 10.49577 -1.7940774 5
-0.74414647 2.1049078 -0.39929047 5
-0.72866166 2.0611072 -0.42996916 14
-0.71699482 2.028106 -0.46119839 18
-0.70650321 1.9984292 -0.49204648 14
-0.69978797 1.9794345 -0.5244351 23
-0.66819012 1.8900561 -0.68964469 24
-0.64529395 1.8252916 -0.90244234 19
-0.71520269 2.0688863 0.57783252 4
-2.3776836 6.8779902 1.4062753 29
-2.4060793 6.9601316 1.0302644 16
-3.3057616 9.5626669 0.87844348 25
-3.7053647 10.71861 0.58344078 31
-3.7029288 10.711563 0.38250741 34
-3.6529574 13.728829 0.39508668 17
-4.596293 10.708461 0.25549462 38
-3.707175 10.723846 0.18181126 26
-3.668581 13.787547 0.1444312 23
-4.5989342 10.714615 0.049248159 43
-3.7076459 10.725208 -0.018815687 32
-3.6840923 13.845843 -0.10802956 19
-4.5922499 10.699041 -0.15647942 33
-3.7043443 10.715658 -0.21928208 52
-3.7056444 13.926842 -0.36378464 19
-4.5904408 10.694827 -0.36229372 39
-3.7064121 10.72164 -0.42053327 51
-1.3677129 5.140245 -0.22851624 8
-4.5950804 10.705636 -0.56876707 42
-3.7073221 10.724272 -0.62148321 45
-1.3479849 5.066102 -0.31788209 31
-4.5951238 10.705737 -0.77523732 42
-3.7031667 10.712252 -0.82139921 47
-1.3319793 5.0059485 -0.40586531 30
-4.5984664 10.713525 -0.98208302 39
-3.7082915 10.727077 -1.0233407 53
-1.3197035 4.9598126 -0.49292666 35
-4.5940957 10.703342 -1.1874363 47
-3.7070611 10.723516 -1.2237757 56
-3.704689 10.716655 -1.4239967 47
-3.7050974 10.717836 -1.6248531 11
-3.6268749 10.491561 -1.7889861 1
-0.72300088 2.0914445 -0.39576939 6
-0.70656067 2.0438874 -0.42533752 15
-0.70026278 2.0256693 -0.45952129 18
-0.6938073 2.0069954 -0.49295098 18
-0.6796121 1.9659326 -0.51958817 24
-0.65497875 1.8946749 -0.68964469 22
-0.62898171 1.8194726 -0.89737242 18
-0.69826651 2.0665007 0.5757907 6
-2.3283544 6.8907003 1.4055164 37
-2.354897 6.9692531 1.029156 16
-3.2389257 9.5855122 0.87844348 20
-3.639401 10.770707 0.58487934 19
-3.662616 10.839412 0.38615033 15
-3.6581373 14.144979 0.40631768 19
-4.5121117 10.718174 0.25496855 38
-3.668072 10.855558 0.18360566 13
-3.6733844 14.203935 0.14852078 24
-4.5131559 10.720654 0.049129896 42
-3.6787815 10.887253 -0.019054448 14
-3.6934981 14.281709 -0.11122642 19
-4.5081334 10.708723 -0.1561569 33
-3.6307302 10.745047 -0.21935941 49
-3.7024391 14.31628 -0.37327293 24
-4.5001526 10.689766 -0.36104915 41
-3.6391535 10.769975 -0.42142233 37
-1.3247896 5.1225853 -0.22731443 17
-4.5109277 10.715361 -0.56759673 40
-3.6400387 10.772594 -0.62279576 23
-1.3065859 5.0521965 -0.31642947 31
-4.504786 10.700772 -0.77258152 44
-3.6525614 10.809655 -0.82689255 17
-1.2950017 5.0074039 -0.40524042 31
-4.5065479 10.704958 -0.97838968 41
-3.6256654 10.730058 -1.0211855 51
-1.2800606 4.9496307 -0.49101463 35
-4.5069084 10.705813 -1.1841909 43
-3.6282923 10.737831 -1.2224889 13
-1.6973735 5.0233302 -0.66589415 6
-1.6731312 4.9515858 -0.7488848 5
-3.643302 10.782252 -1.8341721 0
-0.70586234 2.0889802 -0.39436096 6
-0.68599343 2.0301788 -0.42147782 17
-0.6798448 2.011982 -0.45532858 16
-0.6785326 2.0080986 -0.49204648 19
-0.67208326 1.9890119 -0.5244351 23
-0.63810384 1.8884509 -0.68574101 23
-0.61394382 1.8169497 -0.89399248 20
-0.6898849 2.0896878 0.58089525 6
-2.2740355 6.8881407 1.4017217 36
-2.2974918 6.9591913 1.0252765 17
-3.1656809 9.5889692 0.87671357 13
-3.6442676 11.038627 0.59803194 12
-3.6507702 11.058323 0.39303142 9
-3.6635246 14.585116 0.41821587 15
-4.4249687 10.719841 0.25426713 38
-3.6498723 11.055604 0.1865536 1
-3.8323514 15.257245 0.15925089 27
-4.4259925 10.722322 0.048994739 47
-4.3651042 13.222069 -0.023086855 35
-3.8343878 15.265352 -0.11867569 40
-4.4210539 10.710358 -0.15572685 34
-3.6120458 10.941026 -0.22284009 20
-3.8342497 15.264803 -0.39729643 36
-4.4162617 10.698748 -0.36030242 43
-3.6302915 10.996292 -0.42927584 18
-1.2860743 5.1200809 -0.22679937 22
-4.4207668 10.709662 -0.56564623 45
-3.6398692 11.025304 -0.63592106 16
-1.2683651 5.0495777 -0.31570315 30
-4.417788 10.702446 -0.77045685 51
-3.6558008 11.073562 -0.84510732 11
-1.2551546 4.996985 -0.40367818 30
-4.4180164 10.702998 -0.9753679 44
-3.5931304 10.88373 -1.033398 10
-1.2454746 4.9584465 -0.49101463 27
-4.4214296 10.711268 -1.1813511 48
-1.6893473 5.1170983 -0.58121842 3
-1.6299132 4.9370699 -0.65293515 0
-1.6261088 4.9255462 -0.74321145 4
-0.73413873 2.2237344 -0.37739906 1
-0.68508929 2.0751619 -0.39083987 7
-0.67426425 2.0423725 -0.4230217 17
-0.66087747 2.0018232 -0.45197442 20
-0.65838939 1.9942869 -0.487524 19
-0.65209788 1.9752296 -0.51958817 25
-0.62371868 1.8892679 -0.68443978 23
-0.59783441 1.8108635 -0.88892257 20
-0.67691922 2.1020515 0.58293706 6
-2.2198703 6.8934097 1.3994449 33
-2.2439883 6.9683037 1.0241681 16
-2.1523001 6.6835828 0.60961694 3
-4.2575359 13.221016 0.71455568 34
-4.2644162 13.242382 0.46953291 36
-3.6595929 15.035046 0.43033648 15
-4.3312821 10.714913 0.25339034 41
-4.2503595 13.198731 0.22218527 13
-3.7194688 15.28104 0.1592104 41
-4.3307853 10.713685 0.048808895 46
-4.2521253 13.204214 -0.023000635 64
-3.7186077 15.277502 -0.11855505 35
-4.327435 10.705397 -0.15518931 34
-4.2635951 13.239831 -0.26901695 50
-3.7184749 15.276957 -0.39689267 35
-4.327229 10.704886 -0.35943121 42
-4.2663665 13.248437 -0.51596081 55
-1.2428395 5.1060729 -0.22576924 24
-4.3316612 10.715852 -0.56428093 45
-4.1074252 12.754874 -0.73392338 37
-1.2275412 5.043222 -0.31473476 32
-4.3272505 10.704941 -0.76833218 47
-4.09793 12.725389 -0.96885204 24
-1.2175505 5.0021763 -0.40336573 4
-4.3274903 10.705534 -0.97268188 39
-3.7245114 11.565804 -1.0955385 4
-1.2072129 4.9597054 -0.49024981 4
-4.330863 10.713877 -1.1781056 44
-1.6200969 5.030921 -0.57006592 16
-1.5924625 4.9451075 -0.65243667 0
-1.5620439 4.8506479 -0.73016268 1
-0.71176577 2.2102613 -0.37421694 2
-0.66744536 2.0726321 -0.38943145 8
-0.65325952 2.0285804 -0.41916203 34
-0.64498675 2.0028908 -0.45113587 19
-0.64136416 1.9916416 -0.485715 20
-0.63998038 1.9873445 -0.52152693 24
-0.60521531 1.8793877 -0.67923492 24
-0.57787627 1.7944914 -0.87878281 21
-0.6726656 2.1399322 0.59212518 6
-2.1693358 6.901247 1.3979272 33
-2.1940978 6.9800215 1.0236139 19
-2.1366575 6.7972879 0.61861241 4
-4.1579447 13.227552 0.71332264 34
-4.1598754 13.233694 0.46818367 37
-3.6656759 15.531103 0.44379142 20
-4.2460628 10.718865 0.25277659 42
-4.1545138 13.216638 0.22199301 14
-3.6816056 15.598597 0.16224721 24
-4.2455721 10.717627 0.048690632 46
-4.1586394 13.229763 -0.022994004 33
-3.7028224 15.68849 -0.12154079 20
-4.2378616 10.698162 -0.15465176 36
-4.1590667 13.231122 -0.26824346 47
-3.7173638 15.7501 -0.40850067 20
-4.2391372 10.701383 -0.35831112 41
-4.1641812 13.247393 -0.5147754 55
-1.206244 5.1107354 -0.22559755 26
-4.2449737 10.716116 -0.56272048 45
-4.0110931 12.760377 -0.73261082 35
-1.1886343 5.0361252 -0.31376633 33
-4.2406516 10.705205 -0.76620752 46
-4.001812 12.730852 -0.96711731 40
-1.1761868 4.983386 -0.40117863 28
-4.2438383 10.71325 -0.97066736 42
-1.7071519 5.4309139 -0.51328671 0
-1.1624972 4.9253845 -0.48604327 2
-4.2427702 10.710553 -1.1744545 45
-1.5718167 5.0003762 -0.56534749 38
-1.5507596 4.9333878 -0.64944613 0
-1.5245798 4.8501024 -0.72846067 0
-0.68329161 2.1737363 -0.36721626 2
-0.64705563 2.0584598 -0.38591036 9
-0.64378923 2.0480685 -0.42224976 14
-0.6239512 1.9849584 -0.44610462 19
-0.62043369 1.9737682 -0.48028803 20
-0.6225993 1.9806576 -0.51861876 26
-0.59434843 1.8907839 -0.68183738 24
-0.56968307 1.8123167 -0.88554269 20
-0.66564751 2.1704588 0.59927154 4
-2.1141939 6.8936949 1.3933736 32
-2.1441529 6.9913816 1.0230597 16
-2.1277094 6.9377646 0.6300298 3
-4.0572987 13.229524 0.71188408 34
-4.0580082 13.231837 0.46710429 36
-3.6641145 16.024057 0.4571352 21
-4.1609998 10.72215 0.25216284 41
-4.0539341 13.218553 0.22154441 25
-3.681392 16.099617 0.16718711 23
-4.1605153 10.720901 0.048572369 46
-4.0579672 13.231704 -0.022947578 16
-3.7037663 16.197466 -0.12528051 20
-4.1543889 10.705114 -0.15432924 36
-4.0583868 13.233071 -0.26770201 51
-3.7231932 16.282423 -0.42162275 15
-4.1513062 10.697171 -0.357191 44
-4.0598755 13.237926 -0.51329356 56
-1.1642992 5.0917621 -0.22439574 32
-4.1599398 10.719419 -0.56135517 42
-3.9102004 12.749885 -0.73042327 40
-1.1534466 5.0443006 -0.31376633 26
-4.155704 10.708503 -0.76434839 45
-3.8251047 12.472415 -0.94543308 2
-1.1440343 5.0031385 -0.40211597 8
-4.1602902 10.720322 -0.96865278 39
-1.5617313 5.0922952 -0.48024097 0
-1.1334087 4.9566698 -0.48833776 0
-4.1578155 10.713944 -1.1716146 48
-1.5252086 4.973206 -0.5610581 42
-1.5104618 4.9251218 -0.64695406 2
-0.73373157 2.3924587 -0.35855696 1
-0.66230994 2.1595762 -0.36403415 2
-0.63266903 2.0629268 -0.38591036 9
-0.62257069 2.0299993 -0.41761816 16
-0.61007839 1.989266 -0.44610462 19
-0.61235136 1.9966774 -0.4848105 20
-0.60534292 1.9738253 -0.51571065 26
-0.58002478 1.891271 -0.68053615 22
-0.5485127 1.7885206 -0.87202293 22
-0.66266817 2.215812 0.61050147 6
-2.0615144 6.8932362 1.3903379 32
-2.0918865 6.9947939 1.0213971 19
-2.1214695 7.0937128 0.64283103 4
-3.9556837 13.226909 0.71024001 35
-3.9575152 13.233033 0.46615982 34
-3.6731248 16.595804 0.47270292 16
-4.0775194 10.728509 0.25163677 40
-3.9512389 13.212046 0.22096765 23
-3.6778138 16.616989 0.17228897 32
-4.0770416 10.727253 0.048471 44
-3.9528868 13.217556 -0.022874624 35
-3.6822197 16.636898 -0.12847736 10
-4.0710263 10.711425 -0.1540067 34
-3.9487152 13.203608 -0.26654181 24
-3.8824916 17.541759 -0.45351952 19
-4.0680022 10.703469 -0.35644427 43
-3.9604867 13.242969 -0.5124045 55
-1.1235421 5.076355 -0.2233656 37
-4.0693893 10.707118 -0.55920959 43
-3.8382602 12.83427 -0.73370457 9
-1.1173397 5.0483317 -0.31352422 6
-4.0709176 10.711139 -0.76248932 45
-1.5694765 5.247973 -0.39696625 0
-4.0726023 10.715572 -0.96563101 40
-1.4998887 5.0152869 -0.47197953 6
-1.1004977 4.9722366 -0.48910257 0
-4.068779 10.705512 -1.1675578 44
-1.4847544 4.9646816 -0.55891335 61
-1.468081 4.9089293 -0.64346504 15
-0.71701121 2.3975227 -0.35855696 1
-0.64269114 2.1490133 -0.36148846 2
-0.6114825 2.0446587 -0.38168508 11
-0.60276067 2.0154948 -0.41375846 18
-0.59729642 1.9972236 -0.44694316 18
-0.59504777 1.9897046 -0.482097 21
-0.58710051 1.963131 -0.51183313 25
-0.56680709 1.8952742 -0.68053615 23
-0.53809071 1.7992531 -0.87540287 24
-0.66016966 2.2649405 0.62275237 4
-2.0111423 6.899919 1.3888202 26
-2.0418942 7.0054245 1.0208429 19
-2.1220748 7.2805119 0.65840012 5
-3.8520675 13.21585 0.7081849 30
-3.8560855 13.229635 0.46508044 35
-3.6734877 17.16452 0.48815945 15
-3.9913642 10.726731 0.25093535 38
-3.85219 13.21627 0.22058313 23
-3.7584264 17.561399 0.18180434 39
-3.9867082 10.714217 0.04828516 43
-3.8537984 13.221788 -0.02283483 33
-3.7610233 17.573534 -0.13550441 39
-3.9863834 10.713346 -0.15363042 34
-3.859798 13.242372 -0.26677385 54
-3.7590959 17.564528 -0.45341858 16
-3.9820247 10.701631 -0.3554486 42
-3.8612254 13.24727 -0.51151544 56
-1.0838933 5.0645356 -0.22250718 49
-3.986181 10.712801 -0.55803931 47
-1.4965206 5.1343317 -0.29291308 0
-1.0795618 5.0442963 -0.3127979 11
-3.9862978 10.713115 -0.76063025 46
-1.482563 5.0864453 -0.38395569 0
-1.3494693 6.3054504 -0.50522262 0
-3.9865744 10.713859 -0.96294498 42
-1.4592649 5.0065126 -0.47018355 30
-1.0640917 4.9720116 -0.48833776 0
-3.9883904 10.718739 -1.1659352 46
-1.4456068 4.9596543 -0.55719757 48
-1.4260001 4.8923869 -0.63997608 26
-0.69249988 2.3758602 -0.35458562 1
-0.62656748 2.1496565 -0.36085203 2
-0.59609139 2.0450976 -0.38098085 9
-0.5886752 2.0196538 -0.41375846 17
-0.58552748 2.0088546 -0.44862026 19
-0.58332312 2.0012918 -0.483906 20
-0.57120907 1.9597304 -0.50989437 27
-0.54721111 1.8773971 -0.67272884 30
-0.52551645 1.8029659 -0.87540287 22
-0.6588822 2.3176305 0.63602412 4
-1.9642619 6.9093285 1.3880612 31
-1.9975538 7.0264335 1.0219513 19
-2.1260486 7.478416 0.67500716 5
-3.7577777 13.218054 0.70695186 33
-3.7595124 13.224155 0.46400106 36
-3.6844358 17.791475 0.50528395 17
-3.9064417 10.715393 0.25005856 41
-3.7578893 13.218447 0.22019862 24
-3.7002711 17.867943 0.18471968 20
-3.9073455 10.717872 0.048183791 45
-3.7605541 13.227819 -0.022801669 32
-3.7255006 17.989769 -0.13852032 13
-3.9070277 10.717 -0.1533079 33
-3.7642305 13.240752 -0.2662324 46
-1.1230834 5.4231668 -0.1398007 0
-3.90275 10.705266 -0.35470185 41
-3.7667227 13.249518 -0.51062638 52
-1.0486592 5.0637865 -0.2221638 55
-3.9054692 10.712726 -0.55667394 47
-1.453698 5.11341 -0.29116303 2
-3.9042263 10.709316 -0.75850558 48
-1.4346133 5.0462794 -0.38019711 19
-1.2987249 6.2713079 -0.50178576 0
-3.9045129 10.710102 -0.96025896 41
-1.4238493 5.0084167 -0.46946517 40
-1.0327073 4.9867573 -0.48910257 0
-3.9049511 10.711305 -1.162284 48
-1.4105061 4.961482 -0.55633968 43
-1.3935212 4.9017372 -0.63997608 26
-0.66914797 2.3537405 -0.35061425 1
-0.60905689 2.1423693 -0.35894278 3
-0.57928437 2.0376437 -0.37886822 11
-0.57419407 2.0197384 -0.41298652 17
-0.56898284 2.0014079 -0.44610462 20
-0.56577522 1.9901249 -0.48028803 21
-0.56032151 1.9709414 -0.51183313 27
-0.538885 1.8955381 -0.67793375 27
-0.51255572 1.8029244 -0.8737129 24
-0.65093994 2.3519931 0.64419138 3
-1.9107432 6.9039469 1.3842666 37
-1.9421148 7.0172997 1.0186261 19
-2.125875 7.6812663 0.69196022 7
-3.6654129 13.243964 0.70695186 25
-3.6735029 13.273196 0.46481058 21
-3.6823609 18.428431 0.52263087 19
-3.8221347 10.716038 0.24944483 40
-3.6900582 13.333014 0.22167259 13
-3.707108 18.552277 0.19152217 21
-3.8216753 10.71475 0.048048634 45
-3.696928 13.357837 -0.022980738 13
-3.7283542 18.658604 -0.1434664 18
-3.8200204 10.710111 -0.1528241 34
-3.6642399 13.239726 -0.26569098 48
-1.0279971 5.1446271 -0.13243215 3
-3.818516 10.705893 -0.35383067 42
-3.6677406 13.252376 -0.50973725 50
-1.0117158 5.0631466 -0.22182043 50
-3.8225319 10.717152 -0.55550361 44
-1.4073131 5.0849404 -0.28897548 21
-1.2494081 6.2526817 -0.38663954 0
-3.8199804 10.709998 -0.75664651 50
-1.3940302 5.0369458 -0.37875149 35
-0.99236435 4.9663024 -0.39680442 0
-3.8202736 10.71082 -0.95790863 40
-1.3814132 4.9913578 -0.46695083 78
-0.99708784 4.9899411 -0.48872015 0
-3.8220558 10.715817 -1.1598499 52
-1.3694717 4.9482107 -0.55376601 40
-1.3560932 4.8998709 -0.63848084 24
-0.65270054 2.3583546 -0.35061425 1
-0.59829992 2.1617928 -0.36148846 4
-0.56609607 2.0454328 -0.37957242 11
-0.5569399 2.0123498 -0.41067073 18
-0.55082452 1.9902533 -0.44275045 21
-0.54979008 1.9865158 -0.47847903 21
-0.54654896 1.9748049 -0.51183313 27
-0.52362156 1.891963 -0.67533129 25
-0.50092429 1.8099526 -0.87540287 23
-0.64657074 2.4012942 0.65644222 3
-1.8584137 6.9019489 1.381231 19
-1.8899877 7.0192113 1.0169635 18
-2.1353998 7.9306459 0.71306503 8
-3.6611462 13.597104 0.72442013 17
-3.6867683 13.692262 0.47857276 22
-3.6919811 19.172207 0.54298007 25
-3.7406437 10.72358 0.24900644 40
-3.6946335 13.721472 0.22769664 13
-3.7015388 19.22184 0.19816267 27
-3.7401922 10.722285 0.047964159 46
-3.7190225 13.81205 -0.023716919 12
-3.8831494 20.16493 -0.15483634 31
-3.7372532 10.71386 -0.15250158 37
-3.6299489 13.48124 -0.27002248 23
-0.98903126 5.135972 -0.13202839 8
-3.7344642 10.705865 -0.35295945 43
-3.6458035 13.540123 -0.51981348 13
-0.97861063 5.0818586 -0.22233549 16
-3.7410395 10.724715 -0.55452836 42
-1.3697025 5.0869279 -0.28853798 32
-0.96488261 5.01057 -0.30940846 0
-3.7359159 10.710027 -0.75478745 42
-1.3536454 5.0272937 -0.37730587 31
-1.2125446 6.2966614 -0.50241065 0
-3.7401538 10.722176 -0.95656562 40
-1.3413545 4.9816465 -0.46515486 77
-0.95695674 4.9694114 -0.48604327 0
-3.7405992 10.723453 -1.1578214 48
-1.3328253 4.9499702 -0.55290812 39
-1.3197887 4.9015536 -0.63748395 20
-0.62592542 2.3246198 -0.34494087 1
-0.57497919 2.135411 -0.35639706 3
-0.5477075 2.0341268 -0.37675557 11
-0.54185706 2.012399 -0.40989879 18
-0.53488272 1.9864969 -0.44107336 20
-0.53286904 1.9790183 -0.47576553 23
-0.53073096 1.9710778 -0.50989437 27
-0.51236731 1.9028771 -0.67793375 14
-0.4845058 1.7994025 -0.86864299 28
-0.65231824 2.4918027 0.67992306 2
-1.8399349 7.0284023 1.0164093 18
-1.808504 6.9083385 0.61999637 0
-3.6683095 14.012646 0.74517655 19
-3.6882818 14.088938 0.49152541 20
-3.6986842 19.956289 0.56444132 17
-3.6592345 10.730509 0.24856804 38
-3.699024 14.129972 0.23404114 13
-3.735641 20.155691 0.20751609 52
-3.6626632 10.740563 0.047930371 42
-3.7167146 14.197549 -0.024333717 13
-3.7444735 20.203346 -0.15492681 32
-3.6597834 10.732119 -0.15239407 28
-3.6289225 13.86219 -0.2771385 23
-0.9567973 5.1624103 -0.13253307 11
-3.6699555 10.761948 -0.35395512 21
-1.400026 5.3479857 -0.20493217 0
-0.93874156 5.06499 -0.22130536 4
-3.6570492 10.724101 -0.55316305 45
-1.3270751 5.0693197 -0.28700668 29
-0.93279153 5.032887 -0.31037688 0
-3.658478 10.728292 -0.75425625 44
-1.312453 5.0134645 -0.37557113 33
-0.91856873 4.9561472 -0.39492974 0
-3.6574888 10.72539 -0.9545511 38
-1.3035165 4.9793277 -0.46407726 36
-0.91934037 4.9603109 -0.48451364 0
-3.6605065 10.73424 -1.1561987 43
-1.2952139 4.9476123 -0.55162132 40
-1.2825218 4.8991294 -0.63598871 9
-0.59965354 2.290628 -0.33926752 2
-0.55605674 2.1240919 -0.35385138 3
-0.53648472 2.0493283 -0.37886822 12
-0.52878857 2.0199296 -0.41067073 17
-0.52100128 1.9901828 -0.44107336 20
-0.51903981 1.9826902 -0.47576553 22
-0.51597446 1.9709808 -0.50892496 26
-0.49428064 1.8881121 -0.67142767 3
-0.47193176 1.8027412 -0.86864299 29
-0.92757332 3.6469913 0.99334103 11
-0.73862821 2.9041054 0.57905453 5
-1.786917 7.0257206 1.0141925 18
-1.8044329 7.0945883 0.63556546 2
-3.6737833 14.444417 0.76675504 15
-3.6883731 14.501781 0.5050177 16
-3.7093291 20.824036 0.5882377 16
-3.6259534 10.880994 0.25146142 21
-3.8704083 15.217499 0.25160062 14
-3.7288103 20.933403 0.21524985 21
-3.6482902 10.948023 0.048741318 20
-3.8817456 15.262074 -0.026111159 22
-3.7611618 21.115023 -0.16171259 17
-3.6517866 10.958515 -0.15524307 12
-3.6306362 14.274774 -0.28487331 23
-0.91582483 5.1414065 -0.13182651 10
-3.6667798 11.003509 -0.36104915 13
-1.3399943 5.2685294 -0.20152403 1
-0.90055513 5.0556831 -0.22061861 2
-3.6086166 10.828968 -0.55725908 19
-1.2867299 5.0591073 -0.2859129 50
-0.89273131 5.0117607 -0.30868214 0
-3.622607 10.870952 -0.76248932 22
-1.2764372 5.0186386 -0.37528199 33
-0.88184792 4.9506617 -0.39399242 0
-3.6367075 10.913265 -0.96898854 15
-1.2667586 4.9805846 -0.46335888 37
-1.7826746 5.3495641 -0.5748539 1
-1.2577008 4.944972 -0.55033451 40
-1.2561146 4.938735 -0.63997608 2
-0.57291138 2.2525473 -0.3330268 2
-0.53634721 2.1087861 -0.35066926 4
-0.51925302 2.0415759 -0.37675557 12
-0.51177174 2.0121613 -0.40835491 18
-0.50227422 1.9748194 -0.43688065 20
-0.50230414 1.9749371 -0.47305202 22
-0.50028878 1.967013 -0.5069862 26
-0.48761353 1.9171771 -0.68053615 1
-0.45397291 1.7849103 -0.85850322 14
-0.90487128 3.6646423 0.99640375 13
-0.72210157 2.9244425 0.5820902 3
-1.7283283 6.9995646 1.0086504 35
-1.787339 7.2385526 0.64732879 2
-3.6753173 14.884685 0.78874457 15
-3.6972501 14.973511 0.52053392 18
-3.7221787 21.775627 0.61436921 15
-4.3036981 13.221865 0.30485752 40
-3.7659934 15.251914 0.2517288 31
-3.8191237 22.342781 0.22946218 50
-4.305932 13.228727 0.058759898 50
-3.7731838 15.281034 -0.026097896 29
-3.8198853 22.347235 -0.17094125 47
-4.2993917 13.208634 -0.18668947 34
-3.7715247 15.274316 -0.3042877 41
-0.87990874 5.147675 -0.13182651 12
-4.3038855 13.222441 -0.43286073 41
-1.2811412 5.1884995 -0.19811592 2
-0.86591119 5.0657859 -0.2207903 4
-3.6021767 11.066644 -0.56818193 8
-1.2494644 5.0602117 -0.2854754 35
-0.85772091 5.0178709 -0.30868214 0
-3.7430422 11.499412 -0.80471706 1
-1.2375439 5.0119348 -0.37412551 33
-0.85465527 4.9999361 -0.39742929 0
-4.1439652 12.731132 -1.1278006 12
-1.2252716 4.9622331 -0.46084455 3
-0.8466391 4.9530396 -0.48260158 0
-1.6529086 5.0780821 -0.54442757 0
-1.2221944 4.9497709 -0.54990554 42
-0.66217846 2.6817596 -0.34690294 1
-0.5609684 2.2718687 -0.33529615 1
-0.51877207 2.1009774 -0.34876001 4
-0.50404358 2.0413284 -0.37605134 12
-0.49959335 2.0233054 -0.40989879 18
-0.49128792 1.9896692 -0.43939629 20
-0.48757023 1.974613 -0.47214755 23
-0.48561391 1.9666901 -0.50601685 28
-0.46968356 1.9021736 -0.67403007 1
-0.44845358 1.8161942 -0.87202293 5
-0.88106698 3.6783924 0.99844557 17
-0.70990092 2.9637864 0.58892047 3
-1.6766517 6.9999027 1.0069878 25
-1.7766757 7.4174957 0.66220593 3
