# .PCD v0.7 - Point Cloud Data file format
VERSION 0.7
FIELDS x y z intensity
SIZE 4 4 4 4
TYPE F F F F
COUNT 1 1 1 1
WIDTH 1334
HEIGHT 1
VIEWPOINT 0 0 0 1 0 0 0
POINTS 1334
DATA ascii
-15.805105 -9.2765064 -0.24630323 32
-16.219601 -7.9986219 -0.34976843 46
-9.7972336 -3.974262 -0.26688308 46
-15.809223 -9.278923 -0.57063442 37
-16.222254 -7.9999304 -0.67051196 49
-9.8061361 -3.9778736 -0.45462885 53
-15.794621 -9.2703533 -0.89411116 70
-16.201939 -7.989912 -0.9894293 42
-9.7934866 -3.9727421 -0.64084834 48
-15.78198 -9.2629337 -1.2176989 42
-16.180201 -7.9791923 -1.3074154 36
-9.781497 -3.9678786 -0.82704037 49
-8.3566284 -4.9047647 -0.8162201 0
-16.167814 -7.9730835 -1.6253481 68
-9.7591543 -3.9588153 -1.0114748 47
-8.2777758 -4.8584833 -0.97850925 0
-16.168322 -7.9733343 -1.9444008 51
-9.6249723 -4.7465115 -1.3477378 2
-9.6096096 -4.738935 -1.5352138 1
-9.5451288 -4.7071366 -1.715161 1
-9.5525894 -4.7108154 -1.9049042 1
-9.8878288 -4.8761373 -2.1683722 4
-9.0044594 -4.4405079 -2.1525385 4
-8.1772928 -4.0325942 -2.1165235 4
-7.5005808 -3.6988771 -2.089016 6
-5.1767497 -2.5528905 -1.9856561 5
-3.7003012 -1.8247865 -1.9231824 1
-2.3632836 -1.1450012 0.69319481 9
-3.2162766 -1.5582728 0.69061548 6
-5.3332939 -2.5839589 0.82908845 20
-6.1576147 -2.9833391 0.59404784 16
-15.994157 -7.7491031 0.91431069 30
-12.638741 -6.1234179 0.47398537 6
-9.8389349 -3.9114106 0.29445243 48
-11.399934 -6.5844064 0.28863704 6
-16.265203 -7.880424 0.28960347 30
-9.8273659 -3.9068117 0.10705806 48
-12.912755 -7.4581857 0.06298358 15
-15.489723 -7.5047069 -0.028538562 11
-9.8350248 -3.9098563 -0.079800732 43
-15.852165 -9.1559381 -0.24603446 32
-16.246254 -7.871243 -0.34914964 45
-9.8396044 -3.9116766 -0.26728684 22
-15.842458 -9.1503315 -0.56951427 38
-16.256124 -7.8760257 -0.6696229 47
-9.8150997 -3.9019353 -0.4537704 53
-15.831278 -9.1438742 -0.89255077 78
-16.232162 -7.8644161 -0.98789799 43
-9.8098516 -3.8998489 -0.64012206 47
-15.818613 -9.1365595 -1.2155743 46
-16.23192 -7.8642988 -1.3071263 38
-9.794137 -3.8936014 -0.82579058 34
-8.4286337 -4.8682342 -0.81991339 0
-16.208742 -7.8530684 -1.6239113 54
-9.8346548 -3.909709 -1.0164461 21
-8.9731035 -5.1827106 -1.0564005 1
-16.212856 -7.8550615 -1.943114 51
-16.201229 -7.8494282 -2.2608502 43
-9.8170633 -4.7563267 -1.5630133 1
-9.7909927 -4.7436957 -1.7533463 1
-11.123135 -5.3891129 -2.2105341 2
-9.9604826 -4.8258123 -2.1768637 3
-9.0528393 -4.3860631 -2.1567314 4
-8.2087526 -3.9771068 -2.1174281 4
-7.543684 -3.6548836 -2.0938628 8
-5.1944461 -2.5166876 -1.9856561 5
-3.6835861 -1.7846823 -1.9079727 1
-2.3921728 -1.1384462 0.69932026 5
-3.2128921 -1.5290304 0.68757981 4
-5.3297415 -2.536449 0.82576323 20
-6.1531043 -2.9282911 0.59162599 15
-16.011795 -7.6200881 0.91225559 28
-12.865282 -6.1226478 0.48086646 3
-9.9442434 -3.8731003 0.29678759 20
-11.438671 -6.5007076 0.28846169 3
-16.312599 -7.7632427 0.28947532 35
-9.9736681 -3.8845603 0.10835376 21
-13.079268 -7.4330754 0.063541107 18
-16.293001 -7.7539153 -0.029918071 20
-10.018622 -3.9020693 -0.081067406 20
-15.898312 -9.0351648 -0.24576569 36
-16.289976 -7.7524757 -0.3489176 46
-10.056703 -3.9169009 -0.27243471 21
-15.885098 -9.0276546 -0.56876755 39
-16.296276 -7.7554741 -0.66903019 49
-9.9314728 -3.8681264 -0.45789093 22
-15.859993 -9.0133877 -0.89060026 68
-16.275852 -7.7457542 -0.98724174 44
-9.9856567 -3.8892298 -0.6498062 21
-15.871602 -9.0199852 -1.2147775 56
-16.264814 -7.7405009 -1.3053916 40
-10.010591 -3.898941 -0.84172529 18
-8.5351868 -4.8506298 -0.82696426 0
-16.252378 -7.7345834 -1.6228337 61
-10.043509 -3.9117625 -1.0351843 20
-8.9191141 -5.0688195 -1.0458528 1
-16.242163 -7.7297211 -1.9401114 57
-16.216211 -7.717371 -2.2553675 44
-14.805435 -7.0459762 -2.3493423 1
-12.672972 -6.0311265 -2.2618487 1
-11.174708 -5.3180962 -2.213351 1
-6.7795696 -3.226429 -1.4767163 7
-6.7559237 -3.2151759 -1.6041318 53
-8.2292805 -3.9163532 -2.1156189 4
-7.569016 -3.6021299 -2.0938628 8
-5.2118893 -2.4803624 -1.9856561 4
-3.7123237 -1.7667122 -1.9164225 0
-2.3860476 -1.1151679 0.69523662 5
-3.2021408 -1.4965856 0.68302631 2
-5.3329639 -2.4924691 0.82354641 19
-6.158957 -2.8785138 0.59024209 16
-16.079079 -7.5148849 0.91307765 28
-16.112911 -7.5306964 0.60027355 35
-10.146627 -3.8705616 0.3020139 19
-11.448868 -6.4011822 0.2875849 3
-16.34466 -7.6390095 0.28909078 30
-10.187401 -3.8861153 0.11037831 21
-13.287949 -7.4294314 0.064301372 23
-16.339487 -7.6365914 -0.029904805 34
-10.239954 -3.9061623 -0.082635678 21
-15.936561 -8.9102983 -0.2453894 33
-16.332832 -7.6334815 -0.34868556 46
-10.285554 -3.923557 -0.27788544 19
-15.923304 -8.9028864 -0.56789637 36
-16.317432 -7.6262836 -0.66769654 48
-10.14493 -3.8699141 -0.46647531 23
-15.908579 -8.8946533 -0.8898201 42
-16.315058 -7.625174 -0.98636675 44
-10.191628 -3.8877275 -0.6614272 18
-15.89238 -8.8855963 -1.2115905 51
-16.304001 -7.6200061 -1.3042351 42
-10.223862 -3.9000237 -0.85734749 19
-15.881754 -8.8796549 -1.532721 32
-16.284327 -7.6108108 -1.6206785 53
-10.252864 -3.9110868 -1.0539223 20
-8.7146215 -4.872436 -1.0178605 0
-16.302937 -7.6195087 -1.9409692 54
-16.262503 -7.6006112 -2.2543707 42
-14.825567 -6.9290304 -2.3448038 5
-12.721924 -5.9458494 -2.2631214 1
-6.8846059 -3.2176607 -1.3591369 1
-6.7165942 -3.1391368 -1.4581898 13
-6.7250571 -3.1430922 -1.5915537 141
-6.7632766 -3.1609547 -1.7330166 4
-7.555306 -3.5311258 -2.0831995 4
-5.2187982 -2.4391115 -1.9817525 5
-3.7442739 -1.7499626 -1.9265623 0
-2.3937747 -1.0984828 0.69523662 8
-3.2018025 -1.46928 0.68074954 2
-5.3034296 -2.4336987 0.81634176 7
-6.1571717 -2.8254738 0.58816618 15
-16.102106 -7.3891196 0.91143358 26
-16.143291 -7.4080195 0.599464 29
-10.364433 -3.8709786 0.30768502 18
-11.486269 -6.3172436 0.28740954 5
-16.383053 -7.5180435 0.28883445 21
-10.401631 -3.8848717 0.11240286 22
-13.514735 -7.4328637 0.065146104 20
-9.8085403 -4.5010557 -0.017893804 12
-10.443088 -3.9003549 -0.084053151 16
-15.970342 -8.7834034 -0.24495937 32
-16.371187 -7.512598 -0.34837615 45
-10.462534 -3.9076178 -0.281923 2
-15.957044 -8.7760897 -0.56690067 34
-16.35211 -7.5038443 -0.66695565 49
-10.362629 -3.8703046 -0.47523138 23
-15.93878 -8.7660456 -0.88806462 42
-16.349745 -7.5027585 -0.98527294 30
-10.409276 -3.8877268 -0.67377448 20
-15.943535 -8.7686605 -1.2107937 53
-9.7865229 -4.490952 -0.78034371 16
-10.441362 -3.8997104 -0.87328213 13
-15.91891 -8.7551174 -1.5303707 43
-16.329823 -7.4936166 -1.6199602 66
-16.703003 -6.2383504 -1.7124326 22
-8.5078344 -4.6791577 -0.98986834 0
-16.334047 -7.4955554 -1.9383956 48
-9.7645731 -4.4808793 -1.3492332 11
-9.7417812 -4.4704208 -1.5357811 32
-7.0527387 -3.2364416 -1.2505718 0
-6.8389068 -3.1383162 -1.3457568 0
-6.69554 -3.0725265 -1.4489266 13
-6.689961 -3.0699661 -1.578137 11
-6.6966467 -3.073034 -1.7104042 7
-7.2023721 -3.3051074 -1.9794759 2
-5.2356992 -2.4026179 -1.9817525 5
-1.2554284 -0.57610542 -0.64387739 0
-2.4221611 -1.0921218 0.70136207 5
-3.2150564 -1.4496282 0.68150848 0
-4.8572054 -2.1900525 0.74540371 4
-6.1612425 -2.7780263 0.58678228 16
-9.847044 -4.4399076 0.55569702 34
-9.8253002 -4.4301038 0.36375308 37
-12.102124 -4.4287462 0.35839131 2
-11.503297 -6.2275972 0.28679579 4
-9.822341 -4.4287691 0.172647 35
-15.370308 -5.6247306 0.16568895 29
-13.732577 -7.434474 0.065957054 24
-9.8017092 -4.419467 -0.017827483 41
-16.801798 -6.148581 -0.13490124 41
-15.996589 -8.6601534 -0.24447557 29
-9.821764 -4.4285092 -0.20837598 45
-16.789415 -6.1440496 -0.45129886 35
-15.986772 -8.6548386 -0.56590503 36
-9.8095703 -4.4230113 -0.39889905 54
-16.779285 -6.1403432 -0.76761538 43
-15.982515 -8.6525345 -0.8872844 63
-9.7943363 -4.4161425 -0.58845121 49
-16.771471 -6.1374831 -1.0829296 52
-15.97326 -8.6475239 -1.2086691 48
-9.7760839 -4.4079127 -0.77716333 46
-16.758429 -6.1327109 -1.3981888 36
-15.955596 -8.6379614 -1.5283562 36
-9.7948093 -4.4163556 -0.96874332 61
-8.274786 -3.0281401 -0.84627366 0
-8.6051712 -4.6586242 -0.99757636 0
-9.7742052 -4.4070654 -1.1564317 55
-9.7470398 -4.3948169 -1.3427536 46
-9.7423363 -4.3926964 -1.5312425 43
-6.9408455 -3.1295395 -1.2270242 4
-6.8129053 -3.0718529 -1.336602 0
-6.6549444 -3.0006304 -1.4358037 17
-6.6531258 -2.9998102 -1.5647204 11
-7.1887546 -3.2413185 -1.969782 1
-5.2549663 -2.3693976 -1.9830537 5
-1.2195609 -0.54988456 -0.6235978 0
-2.4230273 -1.0712097 0.69932026 5
-5.2766156 -2.3327684 1.1148506 19
-4.9419684 -2.1848223 0.75593358 6
-6.1522837 -2.7198973 0.58401442 15
-9.8391361 -4.3498383 0.55343646 32
-9.8282604 -4.3450303 0.3626737 38
-12.096615 -4.3264489 0.35727933 44
-11.541576 -6.1393499 0.28662044 12
-9.82162 -4.3420944 0.17207022 27
-15.38853 -5.503828 0.165446 43
-13.959745 -7.4256554 0.066784896 20
-9.8192091 -4.3410287 -0.017800953 34
-16.838884 -6.0225587 -0.13484092 38
-16.05611 -8.540781 -0.24442182 31
-9.8137274 -4.3386054 -0.20752515 53
-16.837767 -6.0221586 -0.4513998 38
-16.025076 -8.5242739 -0.56503385 33
-9.8051701 -4.3348222 -0.39741728 53
-16.808794 -6.0117965 -0.76692867 45
-16.024349 -8.5238867 -0.88611412 45
-9.7862616 -4.3264632 -0.58604491 49
-16.808491 -6.0116882 -1.0824454 51
-16.015079 -8.5189552 -1.2070756 50
-9.7825918 -4.3248405 -0.77513945 45
-16.795424 -6.0070143 -1.3975639 39
-15.993853 -8.5076647 -1.5260059 36
-9.7904835 -4.3283296 -0.96515143 52
-8.1917868 -2.9298565 -0.83556616 1
-15.978273 -8.4993773 -1.8450497 35
-9.7735128 -4.3208265 -1.1525712 53
-9.7572136 -4.313621 -1.339763 44
-7.2899647 -3.2228613 -1.1420493 0
-6.916646 -3.0578187 -1.2187507 6
-6.7596126 -2.988395 -1.3218135 0
-6.6336856 -2.932723 -1.4265404 21
-6.6355886 -2.9335642 -1.5554963 11
-6.631989 -2.931973 -1.6832693 0
-7.1732783 -3.1712747 -1.9591188 1
-5.2756529 -2.3323426 -1.984355 5
-1.2865607 -0.56878275 -0.65570718 0
-2.4268987 -1.0527285 0.69829935 8
-5.2747579 -2.2880595 1.1110561 39
-5.0370541 -2.1849494 0.76812607 5
-6.1638103 -2.6737082 0.58332247 14
-9.8399448 -4.2683244 0.55179238 29
-9.825346 -4.2619915 0.36145937 35
-12.126522 -4.241899 0.35727933 2
-16.098753 -8.4198027 0.39832261 29
-9.8150015 -4.2575045 0.17142937 25
-15.419025 -5.3936276 0.16536501 38
-14.199103 -7.4262676 0.067680314 23
-9.8089085 -4.2548618 -0.017727999 34
-16.884293 -5.9061832 -0.13487108 35
-16.076357 -8.4080896 -0.24383052 27
-9.8144255 -4.2572551 -0.20690636 51
-16.879396 -5.9044704 -0.4513998 38
-16.066484 -8.4029255 -0.56441158 35
-9.8131905 -4.2567191 -0.39652818 52
-16.842808 -5.8916721 -0.76658529 61
-16.051603 -8.3951435 -0.88435864 82
-9.7905788 -4.2469106 -0.5845136 50
-16.846279 -5.8928862 -1.0822033 50
-16.05648 -8.3976936 -1.2057477 52
-9.7869253 -4.2453256 -0.77311563 47
-16.821892 -5.8843551 -1.3963141 36
-16.038731 -8.3884106 -1.5246629 34
-9.7875681 -4.2456045 -0.96191871 51
-8.1669388 -2.8568232 -0.83097726 1
-16.023117 -8.3802443 -1.8434269 40
-9.7778997 -4.2414107 -1.1495686 52
-9.725193 -4.2185478 -1.3312899 28
-7.3050218 -3.1687376 -1.1409147 1
-6.9414477 -3.0110281 -1.2193872 7
-6.7333508 -2.9207609 -1.3126587 9
-6.6359944 -2.87853 -1.4226807 16
-6.634378 -2.8778288 -1.5504651 12
-6.6058264 -2.8654439 -1.6715108 0
-7.1596408 -3.1056747 -1.949425 1
-5.2709866 -2.2864234 -1.9765476 5
-1.3270864 -0.57565725 -0.6742968 1
-2.4270716 -1.0327314 0.69625753 5
-5.2797618 -2.2465658 1.1087793 29
-5.2927656 -2.252099 0.80470347 15
-6.1603251 -2.6212502 0.58124655 15
-9.8474503 -4.1901407 0.55055928 28
-9.8143969 -4.1760764 0.35997522 17
-12.155841 -4.1571364 0.35727933 2
-16.135803 -8.296236 0.39779654 24
-9.826086 -4.1810503 0.17110893 25
-15.456305 -5.2858515 0.16536501 57
-14.442697 -7.4257245 0.06859263 21
-9.8162909 -4.1768823 -0.017688205 36
-16.913761 -5.7842822 -0.1347806 38
-16.120438 -8.2883368 -0.24361549 29
-9.8144684 -4.1761069 -0.20628758 38
-16.912638 -5.7838984 -0.45119792 38
-16.106977 -8.281415 -0.56378925 36
-9.7985315 -4.1693258 -0.39475003 29
-16.894873 -5.7778225 -0.76710033 44
-16.113375 -8.2847052 -0.88455373 45
-9.7979383 -4.1690736 -0.58320111 49
-16.887009 -5.7751336 -1.0822033 53
-16.104067 -8.2799187 -1.2049509 50
-9.7832851 -4.1628385 -0.77051353 52
-16.87011 -5.7693543 -1.396939 39
-16.086267 -8.2707672 -1.5236557 40
-9.7583179 -4.1522145 -0.95617157 33
-8.1791496 -2.7971609 -0.83021241 1
-16.067076 -8.2608995 -1.8418043 45
-9.7560406 -4.1512456 -1.1435634 42
-9.7434511 -4.1458888 -1.3297945 26
-7.3488269 -3.1269639 -1.1443187 0
-6.9586658 -2.9609482 -1.2187507 7
-6.7245922 -2.8613489 -1.307025 10
-6.6414828 -2.8259854 -1.419593 13
-6.6579065 -2.8329737 -1.5513036 12
-6.6256704 -2.819257 -1.6715108 0
-5.3181448 -2.262898 -1.9882586 6
-1.334409 -0.56779796 -0.67598677 1
-2.4342222 -1.0157621 0.69625753 5
-5.2735705 -2.2005768 1.1042259 37
-5.3376064 -2.227298 0.80913711 19
-6.163764 -2.5720403 0.57986265 14
-9.828537 -4.1012917 0.54788768 16
-9.8433123 -4.1074572 0.35997522 40
-12.195945 -4.075974 0.35761294 3
-16.175482 -8.174366 0.39735815 24
-9.8291979 -4.1015673 0.17066033 29
-15.489037 -5.176549 0.16532452 43
-14.683396 -7.4203324 0.069488056 22
-9.8267546 -4.1005478 -0.017655045 37
-16.953732 -5.6660604 -0.1347806 38
-16.174339 -8.1737881 -0.24356174 35
-9.8212395 -4.0982466 -0.20582348 54
-16.92985 -5.6580796 -0.45059228 40
-16.150126 -8.1615515 -0.56329143 38
-9.8163338 -4.0961995 -0.3943055 55
-16.934797 -5.6597333 -0.76710033 59
-16.156557 -8.1648016 -0.88377351 45
-9.8010035 -4.0898027 -0.58166981 51
-16.926916 -5.6570988 -1.0822033 46
-16.122293 -8.1474876 -1.2020295 48
-9.7863369 -4.0836821 -0.76848966 56
-16.906195 -5.6501737 -1.3966266 43
-16.108042 -8.1402845 -1.520298 37
-9.7907438 -4.0855212 -0.95653081 64
-8.1607141 -2.7273705 -0.8263883 1
-16.106598 -8.139555 -1.8397758 41
-9.7701025 -4.0769081 -1.1418476 58
-9.7648325 -4.0747089 -1.3287977 50
-7.2243109 -3.0145898 -1.1216252 4
-6.9427233 -2.8970876 -1.2123865 7
-6.7117 -2.8006854 -1.300687 10
-6.6139627 -2.7599013 -1.4095577 15
-6.641427 -2.7713616 -1.5429182 12
-6.5948486 -2.751925 -1.6588479 2
-6.6650867 -2.7812345 -1.8040179 0
-5.3163595 -2.2184319 -1.9817525 7
-1.4353702 -0.59895706 -0.72499579 3
-2.4555724 -1.004601 0.70034117 5
-5.266995 -2.1547842 1.0996723 44
-5.3566918 -2.1914802 0.80969131 21
-6.1631284 -2.5214019 0.57813275 16
-9.8421402 -4.026525 0.54706568 28
-9.8384476 -4.0250144 0.35876092 40
-12.2165 -3.9882486 0.35739055 3
-16.210665 -8.0505676 0.39683208 35
-9.8353825 -4.0237603 0.17027582 28
-15.5286 -5.0695305 0.16536501 56
-14.939046 -7.419054 0.070451051 20
-9.81812 -4.0166984 -0.017588722 40
-16.989071 -5.5463219 -0.13475044 40
-16.202351 -8.0464392 -0.24313171 31
-9.8125963 -4.0144386 -0.20505001 58
-16.976542 -5.5422311 -0.45079416 37
-16.195969 -8.0432692 -0.56291807 42
-9.8076954 -4.0124331 -0.3928237 57
-16.973898 -5.541368 -0.76710033 49
-16.195274 -8.0429239 -0.88279825 45
-9.7997437 -4.0091805 -0.57991976 53
-16.965998 -5.5387888 -1.0822033 50
-16.146612 -8.0187578 -1.1996392 50
-9.7813749 -4.0016656 -0.76588756 49
-16.933855 -5.5282955 -1.3956892 39
-16.157339 -8.024085 -1.5196265 39
-9.7895298 -4.0050015 -0.95365727 69
-8.1492758 -2.6604459 -0.82332903 1
-16.152338 -8.0216007 -1.8385588 40
-9.7762413 -3.9995651 -1.1392739 60
-9.7636547 -3.9944158 -1.3248104 51
-6.9371943 -2.8380806 -1.2079315 7
-6.7055783 -2.743324 -1.2957574 7
-6.6149068 -2.7062292 -1.4056981 17
-6.6207943 -2.708638 -1.5336943 29
-6.5994744 -2.6999159 -1.6552299 3
-6.6556067 -2.7228801 -1.7962629 0
-5.3387189 -2.1841273 -1.984355 9
-1.499916 -0.61363167 -0.7554152 9
-1.7768955 -0.71250659 0.50534821 3
-5.2636843 -2.1106529 1.0958778 48
-5.3387694 -2.1407609 0.80470347 19
-6.1546898 -2.4679317 0.57571089 16
-9.8403492 -3.945822 0.5454216 28
-9.8329134 -3.9428403 0.3575466 41
-12.240235 -3.90165 0.35727933 2
-16.266474 -7.9372001 0.39683208 38
-9.8224001 -3.9386246 0.16957088 32
-15.575046 -4.9646411 0.16548648 133
-15.238521 -7.4356112 0.071616791 18
-9.8273592 -3.9406135 -0.017555561 39
-17.023567 -5.4263659 -0.13472028 41
-16.229374 -7.9190969 -0.24270168 32
-9.8032646 -3.9309516 -0.20427652 54
-17.011009 -5.4223633 -0.45069322 37
-16.222982 -7.915978 -0.56192243 41
-9.8057871 -3.9319632 -0.39163828 59
-17.000748 -5.4190922 -0.76658529 45
-16.200762 -7.9051356 -0.88006753 45
-9.7978373 -3.9287755 -0.5781697 46
-16.99284 -5.4165711 -1.081477 55
-16.2022 -7.9058371 -1.1996392 52
-9.8053713 -3.9317963 -0.76559842 51
-16.983435 -5.4135737 -1.3966266 39
-16.198637 -7.9040985 -1.5182835 39
-9.7987633 -3.9291468 -0.95186126 56
-8.1600628 -2.6010699 -0.82256418 1
-16.172182 -7.8911905 -1.834502 42
-9.7891607 -3.9252965 -1.1375581 60
-7.5000348 -3.0073936 -1.0147908 5
-7.1591187 -2.8706918 -1.1051724 0
-6.9311814 -2.7792923 -1.2034765 7
-6.7026391 -2.6876507 -1.2915322 5
-6.6190672 -2.6541398 -1.4026103 17
-6.6213923 -2.655072 -1.5295016 29
-6.5928478 -2.6436262 -1.6488984 5
-6.6204247 -2.6546841 -1.7817221 0
-5.3468156 -2.1439872 -1.9817525 8
-1.5277184 -0.61259055 -0.76724499 31
-1.7998247 -0.7071557 0.51045275 5
-5.2746358 -2.0724177 1.0951189 31
-5.3351498 -2.0961938 0.80193245 19
-6.1569333 -2.4190748 0.57432699 15
-9.8565016 -3.8726447 0.54480505 23
-9.9085703 -3.8931024 0.35930061 17
-12.278631 -3.8196652 0.35761294 2
-16.303455 -7.8148103 0.39639369 41
-9.9278297 -3.9006693 0.17091668 14
-15.605507 -4.8545976 0.165446 60
-15.495653 -7.4276028 0.072579794 17
-9.9812117 -3.9216435 -0.017781056 15
-17.057217 -5.3061991 -0.13469012 37
-16.287867 -7.8073387 -0.24275543 33
-9.8379135 -3.8653412 -0.20443122 48
-17.04845 -5.303472 -0.45069322 37
-16.263424 -7.7956223 -0.56142461 37
-9.8776436 -3.8809512 -0.3934164 26
-17.038166 -5.3002725 -0.76658529 43
-16.241138 -7.7849402 -0.87928736 43
-9.9105272 -3.8938711 -0.58320111 22
-17.030239 -5.2978067 -1.081477 51
-16.235397 -7.7821884 -1.1980457 46
-9.9625435 -3.9143085 -0.77571774 21
-17.017006 -5.2936902 -1.3963141 42
-16.231853 -7.780489 -1.516269 36
-9.8296642 -3.8620999 -0.9522205 57
-8.1818256 -2.5452216 -0.82294661 1
-16.219698 -7.774663 -1.8336905 39
-9.8681479 -3.8772202 -1.1435634 25
-7.1863565 -2.8235376 -1.1063071 0
-6.917336 -2.717839 -1.1977488 8
-6.6955857 -2.6307125 -1.2866026 3
-6.6264763 -2.6035593 -1.4002945 16
-6.625206 -2.6030602 -1.5261474 30
-6.6002636 -2.5932603 -1.6461849 6
-6.617125 -2.5998852 -1.7759058 0
-5.3616533 -2.1066072 -1.9817525 8
-1.531958 -0.60191017 -0.76724499 9
-1.8119365 -0.69735157 0.51249456 8
-5.2779794 -2.0313115 1.0928421 39
-5.3496537 -2.0588965 0.80193245 20
-6.1513572 -2.3674443 0.57225108 15
-10.062248 -3.8726108 0.5546695 17
-10.114594 -3.8927565 0.36577693 18
-12.293518 -3.7303679 0.35727933 1
-16.332291 -7.6888776 0.39577994 34
-10.141449 -3.9030924 0.17412096 13
-15.623708 -4.7408867 0.16528404 16
-15.782364 -7.4299846 0.07367795 17
-10.198732 -3.925139 -0.018119302 15
-17.097672 -5.188149 -0.13472028 39
-16.316645 -7.6815119 -0.24237914 30
-10.04008 -3.8640788 -0.20806658 25
-17.081232 -5.1831608 -0.45059228 37
-16.302984 -7.6750808 -0.5609268 39
-10.094752 -3.8851206 -0.40097356 24
-17.070929 -5.1800337 -0.76641357 46
-16.291477 -7.6696639 -0.87909228 44
-10.123843 -3.8963165 -0.59413886 21
-17.074451 -5.1811032 -1.0819613 54
-16.289333 -7.668654 -1.1980457 50
-10.17207 -3.9148772 -0.78988475 20
-17.045918 -5.1724443 -1.3956892 40
-16.282169 -7.6652818 -1.5159333 39
-10.019979 -3.8563426 -0.96802497 51
-8.1346226 -2.4683847 -0.81644565 1
-16.269981 -7.6595435 -1.8332849 40
-7.9092984 -3.0440149 -0.91407859 2
-7.4820299 -2.8795741 -1.006816 0
-7.1800256 -2.7633431 -1.1023357 0
-6.9177136 -2.6623883 -1.1945666 7
-6.6843901 -2.5725904 -1.2809689 1
-6.6225138 -2.5487761 -1.3956629 16
-6.632267 -2.5525298 -1.5236318 24
-6.592752 -2.5373218 -1.6398535 8
-6.6206264 -2.5480497 -1.7720283 1
-5.3938794 -2.0759175 -1.9882586 6
-1.4955204 -0.57557398 -0.74696535 5
-1.8203795 -0.6860497 0.51351547 8
-5.2883563 -1.9930323 1.0920831 31
-5.3527751 -2.0173101 0.80026984 20
-6.1490889 -2.3174181 0.57052118 12
-10.260988 -3.8670771 0.56412292 16
-10.343529 -3.8981843 0.37306279 15
-12.296257 -3.6376462 0.35661215 1
-16.37105 -7.5679564 0.39542922 38
-10.355576 -3.9027243 0.17732525 15
-15.671767 -4.6362357 0.165446 4
-16.374838 -7.5697074 0.076195262 27
-10.405549 -3.9215579 -0.01843765 16
-17.137312 -5.0697927 -0.13475044 36
-16.348093 -7.5573435 -0.24205662 33
-10.250183 -3.8630049 -0.21185665 22
-17.147678 -5.0728598 -0.4513998 38
-16.338024 -7.5526891 -0.56030446 36
-10.319872 -3.8892686 -0.40882707 23
-17.11051 -5.0618639 -0.76658529 50
-16.333746 -7.5507112 -0.87850714 41
-10.345142 -3.8987923 -0.60551411 22
-17.102549 -5.0595093 -1.081477 51
-16.320736 -7.5446973 -1.1964523 49
-10.389545 -3.9155266 -0.80463004 22
-17.085436 -5.0544462 -1.3960017 39
-16.309961 -7.5397162 -1.5135829 36
-10.236776 -3.8579524 -0.9863438 35
-8.1631117 -2.4149227 -0.81759286 1
-9.7743292 -4.5184455 -1.0977802 0
-7.9080276 -2.9803126 -0.91150492 1
-7.4648113 -2.813277 -1.0018318 0
-7.1472692 -2.6936042 -1.094393 0
-6.92874 -2.6112468 -1.1932938 7
-6.687448 -2.5203104 -1.278152 0
-6.6034188 -2.4886422 -1.3879435 20
-6.627965 -2.4978931 -1.5186005 23
-6.5811362 -2.4802446 -1.6326175 23
-6.6092014 -2.4908216 -1.7642733 2
-5.3976216 -2.0342114 -1.984355 6
-1.4995019 -0.56511998 -0.74696535 5
-1.8106109 -0.66796982 0.50943184 7
-5.2800341 -1.947908 1.0875297 44
-5.3369961 -1.9689225 0.79583627 20
-6.1501632 -2.2689159 0.56913728 13
-10.362693 -3.8230004 0.56823313 18
-13.536022 -4.9937038 0.486938 18
-16.927931 -4.8796 0.48993862 32
-9.865016 -4.4770465 0.23752058 1
-16.787716 -6.1933179 0.28671962 27
-15.722965 -4.5322599 0.16564845 3
-9.8235893 -4.4582458 0.045565106 25
-16.801107 -6.1982579 -0.029692573 31
-17.179972 -4.9522524 -0.13481076 37
-9.8009377 -4.4479656 -0.14465342 33
-10.453249 -3.8564086 -0.21549201 16
-17.174988 -4.9508157 -0.45119792 35
-9.7861538 -4.4412565 -0.33453986 43
-16.785847 -6.1926279 -0.66325116 48
-17.153107 -4.9445086 -0.76692867 43
-9.7865238 -4.4414244 -0.52468568 9
-16.75725 -6.1820779 -0.9782728 42
-17.137451 -4.9399958 -1.081477 49
-9.7838278 -4.4402008 -0.71494997 38
-16.749699 -6.1792922 -1.2938266 40
-17.120302 -4.9350524 -1.3960017 37
-9.7708607 -4.4343157 -0.90385211 39
-10.442865 -3.8525779 -1.0035851 14
-8.1759443 -2.3567758 -0.8172105 1
-9.7367859 -4.4188519 -1.0900723 33
-7.8913302 -2.9112666 -0.90721548 0
-7.4582052 -2.7514782 -0.99834275 0
-7.1510406 -2.638159 -1.0921236 0
-6.9208665 -2.5532434 -1.1888388 7
-6.6790209 -2.4640219 -1.2732226 0
-6.5985384 -2.4343302 -1.3833119 24
-6.6489115 -2.4529138 -1.5194391 29
-6.5763574 -2.4261472 -1.6271905 16
-6.6337113 -2.4473062 -1.766212 1
-5.3974972 -1.9912425 -1.9791501 5
-1.479601 -0.54585385 -0.73513561 6
-1.8479695 -0.66713238 0.51862001 8
-5.2861161 -1.9083319 1.0860118 35
-5.3431592 -1.9289249 0.79472786 20
-6.1658535 -2.2259243 0.56913728 13
-10.449247 -3.7722652 0.57152128 18
-14.002978 -5.0551915 0.50245416 17
-16.953884 -4.7591405 0.48971623 30
-9.8302765 -4.378777 0.23594236 31
-16.81926 -6.0718923 0.28652737 27
-15.742671 -4.4191399 0.16552699 3
-9.8362045 -4.3814178 0.045480631 61
-16.825157 -6.0740218 -0.029659413 35
-17.202574 -4.8289499 -0.13472028 36
-9.8061752 -4.3680415 -0.14427714 34
-16.799465 -6.0647469 -0.34543693 42
-17.201433 -4.82863 -0.45099604 37
-9.7840528 -4.3581872 -0.33341974 44
-16.809872 -6.0685039 -0.66251028 44
-17.194902 -4.826797 -0.76727206 50
-9.7880955 -4.3599882 -0.52312529 57
-16.792486 -6.0622272 -0.9778353 42
-17.179211 -4.822392 -1.0819613 49
-9.7817755 -4.357173 -0.7125597 47
-16.796181 -6.063561 -1.2941158 39
-17.158178 -4.8164883 -1.3963141 35
-9.7688112 -4.351398 -0.90083033 40
-16.75346 -6.0481381 -1.6059517 79
-8.2075329 -2.3039443 -0.81874013 1
-9.7637625 -4.3491492 -1.0896666 48
-7.8516121 -2.8344972 -0.90035236 0
-7.454834 -2.6912572 -0.99535227 0
-7.1506624 -2.5814486 -1.089287 0
-6.9125223 -2.4954779 -1.1843839 7
-6.6775422 -2.4106483 -1.2697015 0
-6.6042972 -2.3842063 -1.3809961 19
-6.6474805 -2.3997958 -1.5152464 29
-6.5858049 -2.3775303 -1.6253815 20
-6.6214337 -2.3903928 -1.7584569 2
-5.4112668 -1.9535124 -1.9791501 5
-1.503836 -0.54289734 -0.74527544 6
-1.852582 -0.65421492 0.51862001 8
-5.2807937 -1.8648427 1.0822172 34
-5.3490248 -1.8889376 0.79361945 21
-6.16997 -2.1788435 0.56809932 13
-10.482861 -3.701884 0.57193226 16
-15.225348 -5.3766308 0.54495502 20
-17.002125 -4.6448789 0.49016103 32
-9.8422852 -4.3020339 0.23550397 42
-15.397997 -5.4375992 0.2616621 20
-15.757706 -4.3049111 0.16536501 6
-9.8335667 -4.298223 0.04532858 47
-16.85961 -5.9537487 -0.029646149 33
-17.251301 -4.7129521 -0.13484092 41
-9.8107777 -4.2882624 -0.14390086 36
-16.841396 -5.9473166 -0.34543693 45
-17.254011 -4.7136922 -0.45150074 37
-9.7922592 -4.2801676 -0.33267301 45
-16.85183 -5.9510012 -0.66251028 51
-17.216618 -4.7034769 -0.76675695 51
-9.7963314 -4.2819476 -0.52195495 46
-16.8344 -5.9448462 -0.9778353 43
-17.220161 -4.7044449 -1.0824454 55
-9.7790413 -4.2743902 -0.71016943 49
-16.834343 -5.9448261 -1.2938266 39
-17.202927 -4.6997366 -1.3972515 40
-9.7697334 -4.2703218 -0.8981443 43
-16.799032 -5.9323568 -1.6063108 75
-8.2234182 -2.2465887 -0.81874013 1
-9.7574244 -4.2649417 -1.0856097 51
-7.852459 -2.7729924 -0.89820766 0
-7.4659567 -2.6365042 -0.99435538 0
-7.1685104 -2.5314648 -1.089287 0
-6.9148808 -2.4418988 -1.1818382 7
-6.6942091 -2.3639717 -1.2697015 0
-6.6207814 -2.3380415 -1.3809961 19
-6.6493201 -2.3481197 -1.5118922 22
-6.5875468 -2.3263052 -1.6217635 21
-6.6379604 -2.3441081 -1.7584569 0
-5.4283395 -1.9169465 -1.9804513 5
-1.4836596 -0.52393484 -0.73344564 6
-1.9082842 -0.65893817 0.53291267 8
-5.2788353 -1.8228029 1.0791816 45
-5.3545933 -1.8489624 0.79251105 20
-6.1774974 -2.1331146 0.56740737 10
-10.466914 -3.6142676 0.56967169 18
-16.649326 -5.7490792 0.59447181 33
-17.045731 -4.5291486 0.49049461 32
-9.8537016 -4.2253366 0.23506558 43
-16.898617 -5.8351598 0.28646329 33
-15.779645 -4.1927419 0.16528404 3
-9.8192196 -4.2105503 0.045125842 45
-16.904545 -5.8372068 -0.02965278 35
-17.287647 -4.5934272 -0.13487108 42
-9.8037176 -4.2039027 -0.14336331 21
-16.886284 -5.8309016 -0.3455143 48
-17.267176 -4.5879874 -0.45099604 40
-9.7961807 -4.2006712 -0.3318018 32
-16.885406 -5.8305984 -0.66221392 50
-17.26062 -4.5862455 -0.76727206 45
-9.7929392 -4.1992812 -0.52019948 48
-16.883043 -5.8297825 -0.9782728 41
-17.252584 -4.5841107 -1.0824454 50
-9.7792997 -4.1934323 -0.70804477 41
-16.849037 -5.8180399 -1.2918028 40
-17.243027 -4.5815711 -1.3978764 37
-9.7480221 -4.1800203 -0.8934437 20
-16.832506 -5.8123317 -1.6055925 72
-8.2504463 -2.1921909 -0.81988734 1
-9.7686758 -4.1888766 -1.0835813 47
-7.8678679 -2.7168062 -0.89777869 0
-10.736705 -3.707427 -1.4264888 0
-7.1785231 -2.4787726 -1.0881523 0
-6.9280272 -2.3922756 -1.1812017 8
-6.7068281 -2.3158946 -1.2689972 0
-6.6258135 -2.2879198 -1.3786802 20
-6.6581573 -2.2990882 -1.510215 16
-6.5888944 -2.2751718 -1.6181455 14
-6.6138134 -2.2837763 -1.7477938 0
-5.4523163 -1.8827065 -1.984355 8
-1.5146965 -0.52303076 -0.74696535 5
-1.9238313 -0.64931011 0.5359754 8
-5.2802687 -1.7821375 1.0769048 32
-5.3673706 -1.8115352 0.79251105 20
-6.1846871 -2.0873866 0.56671542 9
-10.518386 -3.5500486 0.57111025 17
-16.681482 -5.6301479 0.59420198 33
-12.450562 -3.2152979 0.35761294 1
-9.8387251 -4.1378379 0.23401344 42
-16.935154 -5.7157645 0.28639919 31
-15.816276 -4.0844779 0.16536501 4
-9.822566 -4.1310415 0.045007579 47
-16.929724 -5.7139316 -0.029626252 32
-17.323168 -4.4736252 -0.13490124 37
-9.8033323 -4.1229525 -0.14293328 36
-16.919003 -5.7103133 -0.34535959 47
-17.3104 -4.4703283 -0.45129886 38
-9.788415 -4.1166792 -0.33055726 46
-16.918127 -5.7100177 -0.66191757 47
-17.299957 -4.4676313 -0.76761538 51
-9.7999201 -4.1215177 -0.5190292 48
-16.911978 -5.7079425 -0.97761655 44
-17.295765 -4.4665484 -1.0831717 51
-9.7899418 -4.117321 -0.70671684 54
-16.908144 -5.7066483 -1.2932484 41
-17.270729 -4.4600835 -1.3975639 38
-9.7806396 -4.113409 -0.89377946 43
-16.887774 -5.6997733 -1.6070292 63
-8.2771149 -2.1375253 -0.82103455 1
-9.7646675 -4.1066918 -1.0799302 53
-7.8640342 -2.6541812 -0.89520508 0
-7.6148529 -2.5700803 -1.0093081 0
-7.1731429 -2.4209995 -1.0847483 0
-6.9445596 -2.3438504 -1.1812017 8
-6.7004476 -2.2614605 -1.2647719 1
-6.6304684 -2.2378418 -1.3763645 29
-6.6629286 -2.2487974 -1.5076995 25
-6.6046176 -2.2291172 -1.6181455 20
-6.622242 -2.2350655 -1.745855 0
-5.4617434 -1.8433868 -1.9830537 7
-1.4942654 -0.50432783 -0.73513561 6
-1.9393364 -0.63949692 0.53903812 8
-5.2851219 -1.742771 1.075387 32
-5.3648381 -1.7690574 0.79029423 18
-6.1764016 -2.0366709 0.56463951 8
-10.535327 -3.4740281 0.57069921 16
-16.735567 -5.5185599 0.5947417 32
-12.461069 -3.1253798 0.35727933 1
-9.8377962 -4.0568533 0.23331201 47
-16.970846 -5.5961432 0.28633511 30
-15.844406 -3.9739597 0.16536501 8
-9.8363752 -4.0562673 0.044940002 51
-16.976799 -5.5981059 -0.029639516 32
-17.365616 -4.3554969 -0.13499171 41
-9.805994 -4.0437388 -0.142557 38
-16.966051 -5.5945621 -0.3455143 45
-17.36058 -4.3542337 -0.45180357 38
-9.7836504 -4.0345249 -0.32943714 45
-16.949984 -5.5892639 -0.66162121 50
-17.3346 -4.3477178 -0.7677871 48
-9.7952137 -4.0392933 -0.51727372 46
-16.947622 -5.5884848 -0.9773978 48
-17.334272 -4.3476353 -1.083656 55
-9.7815495 -4.0336585 -0.70406103 52
-16.939995 -5.5859694 -1.2926701 38
-17.320787 -4.3442531 -1.3991261 42
-9.7685862 -4.0283127 -0.89008617 48
-16.919586 -5.5792403 -1.6063108 40
-8.3381805 -2.0913117 -0.82562351 1
-9.763669 -4.0262847 -1.0766847 53
-7.8748183 -2.5967245 -0.89434719 0
-7.5006886 -2.4733548 -0.99186325 0
-7.2011514 -2.3745825 -1.0864503 0
-6.9345007 -2.2866542 -1.1767467 9
-6.7048545 -2.2109282 -1.2626593 0
-6.6459298 -2.1914978 -1.3763645 20
-6.6710367 -2.1997769 -1.5060223 11
-6.6126184 -2.1805134 -1.6163365 22
-6.6413693 -2.1899941 -1.7468244 0
-5.4672947 -1.8028426 -1.9804513 9
-1.5218515 -0.50183111 -0.74696535 6
-1.9768859 -0.6366117 0.54822624 7
-5.2672539 -1.6962008 1.0693156 35
-5.3770576 -1.7315607 0.79029423 18
-6.1904697 -1.9935018 0.56463951 8
-10.536509 -3.3930459 0.56946617 13
-16.773687 -5.4015889 0.5947417 34
-17.121305 -4.1673913 0.49004981 29
-9.8436317 -3.9790862 0.23278594 46
-17.024729 -5.4824314 0.28659144 31
-15.895081 -3.8689234 0.16560796 6
-9.8347836 -3.9755096 0.044804845 51
-17.02689 -5.4831276 -0.029659413 34
-17.403374 -4.2360477 -0.13505203 39
-9.815443 -3.9676914 -0.14228822 38
-17.000891 -5.4747548 -0.34543693 46
-17.409981 -4.2376561 -0.45230824 37
-9.7856293 -3.9556401 -0.32856593 45
-16.996202 -5.4732451 -0.66191757 46
-17.368414 -4.2275386 -0.76795876 41
-9.7972441 -3.960335 -0.51590842 48
-16.986225 -5.4700322 -0.9773978 43
-17.36808 -4.2274575 -1.0838981 45
-9.7872677 -3.9563022 -0.7024675 53
-16.970985 -5.4651246 -1.2920918 41
-17.354568 -4.2241683 -1.3994385 38
-9.7669058 -3.9480712 -0.88740015 45
-16.954332 -5.4597621 -1.6059517 30
-8.3835278 -2.0405827 -0.82868278 1
-9.7583332 -3.9446061 -1.0730336 52
-7.8662567 -2.5331511 -0.89134455 0
-7.4459949 -2.3978155 -0.98239321 0
-7.1874018 -2.3145413 -1.0819116 0
-6.9615722 -2.241818 -1.1786561 9
-6.7051339 -2.1592379 -1.2598424 0
-6.6498594 -2.141438 -1.3740486 25
-6.6564493 -2.1435599 -1.4993141 12
-6.6313887 -2.1354899 -1.617241 23
-6.6454153 -2.1400068 -1.7439163 0
-5.4833484 -1.7657892 -1.9817525 9
-1.5080632 -0.4856379 -0.73851556 6
-1.9997295 -0.6285947 0.55333078 8
-5.2639799 -1.6546788 1.0662799 43
-5.3701186 -1.6880424 0.78752321 18
-6.2080374 -1.9514337 0.56498551 6
-10.575182 -3.3242011 0.57028818 15
-16.822426 -5.2879591 0.59514648 31
-17.181114 -4.0551085 0.49093941 32
-9.8377094 -3.8970125 0.23199683 41
-17.047325 -5.3586535 0.28633511 30
-15.937275 -3.7615359 0.16576992 5
-9.8474236 -3.9008605 0.044737265 46
-17.053303 -5.3605332 -0.029639516 33
-17.436415 -4.115365 -0.13508219 37
-9.8354664 -3.8961239 -0.14218071 27
-17.027246 -5.3523426 -0.34520489 48
-17.443033 -4.1169271 -0.45240918 38
-9.868762 -3.9093134 -0.33043277 17
-17.033997 -5.3544641 -0.66191757 48
-17.405285 -4.1080174 -0.76830214 58
-9.8060808 -3.8844836 -0.51493317 44
-17.020185 -5.3501229 -0.97717899 45
-17.397171 -4.1061025 -1.0838981 51
-9.7998075 -3.8819983 -0.70140523 44
-17.008722 -5.3465195 -1.2920918 38
-17.39916 -4.1065722 -1.4006883 41
-9.8498154 -3.901808 -0.89243644 20
-16.980631 -5.3376894 -1.604874 20
-8.4944487 -2.0048707 -0.83824301 1
-9.8818264 -3.9144883 -1.0835813 19
-7.8837485 -2.4781764 -0.89134455 0
-7.5004144 -2.3576794 -0.98737746 0
-7.2373805 -2.2749972 -1.0870177 0
-6.9619832 -2.1884289 -1.1761104 9
-6.7125316 -2.1100163 -1.2584341 4
-6.6571584 -2.0926104 -1.3725047 27
-6.6712508 -2.0970402 -1.4993141 13
-6.6238322 -2.0821345 -1.611814 19
-6.6638942 -2.0947278 -1.7448857 0
-5.4919329 -1.7263335 -1.9804513 8
-1.5356269 -0.48270878 -0.75034529 6
-2.0373471 -0.62482446 0.56251895 7
-5.2829127 -1.6201919 1.0677978 17
-5.374198 -1.6481878 0.7864148 18
-6.19484 -1.8998666 0.56256366 4
-10.594312 -3.24912 0.57008266 14
-16.85129 -5.1680436 0.59487659 31
-17.216801 -3.9368451 0.49116179 36
-9.9541512 -3.8629606 0.23410112 17
-17.095789 -5.2430277 0.28652737 28
-15.978743 -3.6537471 0.1659319 6
-10.001203 -3.8812201 0.045311686 20
-17.094137 -5.2425213 -0.029646149 35
-17.484217 -3.9979935 -0.13523299 39
-10.05259 -3.9011624 -0.1449222 14
-17.064199 -5.2333393 -0.34520489 40
-17.483044 -3.997725 -0.452712 38
-10.085903 -3.9140902 -0.33678007 20
-17.070963 -5.2354136 -0.66191757 46
-17.445225 -3.9890776 -0.76881725 45
-9.9446993 -3.8592925 -0.52078468 18
-17.064758 -5.233511 -0.97761655 41
-17.456549 -3.9916668 -1.0858349 50
-9.9941063 -3.8784661 -0.71335644 20
-17.049446 -5.2288151 -1.292381 40
-17.446842 -3.9894471 -1.4022505 35
-10.055178 -3.9021664 -0.90855271 21
-8.4744625 -2.5989933 -0.79920429 0
-17.396864 -3.978019 -1.7139622 36
-10.075854 -3.9101906 -1.101837 19
-7.8742418 -2.4149146 -0.88834196 0
-7.4673643 -2.2901311 -0.98089796 0
-7.2303734 -2.2174494 -1.0836136 0
-6.9921932 -2.1444032 -1.1786561 8
-6.7082763 -2.0573299 -1.254913 0
-6.6641002 -2.043782 -1.3709608 19
-6.6782494 -2.0481212 -1.4976369 13
-6.638207 -2.0358407 -1.611814 15
-6.6672254 -2.0447402 -1.7419775 0
-5.5002351 -1.6868415 -1.9791501 7
-1.5146966 -0.46453524 -0.73851556 7
-2.1120615 -0.63164055 0.58191615 6
-5.389369 -1.6117637 0.78696901 18
-6.2041345 -1.8554305 0.56221765 4
-10.609082 -3.1727896 0.56967169 13
-16.875467 -5.0468373 0.59447181 32
-17.263384 -3.8208821 0.49171779 33
-10.171523 -3.8658311 0.23857272 17
-17.135807 -5.1246953 0.28659144 28
-16.00386 -3.5421133 0.1659319 5
-10.226223 -3.8866208 0.046207108 19
-17.137983 -5.1253462 -0.029659413 33
-17.507795 -3.8749771 -0.13520283 54
-10.25904 -3.8990932 -0.14750241 14
-17.100317 -5.1140814 -0.34520489 43
-17.506622 -3.8747175 -0.45261106 35
-10.303582 -3.9160221 -0.34312737 17
-17.107096 -5.1161084 -0.66191757 48
-17.492157 -3.8715162 -0.76967567 48
-10.15813 -3.8607409 -0.53053719 18
-17.097052 -5.1131048 -0.9773978 44
-17.503483 -3.8740227 -1.0870454 52
-10.207479 -3.8794968 -0.72663558 18
-17.097 -5.1130896 -1.2932484 41
-17.462587 -3.8649712 -1.4013132 37
-10.261017 -3.8998446 -0.92466891 18
-8.4694996 -2.5329185 -0.79704911 0
-17.447535 -3.86164 -1.7162567 41
-8.001235 -3.0409825 -0.87262577 1
-7.8794789 -2.3564649 -0.8870551 0
-7.5173922 -2.2481778 -0.98538375 0
-7.2153287 -2.1578417 -1.079075 0
-6.9994268 -2.0932734 -1.1773832 9
-6.7752891 -2.026242 -1.2647719 0
-6.6857266 -1.9994571 -1.3725047 34
-6.6773968 -1.9969659 -1.4942827 11
-6.6522579 -1.9894477 -1.611814 18
-6.6887736 -2.0003684 -1.7439163 0
-5.5046296 -1.646234 -1.9765476 7
-1.5213761 -0.45498812 -0.74020553 7
-2.1312718 -0.62120914 0.58599973 6
-2.4206274 -0.70554864 0.48722541 6
-5.3586555 -1.5619057 0.78087276 35
-6.2322407 -1.8165327 0.56360161 4
-10.630975 -3.0986469 0.56967169 13
-16.925644 -4.9333758 0.59501153 34
-17.293547 -3.7011044 0.49182898 34
-10.389411 -3.8658512 0.2430443 17
-17.175007 -5.0060587 0.28665555 30
-16.039932 -3.4328101 0.16605335 6
-10.44055 -3.8848798 0.047051843 20
-17.173349 -5.0055752 -0.029659413 35
-17.553978 -3.7568412 -0.13535362 43
-10.454696 -3.8901432 -0.14992137 6
-17.135605 -4.9945741 -0.34520489 43
-17.548887 -3.7557514 -0.45301482 38
-16.760641 -6.2365561 -0.55669522 37
-17.142397 -4.9965539 -0.66191757 48
-17.534391 -3.7526491 -0.77036244 44
-10.387034 -3.8649669 -0.54106992 20
-17.136168 -4.9947381 -0.97761655 40
-17.530102 -3.7517309 -1.0870454 50
-10.428827 -3.8805177 -0.74044591 19
-17.116962 -4.98914 -1.2920918 39
-17.489143 -3.7429652 -1.4013132 36
-10.47104 -3.8962247 -0.94112092 1
-8.4946251 -2.4759579 -0.79776752 0
-17.509111 -3.7472389 -1.7196984 41
-7.9887047 -2.9725595 -0.86897463 3
-7.8766479 -2.2958338 -0.8849104 0
-7.5062323 -2.1878674 -0.98189479 0
-7.2302179 -2.1074166 -1.079075 0
-7.0252442 -2.0476723 -1.1792924 9
-6.8195124 -1.9877068 -1.2704057 0
-6.7032909 -1.9538314 -1.3732767 31
-6.7061954 -1.9546779 -1.4976369 12
-6.6659851 -1.9429576 -1.611814 16
-6.6839476 -1.9481933 -1.7390693 0
-5.5232515 -1.6098812 -1.9791501 6
-1.5279962 -0.44537035 -0.7418955 7
-2.2471714 -0.63800395 0.61662692 6
-2.4330502 -0.6907776 0.48874328 6
-5.3770504 -1.5266211 0.78198117 21
-6.2601047 -1.7773329 0.56498551 4
-10.644662 -3.0221713 0.56926066 10
-16.955826 -4.8140006 0.59487659 34
-12.651499 -2.6153953 0.35928091 21
-12.088292 -4.4021668 0.28206116 48
-17.209538 -4.8860331 0.28665555 29
-16.075258 -3.3231761 0.16617483 5
-16.815521 -6.1236711 0.075587057 43
-17.207876 -4.885561 -0.029659413 33
-17.583694 -3.6350093 -0.13538378 45
-16.79912 -6.1176987 -0.24028271 34
-17.173904 -4.875916 -0.34528226 45
-17.598175 -3.6380026 -0.45362046 37
-16.800016 -6.1180248 -0.55657077 36
-17.180706 -4.8778472 -0.66206574 46
-17.55625 -3.6293354 -0.77019072 39
-16.773144 -6.1082392 -0.87148535 56
-17.162935 -4.8728018 -0.97717899 42
-17.567596 -3.6316812 -1.0877717 49
-16.771065 -6.107482 -1.187688 50
-17.155212 -4.8706093 -1.292381 39
-17.53828 -3.6256208 -1.4031879 35
-16.763817 -6.1048427 -1.5028389 34
-8.5040398 -2.414418 -0.79704911 0
-17.542643 -3.626523 -1.7204632 38
-7.9980445 -2.9126303 -0.86775756 3
-7.8924837 -2.2407885 -0.8849104 0
-7.5404134 -2.1408308 -0.98438692 0
-7.2599907 -2.0612149 -1.0813442 3
-7.0355692 -1.9974984 -1.1786561 10
-6.8445864 -1.9432756 -1.2725183 0
-6.7167678 -1.9069861 -1.3732767 21
-6.7196779 -1.9078122 -1.4976369 11
-6.6681423 -1.8931805 -1.6091006 14
-6.7123184 -1.9057229 -1.7429469 0
-5.5343556 -1.5712825 -1.9791501 7
-1.5310682 -0.43469208 -0.7418955 7
-2.6057081 -0.72017848 0.71361291 16
-2.4567404 -0.67900598 0.49253786 8
-3.5777175 -0.98882723 0.51928872 15
-6.2646775 -1.7314625 0.56429356 2
-10.661652 -2.9467199 0.56905514 12
-16.996725 -4.697639 0.59514648 30
-17.363144 -3.4631965 0.49238497 32
-12.114964 -4.3163252 0.28197348 51
-17.243229 -4.7657685 0.28665555 31
-16.113756 -3.2139981 0.1663368 7
-16.854095 -6.0047851 0.075570159 44
-17.233852 -4.7631774 -0.029646149 35
-17.620411 -3.5145104 -0.13547425 38
-16.830118 -5.9962425 -0.24012145 28
-17.222944 -4.7601624 -0.34559163 42
-17.623144 -3.5150554 -0.45362046 41
-16.83102 -5.9965644 -0.5561974 39
-17.206635 -4.7556548 -0.66176939 42
-17.596834 -3.5098078 -0.77087748 43
-16.800323 -5.9856277 -0.87070513 39
-17.204235 -4.7549911 -0.97761655 45
-17.608183 -3.5120714 -1.0887401 51
-16.809534 -5.9889088 -1.1874224 48
-17.188797 -4.7507243 -1.292381 41
-17.578808 -3.5062122 -1.4044377 41
-16.79101 -5.9823093 -1.5014958 36
-8.5206881 -2.3549898 -0.79704911 0
-17.575342 -3.5055213 -1.721228 40
-7.9769502 -2.8420315 -0.86329502 4
-7.9041018 -2.1845746 -0.88448149 0
-7.5360479 -2.0828502 -0.98189479 0
-7.2971025 -2.0168092 -1.0847483 9
-7.0226989 -1.9409682 -1.1742011 4
-6.8997335 -1.9069824 -1.2802647 4
-6.7488322 -1.8652756 -1.3771363 31
-6.7554517 -1.867105 -1.5026681 13
-6.7525525 -1.8663038 -1.626286 23
-6.736681 -1.8619171 -1.745855 0
-5.537899 -1.5305918 -1.9765476 6
-1.5375601 -0.42495844 -0.74358547 8
-2.6144075 -0.7029739 0.71463382 11
-2.4803841 -0.66693711 0.49633244 10
-3.5692315 -0.95971143 0.5170719 17
-6.292006 -1.6918236 0.56567746 3
-10.670389 -2.8691037 0.56843859 13
-17.025248 -4.5778275 0.59501153 30
-17.406532 -3.3456686 0.49294096 35
-12.144801 -4.2316418 0.28197348 52
-17.283806 -4.6473494 0.2867837 30
-16.147587 -3.1036894 0.16645826 6
-16.891829 -5.8856592 0.075553268 42
-17.278275 -4.6458621 -0.029666046 34
-17.656301 -3.393676 -0.13556473 41
-16.886677 -5.8838644 -0.24033648 33
-17.255756 -4.6398072 -0.34559163 45
-17.65118 -3.3926919 -0.4537214 36
-16.864922 -5.8762846 -0.5559485 35
-17.235556 -4.6343756 -0.66162121 48
-17.640532 -3.390645 -0.77173591 41
-16.85302 -5.8721375 -0.87129027 44
-17.252439 -4.6389151 -0.97849154 45
-17.632273 -3.3890579 -1.0887401 55
-16.850935 -5.8714108 -1.1874224 51
-17.236956 -4.6347523 -1.2935375 40
-17.618521 -3.3864145 -1.4056875 39
-16.836128 -5.8662519 -1.5018315 35
-8.5253792 -2.2923434 -0.79597157 0
-17.622849 -3.3872461 -1.7235225 41
-7.9552603 -2.7718699 -0.85883254 4
-7.9268422 -2.1314058 -0.88533938 1
-7.5619035 -2.0332794 -0.98339009 1
-7.3415947 -1.9740418 -1.089287 13
-7.0322642 -1.8908676 -1.1735647 5
-6.9737177 -1.8751254 -1.2915322 3
-6.7730608 -1.8211718 -1.3794522 23
-6.7834296 -1.8239598 -1.5060223 14
-6.7767053 -1.8221518 -1.6289995 127
-6.794487 -1.8269329 -1.7574877 6
-5.5594072 -1.4948391 -1.9804513 7
-1.5334871 -0.41233107 -0.74020553 8
-2.6005425 -0.67981404 0.70952934 9
-2.5191767 -0.658544 0.50316268 10
-5.4423361 -1.4226942 0.78696901 9
-6.3190861 -1.6518875 0.56706142 4
-10.69016 -2.7945404 0.56843859 11
-17.056793 -4.4588571 0.59501153 30
-17.437328 -3.2255211 0.49316338 36
-12.177831 -4.1480465 0.28206116 59
-17.319698 -4.5275841 0.2868478 30
-16.164927 -2.9901547 0.16641778 8
-16.928717 -5.7663069 0.07553637 43
-17.306417 -4.5241122 -0.029659413 32
-17.695297 -3.2732394 -0.13568537 44
-16.915981 -5.7619686 -0.24017522 31
-17.287727 -4.5192266 -0.34559163 45
-17.686232 -3.2715626 -0.45402423 41
-16.89418 -5.7545424 -0.55557513 38
-17.286827 -4.518991 -0.6623621 46
-17.663773 -3.2674081 -0.77173591 45
-16.874693 -5.7479048 -0.87031502 42
-17.284405 -4.5183578 -0.97849154 47
-17.671207 -3.2687833 -1.0897086 52
-16.880178 -5.7497735 -1.1866257 52
-17.276611 -4.5163207 -1.2941158 41
-17.649574 -3.264782 -1.4063123 37
-16.876671 -5.7485785 -1.5018315 39
-17.275066 -4.5159168 -1.6099027 21
-17.638235 -3.2626843 -1.7227577 42
-7.9631157 -2.7124188 -0.85761547 4
-7.9338331 -2.0740023 -0.88448149 4
-7.6143122 -1.9904757 -0.98837429 7
-7.4126596 -1.9377612 -1.097797 10
-7.0529346 -1.8437246 -1.1748375 6
-7.0171151 -1.834361 -1.2971659 2
-6.8197846 -1.7827762 -1.3863996 15
-6.8187022 -1.7824934 -1.5110537 13
-6.8005705 -1.7777535 -1.6317129 91
-6.822094 -1.78338 -1.7613652 10
-5.5660486 -1.4550341 -1.9791501 6
-1.5608816 -0.40803382 -0.75203526 8
-2.6764472 -0.6797303 0.72892654 13
-2.5655842 -0.65157479 0.51151079 6
-5.4175797 -1.3758887 0.78198117 29
-6.3304644 -1.6077316 0.56706142 5
-10.721025 -2.722791 0.56905514 10
-17.103003 -4.3436055 0.59555125 35
-17.467295 -3.1051064 0.49338576 36
-12.206492 -4.0629282 0.28206116 61
-17.354761 -4.4075437 0.28691188 31
-16.275984 -2.8933308 0.16734907 44
-16.960968 -5.6454544 0.075502582 44
-17.333702 -4.4021955 -0.02965278 34
-17.733469 -3.1524234 -0.13580601 49
-16.94441 -5.6399426 -0.24001394 31
-17.326611 -4.400394 -0.34574634 44
-17.748011 -3.1550083 -0.4550336 37
-16.952909 -5.6427722 -0.5561974 38
-17.317955 -4.3981957 -0.6623621 45
-17.71763 -3.1496079 -0.77310944 47
-16.925781 -5.6337428 -0.87090021 44
-17.315527 -4.3975797 -0.97849154 42
-17.70146 -3.1467333 -1.0901928 56
-16.919909 -5.6317873 -1.1866257 49
-17.319321 -4.3985429 -1.2949831 39
-17.687643 -3.1442769 -1.4075621 41
-16.897482 -5.6243229 -1.5001527 34
-17.290728 -4.3912811 -1.608466 33
-17.684107 -3.1436484 -1.7250521 40
-7.970531 -2.6529894 -0.8563984 4
-7.967392 -2.023458 -0.88662618 6
-7.6972632 -1.954854 -0.99734592 9
-7.5181122 -1.9093555 -1.1114131 5
-7.0732899 -1.796385 -1.1761104 7
-7.0488319 -1.7901735 -1.300687 1
-6.8624964 -1.7428504 -1.3925751 15
-6.8650966 -1.7435108 -1.5186005 12
-6.8128157 -1.7302331 -1.6317129 19
-6.9020824 -1.7529039 -1.778814 10
-5.5760708 -1.4161403 -1.9791501 6
-1.5566643 -0.39534202 -0.74865532 8
-2.6398211 -0.650846 0.71769655 7
-2.608202 -0.64305031 0.51910001 7
-5.4270525 -1.3380359 0.78198117 34
-6.3454022 -1.5644544 0.56740737 5
-10.728134 -2.6450138 0.56843859 9
-17.136789 -4.2250633 0.59568614 32
-17.496429 -2.9844306 0.49360815 34
-12.23456 -3.977612 0.28206116 68
-17.412289 -4.2929873 0.28736049 30
-16.2327 -2.7688715 0.16670121 11
-17.003775 -5.5281444 0.075519472 44
-17.402847 -4.2906594 -0.029719103 33
-17.794474 -3.0352693 -0.13610759 43
-16.990978 -5.5239844 -0.24012145 28
-17.364672 -4.2812471 -0.34590104 46
-17.769604 -3.0310268 -0.4550336 39
-16.969078 -5.5168643 -0.55545068 36
-17.371521 -4.2829361 -0.66325116 47
-17.739187 -3.0258386 -0.77310944 42
-16.960901 -5.5142059 -0.87070513 43
-17.349682 -4.2775517 -0.97871029 42
-17.734804 -3.0250912 -1.090919 56
-16.955017 -5.5122929 -1.1863601 49
-17.345732 -4.2765775 -1.2946939 41
-17.728817 -3.02407 -1.4091244 41
-16.951498 -5.5111489 -1.5014958 38
-17.344168 -4.2761922 -1.6106211 40
-17.729172 -3.0241303 -1.7273465 42
-8.0039959 -2.6022015 -0.85802114 4
-8.0160751 -1.9763576 -0.89048666 6
-7.772377 -1.916274 -1.0053207 1
-7.6119914 -1.876731 -1.1233273 2
-7.0894918 -1.7479092 -1.1767467 8
-7.0343957 -1.7343253 -1.2957574 0
-6.9011712 -1.7014787 -1.3979787 15
-6.9226699 -1.7067792 -1.528663 12
-6.8587761 -1.6910263 -1.6398535 21
-6.9442949 -1.7121109 -1.786569 9
-5.5748034 -1.3744638 -1.9752464 6
-1.5593863 -0.38446555 -0.74865532 8
-2.674392 -0.6395973 0.72586381 10
-2.6661026 -0.63761479 0.52972484 5
-5.4478197 -1.3028796 0.78364378 32
-6.336791 -1.5154825 0.56567746 4
-10.754109 -2.5719113 0.56884962 9
-17.165869 -4.1053228 0.59568614 33
-17.520782 -2.8628628 0.49371937 35
-12.262032 -3.8921018 0.28206116 255
-17.426275 -4.1676006 0.28710413 28
-16.287161 -2.6612916 0.16706564 20
-17.030516 -5.4056702 0.075468794 41
-17.424599 -4.1671996 -0.029705839 32
-17.823124 -2.9122648 -0.13616791 42
-17.021505 -5.4028106 -0.24001394 31
-17.409695 -4.1636353 -0.34621042 48
-17.817955 -2.9114203 -0.45574018 35
-17.01099 -5.3994727 -0.55557513 39
-17.412661 -4.1643448 -0.66369569 47
-17.783541 -2.905797 -0.77413952 44
-16.991369 -5.3932447 -0.87031502 42
-17.394659 -4.1600399 -0.97958535 43
-17.771252 -2.903789 -1.0918875 51
-16.993086 -5.3937902 -1.1863601 50
-17.382925 -4.1572332 -1.2952722 40
-17.757366 -2.9015203 -1.4097493 38
-16.974363 -5.3878474 -1.5001527 34
-17.361977 -4.1522231 -1.6095436 43
-17.75771 -2.9015763 -1.7281114 43
-7.9764533 -2.5318129 -0.85315293 4
-8.1457138 -1.9480973 -0.903355 5
-7.9245253 -1.8951989 -1.0232639 0
-7.6557155 -1.8309114 -1.1278659 1
-7.159133 -1.7121506 -1.1862931 9
-7.0999455 -1.6979957 -1.3056165 0
-6.9663215 -1.6660385 -1.4087858 17
-6.9952779 -1.6729637 -1.5420797 9
-6.9196787 -1.6548836 -1.6516119 15
-7.0428877 -1.6843498 -1.8088648 5
-5.580584 -1.334631 -1.9739453 5
-1.5620323 -0.37356961 -0.74865532 8
-2.753922 -0.63933808 0.74628192 10
-2.7314823 -0.63412857 0.54186755 5
-6.3272943 -1.4689159 0.56394756 5
-10.747583 -2.4951103 0.56761658 6
-17.208296 -3.9950001 0.59622586 24
-17.574938 -2.7521648 0.49472013 29
-12.276116 -3.8071373 0.28179812 56
-17.473013 -4.0564556 0.28742456 24
-16.320261 -2.5556872 0.1672276 20
-17.073633 -5.2949696 0.075502582 43
-17.475231 -4.0569706 -0.029745633 33
-17.849951 -2.7952306 -0.13622823 37
-17.053144 -5.2886152 -0.23996019 31
-17.433031 -4.0471735 -0.34613308 44
-17.860577 -2.7968946 -0.45634583 35
-17.050245 -5.2877164 -0.55569959 35
-17.443792 -4.0496716 -0.66384387 45
-17.826111 -2.7914975 -0.77516967 40
-17.045843 -5.2863517 -0.87129027 44
-17.437431 -4.0481954 -0.98046035 40
-17.825621 -2.7914207 -1.0940664 56
-17.028486 -5.2809687 -1.1863601 49
-17.429544 -4.0463643 -1.2967179 36
-17.791979 -2.7861526 -1.4109989 39
-17.01734 -5.2775116 -1.5008243 38
-17.393015 -4.0378833 -1.6099027 41
-17.792297 -2.7862024 -1.7296411 42
-7.9892683 -2.4776762 -0.85274726 4
-8.141819 -1.8901677 -1.0496805 0
-7.6985464 -1.7872597 -1.1324046 0
-7.2626529 -1.6860646 -1.2015673 8
-7.1532416 -1.6606642 -1.3133628 3
